VERSION .7
FIELDS x y z rgb label object
SIZE 4 4 4 4 4 4
TYPE F F F I I I
COUNT 1 1 1 1 1 1
WIDTH 694
HEIGHT 1
POINTS 694
VIEWPOINT 0 0 0 1 0 0 0
DATA ascii
-2.327991485595703 3.3151800632476807 0.8235456943511963 4456788 0 -1
-2.5777428150177 3.191643714904785 0.5067973732948303 4456788 0 -1
-3.357138156890869 2.4111826419830322 -0.06334967166185379 4456788 0 -1
-3.199064254760742 2.617856979370117 0.031674835830926895 4456788 0 -1
-2.4101524353027344 3.298187017440796 0.6334967017173767 4456788 0 -1
-3.357138156890869 2.4111826419830322 -0.06334967166185379 4456788 0 -1
-3.2802276611328125 2.486729383468628 0.38009801506996155 4523353 0 -1
-2.3111765384674072 3.4249966144561768 0.12669934332370758 4664956 0 -1
-2.4443137645721436 3.2789223194122314 0.6018218398094177 3302798 0 -1
-3.0989553928375244 2.5987043380737305 0.8552204966545105 2458766 0 -1
-3.0989553928375244 2.5987043380737305 0.8552204966545105 2328718 0 -1
-2.382167339324951 3.259890556335449 -0.8868953585624695 2328718 0 -1
-3.1039886474609375 2.6029250621795654 0.8235456943511963 2264205 0 -1
-2.431966543197632 3.2623589038848877 0.7285211682319641 2264205 0 -1
-3.5133984088897705 2.1725218296051025 0.5427120923995972 4590430 0 -1
-3.3803915977478027 2.4278836250305176 0.19154545664787292 4590430 0 -1
-2.381310224533081 3.324265956878662 0.7981060743331909 3887499 0 -1
-3.154714345932007 2.6454622745513916 0.6384848356246948 3432845 0 -1
-2.3714354038238525 3.377046585083008 0.5746363401412964 3432845 0 -1
-3.1508235931396484 2.6421995162963867 0.670409083366394 3302798 0 -1
-2.4635603427886963 3.3047404289245605 0.6065605878829956 3302798 0 -1
-2.434673547744751 3.3317432403564453 0.5746363401412964 2458766 0 -1
-2.4635603427886963 3.3047404289245605 0.6065605878829956 2328718 0 -1
-2.445563554763794 3.4139623641967773 0.5187689065933228 4147337 0 -1
2.9158642292022705 4.070493698120117 0.6185321807861328 4456788 5 -1
2.9129951000213623 4.066488265991211 0.6571904420852661 4456788 5 -1
2.877497673034668 4.097705364227295 0.6185321807861328 4456788 5 -1
2.9129951000213623 4.066488265991211 0.6571904420852661 4456788 5 -1
2.9158642292022705 4.070493698120117 0.6185321807861328 4456788 5 -1
2.6454107761383057 4.333475112915039 0.07781533896923065 4456788 5 -1
2.6444785594940186 4.3319478034973145 0.1556306779384613 4456788 5 -1
2.6419129371643066 4.32774543762207 0.2723536789417267 4456788 5 -1
2.606813907623291 4.357497215270996 0 4456788 5 -1
2.6437790393829346 4.330801963806152 0.19453835487365723 4456788 5 -1
2.9444563388824463 4.11040735244751 0.4668920338153839 4456788 5 -1
2.9373865127563477 4.10053825378418 0.5836150646209717 4456788 5 -1
2.9373865127563477 4.10053825378418 0.5836150646209717 4456788 5 -1
2.9346764087677 4.096755027770996 0.6225227117538452 4456788 5 -1
2.931788682937622 4.092723369598389 0.6614304184913635 4456788 5 -1
2.9346764087677 4.096755027770996 0.6225227117538452 4456788 5 -1
2.701838493347168 4.337619781494141 0 4456788 5 -1
2.695406198501587 4.3272929191589355 0.35241371393203735 4456788 5 -1
2.698981523513794 4.333033084869385 0.2349424660205841 4456788 5 -1
2.7005691528320312 4.3355817794799805 0.1566283106803894 4456788 5 -1
2.698981523513794 4.333033084869385 0.2349424660205841 4456788 5 -1
2.697949171066284 4.331375598907471 0.27409955859184265 4456788 5 -1
2.6623685359954834 4.36125373840332 0.0783141553401947 4456788 5 -1
2.701759099960327 4.3374924659729 0.03915707767009735 4456788 5 -1
2.8699307441711426 4.169123649597168 0.7048274278640747 4456788 5 -1
2.7825710773468018 4.206661224365234 0.8222986459732056 4456788 5 -1
2.917318344116211 4.154412269592285 0.5873561501502991 4456788 5 -1
2.9198341369628906 4.157994747161865 0.5481991171836853 4456788 5 -1
2.953488349914551 4.123016357421875 0.6265132427215576 4456788 5 -1
2.9505820274353027 4.118958950042725 0.6656703352928162 4456788 5 -1
3.0000991821289062 4.105503082275391 0.5090420246124268 4456788 5 -1
2.7358407974243164 4.304871559143066 0.3132566213607788 4456788 5 -1
2.982970952987671 4.082064151763916 0.7439844608306885 4456788 5 -1
3.0217108726501465 4.053470611572266 0.7439844608306885 4456788 5 -1
3.018174409866333 4.048726558685303 0.783141553401947 4523353 5 -1
2.9976963996887207 4.10221529006958 0.5481991171836853 4536450 5 -1
2.5445375442504883 4.430169582366943 0.11747123301029205 3757452 5 -1
2.7641096115112305 4.263103485107422 0.5481991171836853 3757452 5 -1
3.0064468383789062 4.032995223999023 0.9006127715110779 3757452 5 -1
3.599806308746338 3.6218693256378174 0.19578538835048676 3757452 0 -1
2.5053908824920654 4.452425479888916 -0.11747123301029205 2328718 5 -1
2.953488349914551 4.123016357421875 0.6265132427215576 2328718 5 -1
2.757725238800049 4.339306831359863 -0.11821945756673813 4456788 5 -1
2.7584540843963623 4.340453624725342 0 4456788 5 -1
2.757725238800049 4.339306831359863 -0.11821945756673813 4456788 5 -1
2.7183291912078857 4.364094257354736 -0.11821945756673813 4456788 5 -1
2.754483222961426 4.334205627441406 0.27584540843963623 4456788 5 -1
2.7151334285736084 4.358963966369629 0.27584540843963623 4456788 5 -1
2.7151334285736084 4.358963966369629 0.27584540843963623 4456788 5 -1
2.7183291912078857 4.364094257354736 0.11821945756673813 4456788 5 -1
2.7189676761627197 4.365119457244873 0.039406485855579376 4456788 5 -1
2.5611207485198975 4.459042072296143 0.07881297171115875 4456788 5 -1
2.7183291912078857 4.364094257354736 0.11821945756673813 4456788 5 -1
2.8912341594696045 4.200070858001709 0.6699102520942688 4456788 5 -1
2.9693756103515625 4.1451945304870605 0.6699102520942688 4456788 5 -1
3.0192079544067383 4.13165283203125 0.5122843384742737 4456788 5 -1
3.1152803897857666 4.015281677246094 0.7881297469139099 4456788 5 -1
3.0584185123443604 4.102712154388428 0.5122843384742737 4456788 5 -1
2.6352694034576416 4.405062675476074 0.315251886844635 3757452 5 -1
2.852205276489258 4.311933517456055 -0.2379353642463684 4456788 5 -1
2.8135013580322266 4.339280605316162 -0.198279470205307 4456788 5 -1
2.812591314315796 4.337876796722412 -0.2379353642463684 4456788 5 -1
2.7746083736419678 4.365872859954834 -0.1586235761642456 4456788 5 -1
2.773874521255493 4.364717960357666 -0.198279470205307 4456788 5 -1
2.775179147720337 4.3667707443237305 -0.1189676821231842 4456788 5 -1
2.7361764907836914 4.392746925354004 -0.0396558940410614 4456788 5 -1
2.6456892490386963 4.422480583190918 0.4758707284927368 4456788 5 -1
2.80729079246521 4.329701900482178 0.396558940410614 4456788 5 -1
2.772977352142334 4.363306522369385 0.2379353642463684 4456788 5 -1
2.734247922897339 4.389650821685791 0.198279470205307 4456788 5 -1
2.7361764907836914 4.392746925354004 0.0396558940410614 4456788 5 -1
2.6165974140167236 4.463600158691406 0.1189676821231842 4456788 5 -1
2.7746083736419678 4.365872859954834 0.1586235761642456 4456788 5 -1
2.654994249343872 4.438034534454346 0.198279470205307 4456788 5 -1
2.695333957672119 4.415254592895508 0.1586235761642456 4456788 5 -1
2.873042106628418 4.257640838623047 0.6344943046569824 4456788 5 -1
2.919940948486328 4.241772651672363 0.5155266523361206 4456788 5 -1
2.9032704830169678 4.217555522918701 -0.753462016582489 4456788 5 -1
2.894115447998047 4.288869857788086 0.1189676821231842 4456788 5 -1
3.0137133598327637 4.124133586883545 0.8327738046646118 4456788 5 -1
2.9234681129455566 4.163169860839844 0.9517414569854736 4456788 5 -1
3.0958099365234375 4.070796489715576 0.793117880821228 4456788 5 -1
2.779478073120117 4.37353515625 -0.5187689065933228 4456788 5 -1
2.7867209911346436 4.384932041168213 -0.35914772748947144 4456788 5 -1
2.8311963081359863 4.366571426391602 -0.19952651858329773 4456788 5 -1
2.791320323944092 4.39216947555542 -0.19952651858329773 4456788 5 -1
2.791320323944092 4.39216947555542 -0.19952651858329773 4456788 5 -1
2.792633056640625 4.394234657287598 -0.11971590667963028 4456788 5 -1
2.712843656539917 4.443937301635742 -0.11971590667963028 4456788 5 -1
2.7867209911346436 4.384932041168213 0.35914772748947144 4456788 5 -1
2.7514443397521973 4.4172587394714355 0.19952651858329773 4456788 5 -1
2.8302805423736572 4.365159034729004 0.23943181335926056 4456788 5 -1
2.7132418155670166 4.444590091705322 0.07981060445308685 4456788 5 -1
2.6334407329559326 4.492332458496094 -0.07981060445308685 4456788 5 -1
2.673576831817627 4.469096660614014 0.039905302226543427 4456788 5 -1
2.8061983585357666 4.328017234802246 0.7182954549789429 4456788 5 -1
2.9756271839141846 4.2374467849731445 0.5586742162704468 4456788 5 -1
2.9145116806030273 4.233885765075684 0.8380113840103149 4456788 5 -1
3.0153021812438965 4.2093071937561035 0.5586742162704468 4456788 5 -1
2.8962771892547607 4.2920732498168945 0.5586742162704468 4456788 5 -1
3.043342113494873 4.164679050445557 -0.7182954549789429 4523353 5 -1
2.8441970348358154 4.386622905731201 -0.36139240860939026 4456788 5 -1
2.8087661266326904 4.419620513916016 -0.20077355206012726 4456788 5 -1
2.7654645442962646 4.439767360687256 -0.3212376832962036 4456788 5 -1
2.8087661266326904 4.419620513916016 -0.20077355206012726 4456788 5 -1
2.7693734169006348 4.446042537689209 -0.1606188416481018 4456788 5 -1
2.806783676147461 4.416500568389893 -0.28108298778533936 4456788 5 -1
2.8468804359436035 4.390761375427246 0.28108298778533936 4456788 5 -1
2.8078575134277344 4.418190956115723 0.2409282624721527 4456788 5 -1
2.7654645442962646 4.439767360687256 0.3212376832962036 4456788 5 -1
2.886977434158325 4.364501476287842 0.28108298778533936 4456788 5 -1
2.965860605239868 4.3084797859191895 -0.3212376832962036 4456788 5 -1
2.9692671298980713 4.3134284019470215 -0.20077355206012726 4590430 5 -1
2.9069607257843018 4.394712448120117 -0.20202060043811798 4456788 5 -1
3.0634026527404785 4.276454448699951 -0.3636370599269867 4456788 5 -1
2.781247138977051 4.465105056762695 -0.3636370599269867 4456788 5 -1
2.8215548992156982 4.439743995666504 -0.3636370599269867 4456788 5 -1
2.8269596099853516 4.448247909545898 -0.1616164743900299 4456788 5 -1
2.665419101715088 4.546883583068848 0.1616164743900299 4456788 5 -1
2.8252978324890137 4.4456329345703125 0.24242471158504486 4456788 5 -1
2.827540874481201 4.44916296005249 0.12121235579252243 4456788 5 -1
2.78788423538208 4.475760459899902 0 4456788 5 -1
2.9473352432250977 4.367737770080566 -0.20202060043811798 4456788 5 -1
2.785837411880493 4.472474575042725 0.20202060043811798 4456788 5 -1
2.9049088954925537 4.391610145568848 0.28282883763313293 4456788 5 -1
2.9827866554260254 4.333068370819092 -0.3636370599269867 4456788 5 -1
3.015237331390381 4.293853759765625 -0.5252535343170166 4456788 5 -1
3.021399974822998 4.3026299476623535 -0.40404120087623596 4456788 5 -1
-4.388524055480957 2.535719394683838 -1.4545482397079468 4456788 0 -1
3.029508113861084 4.314176082611084 0.12121235579252243 4523353 5 -1
2.6025876998901367 4.263326168060303 -1.788755178451538 4456788 0 -1
2.678086996078491 4.568493843078613 0.325228214263916 4456788 5 -1
2.8047640323638916 4.502859592437744 0.081307053565979 4456788 5 -1
2.84566330909729 4.477678298950195 0.0406535267829895 4456788 5 -1
2.7643587589263916 4.528324604034424 -0.0406535267829895 4456788 5 -1
2.964569568634033 4.393277645111084 -0.243921160697937 4456788 5 -1
2.8822455406188965 4.445304870605469 -0.2845746874809265 4456788 5 -1
3.040050506591797 4.329189300537109 -0.406535267829895 4456788 5 -1
2.9976558685302734 4.354668617248535 -0.4471887946128845 4456788 5 -1
2.824279546737671 4.44403076171875 -0.650456428527832 4456788 5 -1
2.988424062728882 4.341257572174072 -0.6098029017448425 4456788 5 -1
3.0381648540496826 4.326503753662109 -0.4471887946128845 4456788 5 -1
3.0011990070343018 4.35981559753418 -0.3658817410469055 4456788 5 -1
2.992549180984497 4.261544704437256 -1.0163382291793823 4456788 0 -1
-4.593713760375977 2.6542794704437256 -0.0406535267829895 4456788 0 -1
3.0567493438720703 4.267166614532471 -0.7724170088768005 4726897 5 -1
2.9303641319274902 4.430093288421631 -0.5317381620407104 4456788 5 -1
2.9428491592407227 4.448967933654785 -0.20451468229293823 4456788 5 -1
2.8624489307403564 4.504090785980225 -0.12270880490541458 4456788 5 -1
3.0264618396759033 4.396514415740967 -0.08180586993694305 4456788 5 -1
2.7810728549957275 4.555704593658447 0.08180586993694305 4456788 5 -1
2.903341054916382 4.477840900421143 -0.12270880490541458 4456788 5 -1
2.81823992729187 4.524494171142578 -0.2863205373287201 4456788 5 -1
2.9851253032684326 4.423739910125732 -0.12270880490541458 4456788 5 -1
2.606370687484741 4.446154594421387 -1.3906997442245483 4456788 0 -1
3.021125078201294 4.3887619972229 -0.3272234797477722 4456788 5 -1
2.8624489307403564 4.504090785980225 0.12270880490541458 4456788 5 -1
3.017918586730957 4.384103775024414 -0.40902936458587646 4456788 5 -1
2.9303641319274902 4.430093288421631 -0.5317381620407104 4456788 5 -1
-3.435443162918091 4.084916591644287 -0.08180586993694305 4456788 0 -1
-4.621895790100098 2.670563220977783 -0.04090293496847153 4456788 0 -1
-3.513932943344116 4.010928630828857 0.24541760981082916 4456788 0 -1
-3.433324098587036 4.082396984100342 -0.20451468229293823 4523353 0 -1
2.8489649295806885 4.482873916625977 0.5317381620407104 4536450 5 -1
2.989179849624634 4.429748058319092 -0.5349804759025574 4456788 5 -1
2.952425241470337 4.463444709777832 -0.45267578959465027 4456788 5 -1
2.9913947582244873 4.433030605316162 -0.4938281178474426 4456788 5 -1
2.952425241470337 4.463444709777832 -0.45267578959465027 4456788 5 -1
2.9176104068756104 4.499848365783691 -0.28806641697883606 4456788 5 -1
2.87524676322937 4.524228096008301 -0.3292187452316284 4456788 5 -1
3.036320447921753 4.410836219787598 -0.4115234315395355 4456788 5 -1
2.9607932567596436 4.476095676422119 -0.20576171576976776 4456788 5 -1
2.8799028396606445 4.531554698944092 -0.12345702946186066 4456788 5 -1
3.0430376529693604 4.420594215393066 -0.20576171576976776 4456788 5 -1
2.756883144378662 4.6083502769470215 0.0823046863079071 4456788 5 -1
2.962185859680176 4.478200912475586 -0.12345702946186066 4456788 5 -1
2.9217305183410645 4.5062031745910645 0.04115234315395355 4456788 5 -1
2.921473264694214 4.505805969238281 -0.0823046863079071 4456788 5 -1
2.727830648422241 4.559786319732666 0.7818945050239563 4456788 5 -1
2.952425241470337 4.463444709777832 0.45267578959465027 4456788 5 -1
2.8765172958374023 4.5262274742126465 0.28806641697883606 4456788 5 -1
3.0841598510742188 4.392003059387207 0.20576171576976776 4456788 5 -1
3.0806214809417725 4.386964321136475 0.3292187452316284 4456788 5 -1
2.945870876312256 4.453536033630371 0.5761328339576721 4456788 5 -1
2.8765172958374023 4.5262274742126465 -0.28806641697883606 4456788 5 -1
-3.455883502960205 4.1092209815979 -0.12345702946186066 4456788 0 -1
-4.650078296661377 2.68684720993042 0.04115234315395355 4456788 0 -1
-3.5391016006469727 4.039657115936279 0 4456788 0 -1
-3.45029616355896 4.102577209472656 -0.3292187452316284 4523353 0 -1
2.970318555831909 4.4904961585998535 -0.45541927218437195 4456788 5 -1
3.002298355102539 4.449189186096191 -0.6210262775421143 4456788 5 -1
3.0460503101348877 4.424970626831055 -0.5796245336532593 4456788 5 -1
2.9721622467041016 4.493283271789551 -0.41401752829551697 4456788 5 -1
2.9721622467041016 4.493283271789551 -0.41401752829551697 4456788 5 -1
2.977774143218994 4.501767158508301 -0.24841050803661346 4456788 5 -1
2.937366247177124 4.530317783355713 -0.20700876414775848 4456788 5 -1
2.9787375926971436 4.503223896026611 -0.20700876414775848 4456788 5 -1
2.8563854694366455 4.5857343673706055 0.08280350267887115 4456788 5 -1
2.9394381046295166 4.53351354598999 -0.04140175133943558 4456788 5 -1
2.9801385402679443 4.505341529846191 -0.12420525401830673 4456788 5 -1
3.099292039871216 4.4135518074035645 0.3312140107154846 4456788 5 -1
3.1432061195373535 4.3878583908081055 0.24841050803661346 4456788 5 -1
2.9584388732910156 4.472536563873291 0.6624280214309692 4456788 5 -1
2.8672447204589844 4.511637210845947 0.7866332530975342 4456788 5 -1
3.002298355102539 4.449189186096191 0.6210262775421143 4456788 5 -1
2.714406728744507 4.63045072555542 -0.6210262775421143 4456788 5 -1
2.86388897895813 4.506356716156006 -0.8280350565910339 4456788 5 -1
-3.9330508708953857 3.7046120166778564 -0.04140175133943558 4456788 0 -1
-3.7172868251800537 3.9035484790802 -0.3726157546043396 4456788 0 -1
-4.677161693572998 2.702496290206909 0.12420525401830673 4456788 0 -1
-3.8485538959503174 3.788926124572754 -0.1656070053577423 4456788 0 -1
-3.501646041870117 4.079649925231934 -0.5382227897644043 4456788 0 -1
-3.932704448699951 3.7042856216430664 0.08280350267887115 4523353 0 -1
2.9702227115631104 4.49035120010376 -0.7497208714485168 4456788 5 -1
2.9900670051574707 4.520351409912109 -0.416511595249176 4456788 5 -1
2.993243932723999 4.525154113769531 -0.3332092761993408 4456788 5 -1
3.029715061187744 4.489818572998047 -0.45816275477409363 4456788 5 -1
2.9839682579040527 4.511131286621094 -0.5414651036262512 4456788 5 -1
2.9957125186920166 4.528886318206787 -0.24990695714950562 4456788 5 -1
2.915581226348877 4.5876946449279785 0 4456788 5 -1
2.915238857269287 4.587156295776367 -0.0833023190498352 4456788 5 -1
2.955842971801758 4.558815002441406 -0.1666046380996704 4456788 5 -1
2.9945666790008545 4.527153968811035 -0.2915581166744232 4456788 5 -1
2.956450939178467 4.559752464294434 -0.12495347857475281 4456788 5 -1
3.081371307373047 4.47628116607666 0.12495347857475281 4456788 5 -1
3.1146531105041504 4.435426712036133 0.416511595249176 4456788 5 -1
3.196265697479248 4.202889919281006 1.291185975074768 4456788 0 -1
2.937634229660034 4.530731678009033 0.6247674226760864 4456788 5 -1
3.1164000034332275 4.437914848327637 0.3748604357242584 4456788 5 -1
2.735304117202759 4.666099548339844 -0.5414651036262512 4456788 5 -1
2.9109456539154053 4.489569187164307 -0.9579766988754272 4456788 5 -1
-3.8717379570007324 3.811750888824463 -0.1666046380996704 4456788 0 -1
3.022610664367676 4.47929048538208 -0.8380113840103149 4456788 5 -1
2.929938316345215 4.610286235809326 -0.25140342116355896 4456788 5 -1
2.929938316345215 4.610286235809326 -0.25140342116355896 4456788 5 -1
3.0188827514648438 4.473765850067139 -0.8799118995666504 4456788 5 -1
2.932264804840088 4.613946437835693 -0.12570171058177948 4456788 5 -1
2.932264804840088 4.613946437835693 -0.12570171058177948 4456788 5 -1
2.93166184425354 4.612998008728027 -0.1676022708415985 4456788 5 -1
3.051459550857544 4.522042274475098 0.37710511684417725 4456788 5 -1
3.0991852283477783 4.502159595489502 0.1676022708415985 4456788 5 -1
3.138018846511841 4.468701362609863 0.2933039665222168 4456788 5 -1
-4.558572769165039 3.0015878677368164 0.335204541683197 4456788 0 -1
-4.147059917449951 3.5621020793914795 -0.12570171058177948 4456788 0 -1
2.7805914878845215 4.743353843688965 0.1685999035835266 4456788 5 -1
2.949718713760376 4.6414103507995605 -0.12644992768764496 4456788 5 -1
3.023998975753784 4.571649551391602 0.4636497497558594 4456788 5 -1
2.947378396987915 4.637728214263916 0.2528998553752899 4456788 5 -1
3.160876989364624 4.501252174377441 -0.0842999517917633 4456788 5 -1
3.075502634048462 4.557672500610352 0.1685999035835266 4456788 5 -1
3.075502634048462 4.557672500610352 0.1685999035835266 4456788 5 -1
-4.476388931274414 2.857917308807373 -1.4330991506576538 4456788 0 -1
2.653459072113037 4.813870906829834 0.6359907388687134 4456788 5 -1
2.835416555404663 4.739624500274658 0.3391950726509094 4456788 5 -1
2.8746817111968994 4.709046363830566 0.423993855714798 4456788 5 -1
3.125720500946045 4.451187610626221 1.017585277557373 4456788 5 -1
-4.612841606140137 3.037321090698242 0.3391950726509094 4456788 0 -1
2.8140764236450195 4.800475597381592 0.1279463768005371 4456788 5 -1
2.8140764236450195 4.800475597381592 0.1279463768005371 4456788 5 -1
2.8385322093963623 4.744832992553711 0.6397318840026855 4456788 5 -1
2.8473010063171387 4.759490489959717 0.46913671493530273 4456788 5 -1
2.8342645168304443 4.459742546081543 -1.7486004829406738 4456788 0 -1
-4.637650966644287 3.053656816482544 0.38383913040161133 4456788 0 -1
2.74346923828125 4.875523567199707 0.21449099481105804 4456788 5 -1
2.916306734085083 4.777232646942139 0.1286945939064026 4456788 5 -1
-4.752745628356934 2.938876152038574 0.3431856036186218 4456788 0 -1
2.756253719329834 4.8982439041137695 0.345180869102478 4456788 5 -1
2.844731092453003 4.852768421173096 0.2588856518268585 4456788 5 -1
2.668782949447632 4.9432454109191895 0.3883284628391266 4456788 5 -1
2.780698537826538 4.841338157653809 0.733509361743927 4456788 5 -1
2.9518184661865234 4.738945960998535 0.733509361743927 4456788 5 -1
-4.739404678344727 3.0258378982543945 0.3020332455635071 4456788 0 -1
-2.146458625793457 4.94097900390625 1.6396090984344482 4456788 0 -1
-4.777982234954834 2.954481601715088 0.3883284628391266 4456788 0 -1
-2.146458625793457 4.94097900390625 1.6396090984344482 4456788 0 -1
5.014814376831055 2.4782302379608154 -0.6472141146659851 4456788 0 -1
2.770796775817871 4.924088478088379 0.3905731439590454 4456788 5 -1
2.6810405254364014 4.965949535369873 0.47736719250679016 4456788 5 -1
2.903414726257324 4.8532891273498535 0.30377912521362305 4456788 5 -1
2.820474863052368 4.910590648651123 0.08679403364658356 4456788 5 -1
2.6772329807281494 4.958896636962891 0.5641612410545349 4456788 5 -1
2.6772329807281494 4.958896636962891 0.5641612410545349 4456788 5 -1
2.8425965309143066 4.849126815795898 0.6943522691726685 4456788 5 -1
2.741640567779541 4.973848819732666 0.43646425008773804 4456788 5 -1
2.8356847763061523 4.937071800231934 0.17458570003509521 4456788 5 -1
2.8249990940093994 4.918467998504639 0.5237571001052856 4456788 5 -1
2.9119222164154053 4.8675103187561035 0.5237571001052856 4456788 5 -1
2.7537221908569336 4.995767116546631 0.5267499685287476 4456788 5 -1
2.8511343002319336 4.96397066116333 0.21947915852069855 4456788 5 -1
2.8478634357452393 4.95827579498291 0.35116666555404663 4456788 5 -1
2.7974321842193604 4.971423149108887 0.5267499685287476 4456788 5 -1
2.8664064407348633 4.990560054779053 0.2648714482784271 4456788 5 -1
2.9114468097686768 4.966577529907227 0.22072620689868927 4456788 5 -1
2.9701597690582275 4.9648590087890625 0.31076255440711975 4456788 5 -1
2.881498336791992 5.016835689544678 0.31076255440711975 4456788 5 -1
2.8690004348754883 4.995076656341553 0.6215251088142395 4456788 5 -1
2.899733304977417 5.048583507537842 0.22322028875350952 4456788 5 -1
-3.55893874168396 4.679781913757324 0.7262765169143677 4456788 0 -1
-4.549739837646484 3.7231411933898926 -0.9584754705429077 4456788 0 -1
-3.4191272258758545 4.7730393409729 -1.0041171312332153 4456788 0 -1
-3.6124322414398193 4.656060695648193 0.8671920895576477 4456788 0 -1
-3.628511667251587 4.5839409828186035 -1.1410422325134277 4523353 0 -1
-3.7161967754364014 4.694714546203613 0.1376732885837555 4456788 0 -1
-3.585796356201172 4.621729373931885 -1.2849507331848145 4456788 0 -1
-3.6306188106536865 4.586602687835693 -1.2849507331848145 4456788 0 -1
-3.4918744564056396 4.778475761413574 -0.9178219437599182 4456788 0 -1
-3.6032984256744385 4.644288063049316 -1.1472774744033813 4523353 0 -1
-3.566211700439453 4.596486568450928 1.4226239919662476 4590430 0 -1
-3.6756033897399902 4.737481594085693 0.5536860823631287 4456788 0 -1
-3.572031021118164 4.69699764251709 -1.199653148651123 4456788 0 -1
-3.688530445098877 4.754143238067627 0.23070253431797028 4456788 0 -1
-3.504103899002075 4.891665458679199 -0.23070253431797028 4456788 0 -1
-3.59293532371521 4.724485874176025 -1.0150911808013916 4523353 0 -1
-3.6343834400177 4.778987407684326 -0.46140506863594055 4590430 0 -1
-3.6282875537872314 4.6764960289001465 1.1073721647262573 4728182 0 -1
-3.612356662750244 4.750023365020752 -1.020578145980835 4456788 0 -1
-3.679572582244873 4.742597579956055 -0.7886285185813904 4456788 0 -1
-3.4645044803619385 4.933633327484131 -0.5566789507865906 4456788 0 -1
-3.6077752113342285 4.839646339416504 -0.4638991355895996 4590430 0 -1
-4.051916599273682 5.016898155212402 1.1028828620910645 4456788 0 -1
-3.830970525741577 5.242513656616211 0.8020966053009033 4456788 0 -1
-4.057177543640137 5.023412227630615 1.0527517795562744 4523353 0 -1
-3.830970525741577 5.242513656616211 0.8020966053009033 4523353 0 -1
-4.107357501983643 5.085542678833008 0.7053261995315552 4456788 0 -1
-3.8535854816436768 5.273461818695068 0.7557066679000854 4456788 0 -1
-4.0276384353637695 5.088162422180176 1.0579893589019775 4456788 0 -1
-3.788118839263916 5.288145065307617 0.957228422164917 4456788 0 -1
-4.087181091308594 5.060561180114746 0.957228422164917 4523353 0 -1
-3.842219352722168 5.257907390594482 0.9068480134010315 4523353 0 -1
2.8023464679718018 5.648685455322266 -1.9745643138885498 4456788 0 -1
-3.95251202583313 5.1973066329956055 1.0125970840454102 4456788 0 -1
-3.756781578063965 5.349851131439209 0.9619672298431396 4456788 0 -1
-4.052575588226318 5.119665622711182 1.0125970840454102 4523353 0 -1
-3.792802333831787 5.294683456420898 1.1138567924499512 4523353 0 -1
-3.9822797775268555 5.132756233215332 1.3737400770187378 4456788 0 -1
-4.04498291015625 5.110073566436768 1.4316027164459229 4456788 0 -1
-3.7306392192840576 5.528537750244141 -0.20451468229293823 4456788 0 -1
-3.6759650707244873 5.557284832000732 -0.3579006791114807 4523353 0 -1
-3.7253737449645996 5.5207343101501465 -0.40902936458587646 4590430 0 -1
-3.9006049633026123 5.445173740386963 -0.3082684576511383 4456788 0 -1
-3.9504170417785645 5.405971527099609 -0.3596465289592743 4456788 0 -1
-3.7478461265563965 5.554036617279053 -0.2568903863430023 4456788 0 -1
-3.953207492828369 5.409789562225342 -0.2568903863430023 4456788 0 -1
-3.7478461265563965 5.554036617279053 -0.2568903863430023 4456788 0 -1
-3.847808837890625 5.47947883605957 -0.3596465289592743 4523353 0 -1
-3.7452006340026855 5.550116539001465 -0.3596465289592743 4590430 0 -1
-3.814934492111206 5.541922092437744 -0.36139240860939026 4456788 0 -1
-3.8628432750701904 5.500888347625732 -0.4646473824977875 4523353 0 -1
-3.9180407524108887 5.469513893127441 -0.36139240860939026 4590430 0 -1
-3.8333640098571777 5.568694591522217 -0.36313825845718384 4456788 0 -1
-3.874284505844116 5.517181396484375 -0.6225227117538452 4523353 0 -1
-4.509166717529297 5.81186056137085 -0.05636623874306679 4456788 0 -1
-4.52911901473999 5.837576866149902 -0.05661564692854881 4456788 0 -1
-4.548670291900635 5.862776756286621 -0.11373011022806168 4456788 0 -1
-4.4502177238464355 5.96973991394043 -0.3426867723464966 4456788 0 -1
-4.471096992492676 5.997748374938965 -0.28681936860084534 4456788 0 -1
6.003047943115234 4.79142951965332 -0.11772064119577408 2458766 6 -1
6.028484344482422 4.811732292175293 -0.11821945756673813 2458766 6 -1
5.970082759857178 4.885435581207275 0 2070155 6 -1
5.969907283782959 4.885292053222656 0.059109728783369064 2070922 6 -1
5.992456436157227 4.903744220733643 0.23743654787540436 2458766 6 -1
5.995096683502197 4.905905246734619 -0.05935913696885109 2070155 6 -1
6.054454326629639 4.832460403442383 0.05935913696885109 2070922 6 -1
6.218644618988037 4.714333534240723 -0.35914772748947144 4456788 6 -1
6.1608428955078125 4.793736457824707 -0.2992897629737854 4456788 6 -1
6.1608428955078125 4.793736457824707 -0.2992897629737854 4456788 6 -1
6.102643013000488 4.870923042297363 -0.23943181335926056 4456788 6 -1
6.102643013000488 4.870923042297363 -0.23943181335926056 4456788 6 -1
6.153774738311768 4.78823709487915 -0.4788636267185211 4456788 6 -1
6.158850193023682 4.792186260223389 -0.35914772748947144 4456788 6 -1
6.156494140625 4.790353298187256 -0.41900569200515747 4456788 6 -1
6.213520050048828 4.710448741912842 -0.4788636267185211 4456788 6 -1
6.041214942932129 4.9436445236206055 -0.2992897629737854 4657508 6 -1
6.041214942932129 4.9436445236206055 -0.2992897629737854 4600703 6 -1
6.0392608642578125 4.942045211791992 -0.35914772748947144 4212104 6 -1
6.099055290222168 4.8680596351623535 -0.35914772748947144 4147337 6 -1
6.042812824249268 4.944952011108398 -0.23943181335926056 4017546 6 -1
6.179415702819824 4.808187961578369 -0.4808588922023773 4456788 6 -1
6.244555950164795 4.733976364135742 -0.3606441617012024 4456788 6 -1
6.1865129470825195 4.813710689544678 -0.3005368113517761 4456788 6 -1
6.184512138366699 4.8121538162231445 -0.3606441617012024 4456788 6 -1
6.12807035446167 4.891218662261963 -0.24042944610118866 4456788 6 -1
6.129331111907959 4.8922247886657715 -0.1803220808506012 4456788 6 -1
6.129331111907959 4.8922247886657715 -0.1803220808506012 4456788 6 -1
6.17285680770874 4.803084850311279 -0.6010736227035522 4456788 6 -1
6.182146072387695 4.810312747955322 -0.42075154185295105 4456788 6 -1
6.059426784515381 4.958547592163086 -0.4808588922023773 4657508 6 -1
6.067991256713867 4.9655561447143555 -0.24042944610118866 4600703 6 -1
6.059426784515381 4.958547592163086 -0.4808588922023773 4212104 6 -1
6.067991256713867 4.9655561447143555 -0.24042944610118866 4147337 6 -1
6.210173606872559 4.832120895385742 -0.36214062571525574 4456788 6 -1
6.212182998657227 4.83368444442749 -0.30178385972976685 4456788 6 -1
6.212182998657227 4.83368444442749 -0.30178385972976685 4456788 6 -1
6.262160301208496 4.7473225593566895 -0.5432109236717224 4456788 6 -1
6.217113018035889 4.713172435760498 -1.0864218473434448 4456788 6 -1
6.156209945678711 4.9136786460876465 -0.06035676971077919 4456788 6 -1
6.089587688446045 4.983229160308838 -0.36214062571525574 4456788 6 -1
6.235835552215576 4.852088451385498 -0.3636370599269867 4456788 6 -1
6.408960819244385 4.603079795837402 -0.5454556345939636 4456788 6 -1
6.057770252227783 5.079890727996826 -0.24242471158504486 4456788 6 -1
6.284512042999268 4.7642669677734375 -0.6060617566108704 4456788 6 -1
6.181830406188965 4.9341278076171875 0 4726897 6 -1
6.17892599105835 4.931809425354004 -0.24242471158504486 4728182 6 -1
6.322288990020752 4.792905807495117 -0.36513352394104004 4456788 6 -1
6.377820014953613 4.707759380340576 -0.4868446886539459 4456788 6 -1
6.145692348480225 5.029140472412109 -0.12171117216348648 4456788 6 -1
6.317079067230225 4.788956165313721 -0.4868446886539459 4456788 6 -1
6.306459426879883 4.780905723571777 -0.6694114804267883 4456788 6 -1
6.265180587768555 4.874921798706055 -0.24342234432697296 4456788 6 -1
6.380638599395752 4.709839820861816 -0.4259890913963318 4456788 6 -1
6.32600736618042 4.795724868774414 -0.24342234432697296 4456788 6 -1
6.2664690017700195 4.875924110412598 -0.18256676197052002 4456788 6 -1
6.207269668579102 4.954432964324951 0 4456788 6 -1
6.18902063369751 4.93986701965332 -0.6085558533668518 4523353 6 -1
6.08484411239624 5.102593898773193 -0.12171117216348648 4728182 6 -1
6.104038238525391 5.11868953704834 -0.366629958152771 4456788 6 -1
6.104038238525391 5.11868953704834 -0.366629958152771 4456788 6 -1
6.281978607177734 4.887991905212402 -0.4888399541378021 4456788 6 -1
6.2209882736206055 4.9653825759887695 -0.4888399541378021 4456788 6 -1
6.173142433166504 4.927193641662598 -1.099889874458313 4456788 6 -1
6.403958797454834 4.727053165435791 -0.4888399541378021 4456788 6 -1
6.409240245819092 4.73095178604126 -0.366629958152771 4456788 6 -1
6.350253582000732 4.814105987548828 -0.3055249750614166 4456788 6 -1
6.156911849975586 5.038321495056152 -0.5499449372291565 4523353 6 -1
6.110499382019043 5.124107837677002 0 4728182 6 -1
6.169973850250244 5.049010276794434 -0.1833149790763855 3887499 6 -1
6.178576469421387 5.056049823760986 -0.6135440468788147 4456788 6 -1
6.170543193817139 5.049476146697998 -0.7362528443336487 4456788 6 -1
6.123902320861816 5.13534688949585 -0.4908352196216583 4456788 6 -1
6.368858337402344 4.82820987701416 -0.4908352196216583 4456788 6 -1
6.161036014556885 5.041696548461914 -0.8589616417884827 4456788 6 -1
6.314863681793213 4.913579940795898 -0.30677202343940735 4456788 6 -1
6.371672630310059 4.830343246459961 -0.42948082089424133 4456788 6 -1
6.314863681793213 4.913579940795898 -0.30677202343940735 4456788 6 -1
6.319317817687988 4.917045593261719 0.06135440245270729 4456788 6 -1
6.314863681793213 4.913579940795898 -0.30677202343940735 4017546 6 -1
6.32261323928833 4.919610023498535 -0.6776419281959534 4456788 6 -1
6.252336502075195 4.990403652191162 -0.8008495569229126 4456788 6 -1
6.148796081542969 5.156222343444824 -0.4928304851055145 4456788 6 -1
6.32261323928833 4.919610023498535 -0.6776419281959534 4456788 6 -1
6.213028430938721 5.084242820739746 -0.4312266707420349 4456788 6 -1
6.207172393798828 5.079450607299805 -0.5544342994689941 4456788 6 -1
6.276944637298584 5.010044574737549 -0.3696228563785553 4456788 6 -1
6.265115261077881 5.000603199005127 -0.6160380840301514 4456788 6 -1
6.265115261077881 5.000603199005127 -0.6160380840301514 4456788 6 -1
6.077075004577637 5.219881534576416 -0.6776419281959534 4456788 6 -1
6.358465671539307 4.82033109664917 -0.985660970211029 4456788 6 -1
6.400022029876709 4.851834774017334 -0.3696228563785553 4456788 6 -1
6.387960433959961 4.842691421508789 -0.6160380840301514 4456788 6 -1
6.06844425201416 5.212468147277832 0.8008495569229126 4600703 6 -1
6.063584327697754 5.208293437957764 0.8624533414840698 4536450 6 -1
6.145715236663818 5.15363883972168 -0.5544342994689941 4017546 6 -1
6.355714321136475 4.945365905761719 -0.5566789507865906 4456788 6 -1
6.290480136871338 5.020848274230957 -0.6185321807861328 4456788 6 -1
6.242588520050049 5.108432292938232 -0.3092660903930664 4456788 6 -1
6.304396629333496 5.031955718994141 -0.3092660903930664 4456788 6 -1
6.297163963317871 5.026183128356934 -0.4948257505893707 4456788 6 -1
6.240569591522217 5.106780052185059 -0.37111932039260864 4456788 6 -1
6.358900547027588 4.947844982147217 -0.4948257505893707 4456788 6 -1
6.240569591522217 5.106780052185059 -0.37111932039260864 4456788 6 -1
6.364145278930664 4.951925754547119 -0.37111932039260864 4456788 6 -1
6.272622108459473 5.006594657897949 -0.865945041179657 4456788 6 -1
6.224945068359375 5.093994140625 0.680385410785675 4726897 6 -1
6.105465888977051 5.244267463684082 0.6185321807861328 4729209 6 -1
6.097527980804443 5.2374491691589355 0.7422386407852173 4600703 6 -1
6.093012809753418 5.233571529388428 0.8040918707847595 4536450 6 -1
6.097527980804443 5.2374491691589355 0.7422386407852173 4471684 6 -1
6.105465888977051 5.244267463684082 0.6185321807861328 4341894 6 -1
6.327769756317139 5.050611972808838 -0.3726157546043396 4456788 6 -1
6.387362957000732 4.969991207122803 -0.43471840023994446 4456788 6 -1
6.3253493309021 5.048679828643799 -0.43471840023994446 4456788 6 -1
6.332794189453125 5.054622173309326 -0.1863078773021698 4456788 6 -1
6.267760276794434 5.129031181335449 0.31051313877105713 4456788 6 -1
6.174426555633545 5.177715301513672 0.8694368004798889 4456788 6 -1
6.122114658355713 5.258568286895752 0.7452315092086792 4456788 6 -1
6.24579381942749 5.111055374145508 0.7452315092086792 4456788 6 -1
6.117581844329834 5.254674434661865 0.8073341250419617 4729209 6 -1
6.117581844329834 5.254674434661865 0.8073341250419617 4600703 6 -1
6.183954238891602 5.185705184936523 0.7452315092086792 4536450 6 -1
6.133522987365723 5.268367290496826 0.5589236617088318 4471684 6 -1
6.183954238891602 5.185705184936523 0.7452315092086792 4341894 6 -1
6.174426555633545 5.177715301513672 0.8694368004798889 4147337 6 -1
6.290896415710449 5.147964000701904 0.37411221861839294 4456788 6 -1
6.266233921051025 5.127781867980957 0.8105764389038086 4456788 6 -1
6.199223518371582 5.198509216308594 0.8729285001754761 4456788 6 -1
6.270877361297607 5.131581783294678 0.7482244372367859 4456788 6 -1
6.1202569007873535 5.256972312927246 1.059984564781189 4729209 0 -1
6.070004463195801 5.338274002075195 0.9352805018424988 4600703 6 -1
6.0752387046813965 5.342877388000488 0.8729285001754761 4536450 6 -1
6.208789348602295 5.206531047821045 0.7482244372367859 4341894 6 -1
6.000611782073975 5.401180267333984 1.2520288228988647 4729209 0 -1
-4.513412952423096 6.961064338684082 -0.25439631938934326 4456788 0 -1
-4.4661126136779785 7.027470588684082 -0.3192424178123474 4456788 0 -1
-4.483558177947998 7.054921627044678 -0.32048946619033813 4456788 0 -1
-4.433572292327881 7.117802143096924 -0.45043110847473145 4456788 0 -1
-4.513266086578369 7.101667404174805 -0.5167736411094666 4456788 0 -1
-4.4612274169921875 7.162200450897217 -0.6484611630439758 4456788 0 -1
-3.3952932357788086 7.9975385665893555 -0.19977591931819916 4456788 4 -1
-3.3670098781585693 8.117795944213867 0 4456788 4 -1
-3.0918238162994385 8.208883285522461 -0.5387215614318848 4456788 4 -1
-3.4470698833465576 8.119497299194336 0 4456788 4 -1
-3.1758720874786377 8.226861953735352 -0.20276881754398346 4456788 4 -1
-3.152747392654419 8.166958808898926 -1.081433653831482 4456788 4 -1
-3.3110156059265137 8.173407554626465 -0.20276881754398346 4456788 4 -1
-3.311793565750122 8.175328254699707 0.06758960336446762 4456788 4 -1
-3.3793811798095703 8.147622108459473 -0.06758960336446762 4456788 4 -1
-2.9097447395324707 7.921187877655029 -2.5684051513671875 4456788 0 -1
-3.551727294921875 7.992090702056885 -1.1490232944488525 3238030 4 -1
-4.040945529937744 7.805544376373291 -0.743485689163208 2977934 0 -1
-3.365163803100586 8.1133451461792 0.8110752701759338 2977934 4 -1
-3.2547428607940674 8.229023933410645 -0.2713560461997986 4456788 4 -1
-3.174926519393921 8.224411964416504 -0.8140681982040405 4456788 4 -1
-3.2554123401641846 8.230716705322266 -0.20351704955101013 4456788 4 -1
-3.2501490116119385 8.217409133911133 -0.5427120923995972 4456788 4 -1
-3.459383487701416 8.1485013961792 -0.1356780230998993 4456788 4 -1
-3.391950845718384 8.177927017211914 0 4456788 4 -1
-3.324014186859131 8.20549488067627 0.06783901154994965 4456788 4 -1
-3.3241117000579834 8.20573616027832 0 4456788 4 -1
-3.1860928535461426 8.253337860107422 -0.3391950726509094 4456788 4 -1
-4.055856704711914 7.834346771240234 -0.7462291717529297 2977934 0 -1
-3.369471788406372 8.123730659484863 1.017585277557373 2977934 0 -1
-3.4007840156555176 8.010472297668457 1.628136396408081 2912910 0 -1
-4.098630905151367 7.7520294189453125 -1.221102237701416 2328718 0 -1
-3.355811595916748 8.09079647064209 1.2889412641525269 2328718 0 -1
-3.184239625930786 8.248537063598633 -0.8851494789123535 4456788 4 -1
-3.3362348079681396 8.235662460327148 -0.06808841973543167 4456788 4 -1
-3.3362348079681396 8.235662460327148 -0.06808841973543167 4456788 4 -1
-3.3347651958465576 8.232034683227539 -0.2723536789417267 4456788 4 -1
-3.3359408378601074 8.234936714172363 -0.13617683947086334 4456788 4 -1
-3.4715919494628906 8.177258491516113 -0.2042652666568756 4456788 4 -1
-3.1305959224700928 8.311824798583984 -0.2723536789417267 4456788 4 -1
-3.1500353813171387 7.776020050048828 -2.927802085876465 4456788 0 -1
-3.3347651958465576 8.232034683227539 -0.2723536789417267 4456788 4 -1
-4.064986705780029 7.851982593536377 -0.8851494789123535 2977934 0 -1
-3.4769320487976074 8.189837455749512 -0.6150404810905457 4456788 4 -1
-3.4848201274871826 8.208416938781738 -0.1366756558418274 4456788 4 -1
-3.3476688861846924 8.263888359069824 -0.20501349866390228 4456788 4 -1
-3.416891574859619 8.238059043884277 0 4456788 4 -1
-3.134298324584961 8.321654319763184 -0.683378279209137 4456788 4 -1
-3.5534629821777344 8.179792404174805 -0.0683378279209137 4456788 4 -1
-3.563917875289917 8.203858375549316 0.3429361879825592 4456788 4 -1
-3.220191717147827 8.341668128967285 -0.4115234315395355 4456788 4 -1
-3.4268441200256348 8.262054443359375 -0.3429361879825592 4456788 4 -1
-3.4284558296203613 8.26594066619873 -0.20576171576976776 4456788 4 -1
-3.4289591312408447 8.2671537399292 -0.13717447221279144 4456788 4 -1
-3.358307361602783 8.290149688720703 -0.3429361879825592 4456788 4 -1
-3.3607747554779053 8.29624080657959 0 4456788 4 -1
-3.4292612075805664 8.267882347106934 0.06858723610639572 4456788 4 -1
-3.4293620586395264 8.2681245803833 0 4456788 4 -1
-3.4293620586395264 8.2681245803833 0 4456788 4 -1
-3.566431760787964 8.20964527130127 -0.06858723610639572 4456788 4 -1
-3.359886646270752 8.294048309326172 -0.20576171576976776 4456788 4 -1
-3.358307361602783 8.290149688720703 -0.3429361879825592 4456788 4 -1
-3.563917875289917 8.203858375549316 -0.3429361879825592 4456788 4 -1
-3.2906408309936523 8.319785118103027 -0.2743489444255829 4456788 4 -1
-3.565593957901001 8.207716941833496 0.20576171576976776 4456788 4 -1
-3.5794005393981934 8.239498138427734 0.06883664429187775 4456788 4 -1
-3.296292781829834 8.334075927734375 -0.6195298433303833 4456788 4 -1
-3.574352979660034 8.227879524230957 0.4818565249443054 4456788 4 -1
-3.303286075592041 8.351757049560547 -0.20650994777679443 4456788 4 -1
-3.369429111480713 8.317604064941406 -0.41301989555358887 4456788 4 -1
-3.3721044063568115 8.32420825958252 -0.20650994777679443 4456788 4 -1
-3.3725996017456055 8.325430870056152 -0.1376732885837555 4456788 4 -1
-3.3040621280670166 8.353718757629395 0.06883664429187775 4456788 4 -1
-3.3721044063568115 8.32420825958252 0.20650994777679443 4456788 4 -1
-3.4417312145233154 8.29794692993164 0.06883664429187775 4456788 4 -1
-3.579085350036621 8.23877239227295 -0.1376732885837555 4456788 4 -1
-3.579085350036621 8.23877239227295 -0.1376732885837555 4456788 4 -1
-3.4402153491973877 8.294292449951172 -0.275346577167511 4456788 4 -1
-3.202221632003784 7.904844760894775 -2.8223025798797607 4456788 0 -1
-3.369429111480713 8.317604064941406 -0.41301989555358887 4456788 4 -1
-3.582343578338623 8.060983657836914 -1.865323543548584 4456788 0 -1
-3.108781337738037 8.463024139404297 0.06908605247735977 4456788 4 -1
-3.5058648586273193 8.257987976074219 -0.8981187343597412 4456788 4 -1
-3.385117292404175 8.356331825256348 -0.06908605247735977 4456788 4 -1
-3.108781337738037 8.463024139404297 0.06908605247735977 4456788 4 -1
-3.5886762142181396 8.260849952697754 -0.4145163297653198 4456788 4 -1
-3.108051061630249 8.46103572845459 0.2072581648826599 4456788 4 -1
-3.108781337738037 8.463024139404297 0.06908605247735977 4456788 4 -1
-3.2374985218048096 8.386500358581543 0.6908605694770813 4456788 4 -1
-3.2436110973358154 8.402335166931152 0.4145163297653198 4456788 4 -1
-3.3152544498443604 8.3820161819458 -0.2072581648826599 4456788 4 -1
-3.311357021331787 8.372162818908691 -0.483602374792099 4456788 4 -1
-3.384322166442871 8.354369163513184 0.2072581648826599 4456788 4 -1
-3.453896999359131 8.327279090881348 0.13817210495471954 4456788 4 -1
-3.384322166442871 8.354369163513184 -0.2072581648826599 4456788 4 -1
-3.5915255546569824 8.267409324645996 -0.2072581648826599 4456788 4 -1
-3.5915255546569824 8.267409324645996 -0.2072581648826599 4456788 4 -1
-3.3803436756134033 8.344547271728516 -0.483602374792099 4456788 4 -1
-3.590787172317505 8.26570987701416 -0.2763442099094391 4456788 4 -1
-3.4478065967559814 8.31259536743164 -0.5526884198188782 4456788 4 -1
-3.4642279148101807 8.35218620300293 -0.346677303314209 4456788 4 -1
-3.3965399265289307 8.384529113769531 0.20800639688968658 4456788 4 -1
-3.12009596824646 8.493825912475586 0 4456788 4 -1
-3.119729518890381 8.492828369140625 0.1386709213256836 4456788 4 -1
-3.1192712783813477 8.491580963134766 0.20800639688968658 4456788 4 -1
-3.465144395828247 8.354395866394043 0.2773418426513672 4456788 4 -1
-3.1879329681396484 8.464056015014648 0.2773418426513672 4456788 4 -1
-3.3272228240966797 8.412276268005371 -0.20800639688968658 4456788 4 -1
-3.3973379135131836 8.38649845123291 -0.0693354606628418 4456788 4 -1
-3.4642279148101807 8.35218620300293 0.346677303314209 4456788 4 -1
-3.4666714668273926 8.358077049255371 0.0693354606628418 4456788 4 -1
-3.605020761489868 8.298474311828613 0.1386709213256836 4456788 4 -1
-3.3256587982177734 8.40832233428955 -0.346677303314209 4456788 4 -1
-3.3910486698150635 8.370973587036133 -0.5546836853027344 4456788 4 -1
-3.456580877304077 8.333749771118164 -0.693354606628418 4456788 4 -1
-3.6145873069763184 8.32049560546875 0.4175092279911041 4456788 4 -1
-3.478835105895996 8.38740348815918 -0.13916973769664764 4456788 4 -1
-3.4080567359924316 8.412959098815918 0.2783394753932953 4456788 4 -1
-3.4776089191436768 8.384448051452637 0.2783394753932953 4456788 4 -1
-3.200528144836426 8.497496604919434 0.13916973769664764 4456788 4 -1
-3.3385045528411865 8.440800666809082 0.2783394753932953 4456788 4 -1
-3.1280081272125244 8.515365600585938 0.4175092279911041 4456788 4 -1
-3.4783241748809814 8.3861722946167 0.20875461399555206 4456788 4 -1
-3.200528144836426 8.497496604919434 0.13916973769664764 4456788 4 -1
-3.409658670425415 8.416913032531738 0 4456788 4 -1
-3.472700595855713 8.372613906860352 -0.5566789507865906 4456788 4 -1
-3.476689100265503 8.382229804992676 -0.3479243516921997 4456788 4 -1
-3.618307113647461 8.329058647155762 -0.06958486884832382 4456788 4 -1
-3.2689523696899414 8.467979431152344 -0.2783394753932953 4456788 4 -1
-3.583831548690796 8.249698638916016 -1.2525277137756348 4456788 4 -1
-3.4619393348693848 8.346668243408203 -0.9046033024787903 4456788 4 -1
-3.6030845642089844 8.294017791748047 -0.8350184559822083 4456788 4 -1
-3.6030845642089844 8.294017791748047 -0.8350184559822083 4456788 4 -1
-3.630423069000244 8.356947898864746 0.20950284600257874 4456788 4 -1
-3.279801368713379 8.49608325958252 0.34917140007019043 4456788 4 -1
-3.2821147441864014 8.5020751953125 0.06983427703380585 4456788 4 -1
-3.421779155731201 8.446833610534668 0.06983427703380585 4456788 4 -1
-3.486687660217285 8.406335830688477 0.4888399541378021 4456788 4 -1
-3.6245534420013428 8.343437194824219 0.5586742162704468 4456788 4 -1
-3.2806692123413086 8.498331069946289 0.2793371081352234 4456788 4 -1
-3.3457417488098145 8.459097862243652 0.5586742162704468 4456788 4 -1
-3.2822110652923584 8.502325057983398 0 4456788 4 -1
-3.256106376647949 8.232471466064453 -2.164862632751465 4456788 0 -1
-3.42097544670105 8.444849014282227 -0.20950284600257874 4456788 4 -1
-3.461963653564453 8.346726417541504 -1.1871827840805054 4456788 4 -1
-3.685537338256836 8.293190002441406 -0.8380113840103149 4456788 4 -1
-3.4021337032318115 8.398337364196777 -0.9776799082756042 4456788 4 -1
-3.574268102645874 8.419110298156738 0 4456788 4 -1
-3.363621950149536 8.504304885864258 0.14016737043857574 4456788 4 -1
-3.363128185272217 8.503056526184082 0.2102510631084442 4456788 4 -1
-3.43410062789917 8.477249145507812 0 4456788 4 -1
-3.429157257080078 8.465046882629395 0.4905858039855957 4456788 4 -1
-3.430469512939453 8.46828556060791 0.4205021262168884 4456788 4 -1
-3.2229976654052734 8.557153701782227 0.2102510631084442 4456788 4 -1
-3.1536734104156494 8.585233688354492 0.07008368521928787 4456788 4 -1
-3.293062925338745 8.530435562133789 0.2102510631084442 4456788 4 -1
-3.352046251296997 8.475038528442383 0.7709205746650696 4456788 4 -1
-3.352046251296997 8.475038528442383 0.7709205746650696 4456788 4 -1
-3.293062925338745 8.530435562133789 -0.2102510631084442 4456788 4 -1
-3.363621950149536 8.504304885864258 -0.14016737043857574 4456788 4 -1
-3.474327802658081 8.37653636932373 -1.191422700881958 4456788 4 -1
-3.5115926265716553 8.466381072998047 0.49233168363571167 4456788 4 -1
-3.1616427898406982 8.606928825378418 -0.4219985902309418 4456788 4 -1
-3.653453826904297 8.409963607788086 0.4219985902309418 4456788 4 -1
-3.653453826904297 8.409963607788086 0.4219985902309418 4456788 4 -1
-3.445410966873169 8.505169868469238 0.2109992951154709 4456788 4 -1
-3.3639752864837646 8.50519847869873 0.7736640572547913 4456788 4 -1
-3.3724188804626465 8.526546478271484 0.4219985902309418 4456788 4 -1
-3.2349424362182617 8.588868141174316 0.1406661868095398 4456788 4 -1
-3.233802318572998 8.585841178894043 0.2813323736190796 4456788 4 -1
-3.3032286167144775 8.556769371032715 0.3516654670238495 4456788 4 -1
-3.1648964881896973 8.6157865524292 0.0703330934047699 4456788 4 -1
-3.305267333984375 8.562050819396973 -0.1406661868095398 4456788 4 -1
-3.5599286556243896 8.385334014892578 -1.1253294944763184 4456788 4 -1
-3.3854727745056152 8.559551239013672 0.3529125154018402 4456788 4 -1
-3.127856731414795 8.30455207824707 -2.4703876972198486 4456788 0 -1
-3.25651216506958 8.233497619628906 -2.5409700870513916 4456788 0 -1
-3.246795177459717 8.620336532592773 0 4456788 4 -1
-3.452038526535034 8.521530151367188 0.5646600127220154 4456788 4 -1
