VERSION .7
FIELDS x y z rgb label object
SIZE 4 4 4 4 4 4
TYPE F F F I I I
COUNT 1 1 1 1 1 1
WIDTH 688
HEIGHT 1
POINTS 688
VIEWPOINT 0 0 0 1 0 0 0
DATA ascii
-1.5820804834365845 2.539923667907715 -0.11472774296998978 4456788 0 -1
-1.6061413288116455 2.5272786617279053 -0.022945549339056015 4456788 7 -1
-1.5831964015960693 2.541715145111084 -0.022945549339056015 4456788 7 -1
-1.5832428932189941 2.5417897701263428 0 4456788 7 -1
-1.5831964015960693 2.541715145111084 0.022945549339056015 4456788 7 -1
-1.5832428932189941 2.5417897701263428 0 4456788 7 -1
-1.6061413288116455 2.5272786617279053 0.022945549339056015 4456788 7 -1
-1.6061413288116455 2.5272786617279053 0.022945549339056015 4456788 7 -1
-1.559885025024414 2.5552639961242676 0.06883664429187775 4456788 7 -1
-1.6057640314102173 2.5266849994659424 0.06883664429187775 4456788 7 -1
-1.6050091981887817 2.5254971981048584 0.11472774296998978 4456788 7 -1
-1.6290861368179321 2.512549638748169 -0.022945549339056015 4456788 7 -1
-1.6061413288116455 2.5272786617279053 0.022945549339056015 4456788 7 -1
-1.6290861368179321 2.512549638748169 0.022945549339056015 4456788 7 -1
-1.626070261001587 2.5078980922698975 0.18356439471244812 4456788 7 -1
-1.789750576019287 2.30680775642395 0.6654209494590759 3107982 0 -1
-1.600264072418213 2.5691163539886475 -0.04638991504907608 4456788 7 -1
-1.576516032218933 2.582507371902466 -0.09277983009815216 4456788 7 -1
-1.6004520654678345 2.569417953491211 0 4456788 7 -1
-1.6004050970077515 2.569342613220215 0.02319495752453804 4456788 7 -1
-1.6236469745635986 2.554824113845825 0 4456788 7 -1
-1.623456358909607 2.5545239448547363 0.04638991504907608 4456788 7 -1
-1.6004520654678345 2.569417953491211 0 4456788 7 -1
-1.6460682153701782 2.538741111755371 0.09277983009815216 4456788 7 -1
-1.6460682153701782 2.538741111755371 0.09277983009815216 4456788 7 -1
-1.6460682153701782 2.538741111755371 0.09277983009815216 4456788 7 -1
-1.6692522764205933 2.5235579013824463 0.09277983009815216 4456788 7 -1
-1.6692522764205933 2.5235579013824463 0.09277983009815216 4456788 7 -1
-1.6695955991744995 2.5240769386291504 0.06958486884832382 4456788 7 -1
-1.6688108444213867 2.522890329360962 0.1159747838973999 4456788 7 -1
-1.891011118888855 2.3413636684417725 0.32472941279411316 3432845 7 -1
-1.8078783750534058 2.4251766204833984 0.1159747838973999 3432845 7 -1
-1.7473716735839844 2.3912007808685303 0.6262638568878174 3302798 7 -1
-1.883808970451355 2.332446336746216 0.4175092279911041 2523534 7 -1
-1.6176612377166748 2.597046136856079 0 4456788 7 -1
-1.594170093536377 2.611426591873169 -0.023444365710020065 4456788 7 -1
-1.594170093536377 2.611426591873169 -0.023444365710020065 4456788 7 -1
-1.6643544435501099 2.566944122314453 -0.04688873142004013 4456788 7 -1
-1.594170093536377 2.611426591873169 -0.023444365710020065 4456788 7 -1
-1.6176612377166748 2.597046136856079 0 4456788 7 -1
-1.687944769859314 2.551816940307617 -0.023444365710020065 4456788 7 -1
-1.5942168235778809 2.6115031242370605 0 4456788 7 -1
-1.5940296649932861 2.611196517944336 0.04688873142004013 4456788 7 -1
-1.6411055326461792 2.5822951793670654 0 4456788 7 -1
-1.6877961158752441 2.5515921115875244 0.04688873142004013 4456788 7 -1
-1.6641100645065308 2.5665671825408936 0.0703330934047699 4456788 7 -1
-1.66376793384552 2.566039562225342 0.09377746284008026 4456788 7 -1
-1.66376793384552 2.566039562225342 0.09377746284008026 4456788 7 -1
-1.6872012615203857 2.5506927967071533 0.09377746284008026 4456788 7 -1
-1.6872012615203857 2.5506927967071533 0.09377746284008026 4456788 7 -1
-1.6872012615203857 2.5506927967071533 0.09377746284008026 4456788 7 -1
-1.708975076675415 2.5325775146484375 0.16411055624485016 4456788 7 -1
-1.7096290588378906 2.5335464477539062 0.1406661868095398 4456788 7 -1
-1.7665905952453613 2.466128349304199 0.3985542058944702 3432845 7 -1
-1.7838923931121826 2.4411778450012207 0.4688872992992401 3302798 7 -1
-1.8808445930480957 2.3760929107666016 0.4219985902309418 2523534 7 -1
-1.8120348453521729 2.3827126026153564 -0.6329978704452515 2328718 0 -1
-1.8120348453521729 2.3827126026153564 -0.6329978704452515 2328718 0 -1
-1.7562730312347412 2.4517252445220947 0.5157760381698608 2070922 7 -1
-1.6346783638000488 2.624366044998169 0.04738754779100418 4456788 7 -1
-1.611176609992981 2.639285087585449 0 4456788 7 -1
-1.611176609992981 2.639285087585449 0 4456788 7 -1
-1.68220853805542 2.594480514526367 0.02369377389550209 4456788 7 -1
-1.682257890701294 2.5945568084716797 0 4456788 7 -1
-1.681813359260559 2.5938711166381836 0.07108131796121597 4456788 7 -1
-1.7525155544281006 2.5458641052246094 0.09477509558200836 4456788 7 -1
-1.657346487045288 2.6078505516052246 0.11846886575222015 4456788 7 -1
-1.704699158668518 2.577146053314209 0.11846886575222015 4456788 7 -1
-1.704699158668518 2.577146053314209 0.11846886575222015 4456788 7 -1
-1.704699158668518 2.577146053314209 0.11846886575222015 4456788 7 -1
-1.7041478157043457 2.57631254196167 0.14216263592243195 4456788 7 -1
-1.7271556854248047 2.5595197677612305 0.16585642099380493 4456788 7 -1
-1.7835170030593872 2.4897572994232178 0.42648792266845703 3432845 7 -1
-1.800646424293518 2.4641051292419434 0.4975692331790924 3302798 7 -1
-1.798311471939087 2.460909843444824 0.5212630033493042 2328718 7 -1
-1.7958647012710571 2.457561492919922 0.5449568033218384 2264205 7 -1
-1.8049824237823486 2.470038652420044 0.4501816928386688 2070155 7 -1
-1.800646424293518 2.4641051292419434 0.4975692331790924 2070922 7 -1
-1.8262838125228882 2.449866533279419 0.4738754630088806 3651704 7 -1
-1.800646424293518 2.4641051292419434 0.4975692331790924 4045940 7 -1
-1.7878484725952148 2.44659161567688 0.6160380840301514 4505456 7 -1
-1.6520310640335083 2.652224540710449 0.023943182080984116 4456788 7 -1
-1.6516430377960205 2.651601552963257 0.07182954251766205 4456788 7 -1
-1.6759735345840454 2.637160301208496 0.023943182080984116 4456788 7 -1
-1.6760227680206299 2.637237787246704 0 4456788 7 -1
-1.6759735345840454 2.637160301208496 -0.023943182080984116 4456788 7 -1
-1.7717434167861938 2.573796272277832 0.023943182080984116 4456788 7 -1
-1.6747921705245972 2.6353015899658203 0.11971590667963028 4456788 7 -1
-1.6975188255310059 2.618093729019165 0.1676022708415985 4456788 7 -1
-1.7206671237945557 2.6012861728668213 0.19154545664787292 4456788 7 -1
-1.7206671237945557 2.6012861728668213 0.19154545664787292 4456788 7 -1
-1.7206671237945557 2.6012861728668213 0.19154545664787292 4456788 7 -1
-1.8422714471817017 2.5210671424865723 0.11971590667963028 4456788 7 -1
-1.7198050022125244 2.599982738494873 0.21548862755298615 4456788 7 -1
-1.8002941608428955 2.5131778717041016 0.4549204409122467 3432845 7 -1
-1.7959693670272827 2.507140636444092 0.5028068423271179 3107982 7 -1
-1.8172410726547241 2.486814022064209 0.5267499685287476 2458766 7 -1
-1.8172410726547241 2.486814022064209 0.5267499685287476 2264205 7 -1
-1.8218474388122559 2.4931178092956543 0.4788636267185211 2070155 7 -1
-1.8218474388122559 2.4931178092956543 0.4788636267185211 2070922 7 -1
-1.8239822387695312 2.4960391521453857 0.4549204409122467 3257723 7 -1
-1.8218474388122559 2.4931178092956543 0.4788636267185211 3651704 7 -1
-1.8218474388122559 2.4931178092956543 0.4788636267185211 4045940 7 -1
-1.8218474388122559 2.4931178092956543 0.4788636267185211 4505456 7 -1
-1.7174721956253052 2.6488678455352783 0.04838518053293228 4456788 7 -1
2.783353805541992 1.3150180578231812 -0.7015851140022278 4456788 0 -1
-1.7400246858596802 2.6305506229400635 0.14515553414821625 4456788 7 -1
2.783353805541992 1.3150180578231812 -0.7015851140022278 4456788 0 -1
-1.838150978088379 2.566025495529175 -0.07257776707410812 4456788 7 -1
-1.7152012586593628 2.6453654766082764 0.16934813559055328 4456788 7 -1
-1.801779866218567 2.515251874923706 0.6290073394775391 3887499 7 -1
-1.7780722379684448 2.532066822052002 0.6290073394775391 3692940 7 -1
-1.814677357673645 2.533256769180298 0.5080443620681763 3107982 7 -1
-1.8361706733703613 2.512718439102173 0.5322369933128357 2328718 7 -1
-1.8361706733703613 2.512718439102173 0.5322369933128357 2134668 7 -1
-1.8385547399520874 2.5159809589385986 0.5080443620681763 2070155 7 -1
-1.840825080871582 2.519087791442871 0.4838517904281616 3257723 7 -1
-1.840825080871582 2.519087791442871 0.4838517904281616 3651704 7 -1
-1.8429820537567139 2.5220394134521484 0.459659218788147 4045940 7 -1
-1.8429820537567139 2.5220394134521484 0.459659218788147 4505456 7 -1
-1.8689874410629272 2.5071513652801514 0.43546661734580994 4899181 7 -1
-1.9994785785675049 2.4261817932128906 0.2903110682964325 6343264 7 -1
-1.8238815069198608 2.3982901573181152 -0.9435110092163086 6343264 0 -1
-1.9842660427093506 2.4077227115631104 0.4838517904281616 6933851 7 -1
-1.8908517360687256 2.48635196685791 0.459659218788147 6933851 7 -1
2.7250239849090576 1.462068796157837 -0.7821439504623413 4456788 0 -1
2.83587908744812 1.2769166231155396 -0.7088179588317871 4456788 0 -1
-1.7597721815109253 2.660404920578003 0.024441998451948166 4456788 7 -1
2.759345054626465 1.4224956035614014 -0.733259916305542 4456788 0 -1
-1.8044573068618774 2.569640636444092 0.5621659755706787 3238030 7 -1
-1.8333854675292969 2.559372663497925 0.5132819414138794 3107982 7 -1
-1.8259111642837524 2.548938751220703 0.5866079330444336 2328718 7 -1
-1.8285167217254639 2.5525763034820557 0.5621659755706787 2134668 7 -1
-1.8333854675292969 2.559372663497925 0.5132819414138794 2070155 7 -1
-1.857508897781372 2.541918992996216 0.5132819414138794 3651704 7 -1
-1.8598026037216187 2.545057773590088 0.4888399541378021 4045940 7 -1
-1.857508897781372 2.541918992996216 0.5132819414138794 4505456 7 -1
-1.8902320861816406 2.5356497764587402 0.4155139625072479 4899181 7 -1
-1.8882553577423096 2.5329980850219727 0.4399559497833252 5424489 7 -1
-2.0356345176696777 2.420473098754883 0.4155139625072479 6933851 7 -1
-1.9144659042358398 2.5174031257629395 0.4155139625072479 6933851 7 -1
-1.6718103885650635 2.5784435272216797 0.8554699420928955 6933851 0 -1
-1.909520149230957 2.561523914337158 0.41975390911102295 2588302 7 -1
-2.0130116939544678 2.4924192428588867 0.3456796705722809 4505456 7 -1
-1.8830678462982178 2.576895236968994 0.44444531202316284 4899181 7 -1
-2.0339267253875732 2.4679815769195557 0.39506250619888306 5424489 7 -1
-2.0503034591674805 2.4878530502319336 0.4489346444606781 5424489 7 -1
-2.0422027111053467 2.528562307357788 0.17458570003509521 5949540 0 -1
-2.027721405029297 2.510632276535034 0.423993855714798 6343264 7 -1
-2.0458569526672363 2.5330867767333984 0.45342400670051575 4899181 7 -1
-1.9661842584609985 2.4344396591186523 -1.0076088905334473 5424489 0 -1
-2.060680627822876 2.551440715789795 0.22671200335025787 5949540 7 -1
-2.078723669052124 2.5223381519317627 0.3526630997657776 6343264 7 -1
-2.1613526344299316 2.5181193351745605 0.10175852477550507 4899181 0 -1
-2.0469541549682617 2.5859408378601074 -0.3815944492816925 4899181 0 -1
-2.0845181941986084 2.5809552669525146 0.12719815969467163 5424489 0 -1
-2.0786266326904297 2.5736606121063232 0.27983593940734863 5949540 7 -1
-1.809594750404358 2.7357261180877686 0.693604052066803 2072968 0 -1
-2.7487080097198486 1.754892349243164 -0.9078456163406372 4147337 0 -1
-2.830064296722412 1.7499797344207764 -0.6225227117538452 2072968 0 -1
-1.93511164188385 2.811119794845581 0.1833149790763855 4212104 7 -1
-1.7832413911819458 3.235133409500122 0.7811462879180908 3302798 0 -1
-2.994466781616211 2.4504308700561523 0.17807741463184357 4456788 0 -1
-3.0220279693603516 2.472984552383423 0.08978693187236786 4456788 0 -1
-3.0220468044281006 2.4730000495910645 0.5130325555801392 3887499 0 -1
-1.041810154914856 4.26038932800293 0.2693607807159424 11918891 4 -1
-1.0838617086410522 4.285419940948486 0.23743654787540436 10672695 4 -1
-1.0484133958816528 4.2873921394348145 0.3391950726509094 11197490 4 -1
-0.7495061159133911 4.382542610168457 0.3416891396045685 4456788 4 -1
-0.7495061159133911 4.382542610168457 0.3416891396045685 4456788 4 -1
-1.1259510517120361 4.308156967163086 -0.23918241262435913 2912910 4 -1
-0.7172101140022278 4.399104595184326 0.1366756558418274 2912910 4 -1
-0.7149938941001892 4.3855109214782715 0.3758580684661865 2199437 4 -1
-0.7495061159133911 4.382542610168457 0.3416891396045685 2134668 4 -1
-0.7495061159133911 4.382542610168457 0.3416891396045685 2006409 4 -1
-0.7835745811462402 4.376579761505127 0.3416891396045685 2072968 4 -1
-0.7835745811462402 4.376579761505127 0.3416891396045685 2139270 4 -1
-0.8852304816246033 4.354341506958008 0.3758580684661865 6343264 4 -1
-1.0928915739059448 4.321122646331787 0.1366756558418274 10016830 4 -1
-1.0926024913787842 4.319979667663574 0.17084456980228424 10672695 4 -1
-1.058956503868103 4.330507278442383 0.10250674933195114 11197490 4 -1
-1.1010953187942505 4.353558540344238 -0.10325497388839722 2977934 4 -1
-0.7564024329185486 4.422867298126221 0.20650994777679443 2977934 4 -1
-0.7566471695899963 4.424298286437988 0.17209161818027496 2912910 4 -1
-0.7554004192352295 4.417008399963379 0.30976492166519165 2070155 4 -1
-0.7892941236495972 4.408525466918945 0.3441832363605499 2006409 4 -1
-0.789736807346344 4.410998344421387 0.30976492166519165 2072968 4 -1
-0.8205654621124268 4.3859639167785645 0.5162748694419861 5424489 4 -1
-1.1010953187942505 4.353558540344238 0.10325497388839722 10672695 4 -1
-1.064961552619934 4.355064392089844 0.275346577167511 11197490 4 -1
-1.0624480247497559 4.344785690307617 0.41301989555358887 11918891 4 -1
-1.0624480247497559 4.344785690307617 0.41301989555358887 13164576 4 -1
-1.0708754062652588 4.379249095916748 -0.38134506344795227 4456788 4 -1
-1.0987650156021118 4.3443450927734375 -0.6240191459655762 4456788 0 -1
-1.0708754062652588 4.379249095916748 -0.38134506344795227 4147337 4 -1
-1.1067262887954712 4.375823020935059 -0.3120095729827881 3432845 4 -1
-0.7618836164474487 4.454916954040527 0.20800639688968658 2912910 4 -1
-0.7958583235740662 4.445189476013184 0.2773418426513672 2006409 4 -1
-1.1092371940612793 4.3857502937316895 0.0693354606628418 2666112 4 -1
-0.7950136065483093 4.440471649169922 0.346677303314209 2666112 4 -1
-1.143900752067566 4.376837253570557 0.0693354606628418 2994813 4 -1
-1.1093673706054688 4.386265277862549 0 3257723 4 -1
-1.1440016031265259 4.377222537994385 0.0346677303314209 3651704 4 -1
-1.1093348264694214 4.386136531829834 0.0346677303314209 4045940 4 -1
-1.06935453414917 4.373029708862305 0.45068052411079407 8180304 4 -1
-0.89815354347229 4.417908668518066 0.38134506344795227 8180304 4 -1
-0.8996659517288208 4.425347805023193 0.2773418426513672 9360965 4 -1
-1.06935453414917 4.373029708862305 0.45068052411079407 10016830 4 -1
-0.9004079103469849 4.42899751663208 0.20800639688968658 10016830 4 -1
-1.071540117263794 4.381967067718506 0.346677303314209 10672695 4 -1
-0.9338003396987915 4.415957927703857 0.3120095729827881 10672695 4 -1
-1.068498134613037 4.369527339935303 0.48534825444221497 11197490 4 -1
-1.06935453414917 4.373029708862305 0.45068052411079407 11918891 4 -1
-1.068498134613037 4.369527339935303 0.48534825444221497 12640037 4 -1
-1.068498134613037 4.369527339935303 0.48534825444221497 13164576 4 -1
-1.077845811843872 4.407753944396973 -0.41900569200515747 4456788 4 -1
-1.1126151084899902 4.399106025695801 -0.41900569200515747 4456788 4 -1
-1.1099436283111572 4.388543605804443 -0.5237571001052856 4456788 4 -1
-1.1146883964538574 4.407303810119629 -0.3142542541027069 3432845 4 -1
-1.1173484325408936 4.417820930480957 0 2666112 4 -1
-1.1173484325408936 4.417820930480957 0 3257723 4 -1
-1.117315649986267 4.417691230773926 -0.034917138516902924 3651704 4 -1
-1.1173484325408936 4.417820930480957 0 4045940 4 -1
-1.1172173023223877 4.417302131652832 -0.06983427703380585 4505456 4 -1
-1.0732086896896362 4.388790607452393 0.5935913920402527 8180304 4 -1
-0.9026069045066833 4.43981409072876 0.4888399541378021 8180304 4 -1
-0.9065387845039368 4.45915412902832 0.24441997706890106 10016830 4 -1
-1.0742658376693726 4.393113613128662 0.5586742162704468 10672695 4 -1
-1.0752578973770142 4.397170543670654 0.5237571001052856 11197490 4 -1
-1.0770477056503296 4.404489994049072 0.4539228081703186 11918891 4 -1
-1.0761851072311401 4.400962829589844 0.4888399541378021 12640037 4 -1
-1.0752578973770142 4.397170543670654 0.5237571001052856 13164576 4 -1
-1.18547523021698 4.3932414054870605 -0.5978313088417053 4456788 0 -1
-1.1188358068466187 4.423701763153076 -0.49233168363571167 4456788 4 -1
-1.123213291168213 4.441009521484375 -0.2813323736190796 3432845 4 -1
-1.1245033740997314 4.446110248565674 -0.17583273351192474 2718350 4 -1
-1.1248008012771606 4.447286605834961 -0.1406661868095398 2199437 4 -1
-1.124139666557312 4.444672107696533 -0.2109992951154709 2134668 4 -1
-1.1252964735031128 4.449246406555176 0.03516654670238495 3257723 4 -1
-1.1252964735031128 4.449246406555176 -0.03516654670238495 3651704 4 -1
-1.1252964735031128 4.449246406555176 0.03516654670238495 4045940 4 -1
-1.1603598594665527 4.439813137054443 0.0703330934047699 4505456 4 -1
-1.1248008012771606 4.447286605834961 -0.1406661868095398 5424489 4 -1
-1.0808744430541992 4.420139312744141 0.5978313088417053 10672695 4 -1
-1.0838721990585327 4.432397842407227 0.49233168363571167 11197490 4 -1
-1.0838721990585327 4.432397842407227 0.49233168363571167 11918891 4 -1
-1.0505272150039673 4.447654724121094 0.4219985902309418 12640037 4 -1
-0.9393804669380188 4.442346572875977 0.6681644320487976 13164576 4 -1
-1.1330111026763916 4.479748725891113 -0.10624786466360092 2718350 4 -1
-1.1324785947799683 4.477643013000488 -0.17707978188991547 2199437 4 -1
-1.1327781677246094 4.478827476501465 -0.1416638195514679 2134668 4 -1
-1.1283677816390991 4.317404270172119 -1.204142451286316 2139270 0 -1
-0.8457554578781128 4.520605564117432 0.46040743589401245 2139270 4 -1
-0.7758502960205078 4.536583423614502 0.4249914586544037 2271109 4 -1
-1.1331775188446045 4.480406761169434 0.07083190977573395 4045940 4 -1
-1.1316791772842407 4.474482536315918 0.24791169166564941 4899181 4 -1
-1.0915592908859253 4.463833332061768 0.49582338333129883 10672695 4 -1
-1.0924341678619385 4.467411518096924 0.46040743589401245 11197490 4 -1
-0.7392127513885498 4.534060478210449 0.7489726543426514 4456788 0 -1
-1.2124799489974976 4.4933180809021 -0.071330726146698 2264205 4 -1
-1.1410281658172607 4.365845680236816 -1.141291618347168 2139270 0 -1
-1.0323505401611328 4.5296735763549805 0.285322904586792 2139270 4 -1
-0.850296139717102 4.544875621795654 0.5349804759025574 2139270 4 -1
-1.1385746002197266 4.501745700836182 -0.320988267660141 2271109 4 -1
-0.8543590307235718 4.566592216491699 0.285322904586792 2271109 4 -1
-1.1259602308273315 4.308192253112793 -1.3552838563919067 4899181 0 -1
-1.0992462635040283 4.495268821716309 0.4993151128292084 10672695 4 -1
-1.0982991456985474 4.491395950317383 0.5349804759025574 11197490 4 -1
-0.8588873147964478 4.590795993804932 0.39506250619888306 2271109 4 -1
-1.105979561805725 4.522804260253906 0.5387215614318848 10672695 4 -1
-1.1014957427978516 4.504467964172363 0.6823806762695312 11197490 4 -1
-1.2883309125900269 4.4892425537109375 0.39506250619888306 11918891 0 -1
-0.9912223815917969 4.512465953826904 0.7901250123977661 11918891 4 -1
-1.193382978439331 4.56616735458374 -0.03616417944431305 4456788 4 -1
-1.2294377088546753 4.556161403656006 0.0723283588886261 4456788 4 -1
-0.8586929440498352 4.589756965637207 0.6871194243431091 4456788 4 -1
-1.045677900314331 4.588150978088379 0.3616417944431305 4456788 4 -1
-1.0679441690444946 4.521393299102783 0.8317761421203613 4456788 4 -1
-1.2894679307937622 4.493204593658447 0.6509552597999573 8180304 0 -1
-1.2849452495574951 4.477444648742676 0.7594478130340576 10672695 0 -1
-1.2880394458770752 4.488226413726807 0.6871194243431091 11197490 0 -1
-1.112632393836975 4.550010681152344 0.5786268711090088 11197490 4 -1
-1.2932825088500977 4.506496429443359 0.5424627065658569 11918891 0 -1
-1.2203065156936646 4.522322177886963 0.5786268711090088 13164576 4 -1
-0.8374879360198975 4.677707672119141 0.036413587629795074 4456788 4 -1
-1.0869745016098022 4.601963043212891 0.47337666153907776 4456788 4 -1
-1.09035325050354 4.616268157958984 0.2913087010383606 4456788 4 -1
-1.0807687044143677 4.575689315795898 0.691858172416687 4456788 4 -1
2.7876667976379395 3.8147988319396973 0.5097902417182922 3651704 5 -1
2.7899010181427 3.817856550216675 0.47337666153907776 4045940 5 -1
2.79196834564209 3.820685386657715 0.4369630515575409 4505456 5 -1
-1.2622952461242676 4.534387111663818 0.6554446220397949 11918891 0 -1
-1.0935429334640503 4.629772186279297 0.5132819414138794 4456788 4 -1
-1.09727144241333 4.645557403564453 0.3299669623374939 4456788 4 -1
-1.0881712436676025 4.607029438018799 0.6965969204902649 4456788 4 -1
2.811091423034668 3.8468544483184814 0.4399559497833252 3257723 5 -1
2.811091423034668 3.8468544483184814 0.4399559497833252 3651704 5 -1
2.8090100288391113 3.844006061553955 0.4766189455986023 4045940 5 -1
2.811091423034668 3.8468544483184814 0.4399559497833252 4505456 5 -1
2.830214500427246 3.873023509979248 0.4429488480091095 3257723 5 -1
2.868922233581543 3.848512649536133 0.40603646636009216 4045940 5 -1
-0.8538179397583008 4.768917083740234 0.2229708731174469 4456788 4 -1
-1.3681484460830688 4.627750396728516 0.48310357332229614 4456788 0 -1
-0.7055560350418091 4.794680118560791 0.18580906093120575 4456788 4 -1
-1.2470368146896362 4.621381759643555 -0.7803980708122253 4456788 0 -1
2.8883068561553955 3.874516010284424 0.40877994894981384 3257723 5 -1
-0.7410735487937927 4.778641223907471 -0.6734020113945007 4456788 0 -1
-1.29544198513031 4.65345573425293 -0.7108132243156433 4456788 0 -1
2.9857726097106934 3.8483593463897705 0.33670100569725037 4045940 5 -1
-1.4477452039718628 4.623260974884033 -0.8285338282585144 4456788 0 -1
2.968106746673584 3.9028749465942383 0.3389456570148468 3257723 5 -1
2.8215606212615967 4.018048286437988 0.2259637713432312 3651704 5 -1
2.966442823410034 3.9006869792938232 0.376606285572052 3651704 5 -1
3.000087022781372 3.866809129714966 0.4519275426864624 4045940 5 -1
2.823800802230835 4.021238327026367 0.1129818856716156 4899181 5 -1
2.8023765087127686 4.070987701416016 0.22746022045612335 2994813 5 -1
2.8040246963500977 4.073382377624512 0.1516401469707489 3257723 5 -1
2.842501401901245 4.0478692054748535 0.11373011022806168 3651704 5 -1
2.842918872833252 4.048463344573975 0.07582007348537445 4045940 5 -1
2.842501401901245 4.0478692054748535 0.11373011022806168 4505456 5 -1
2.8023765087127686 4.070987701416016 0.22746022045612335 4899181 5 -1
2.918987274169922 3.994504928588867 0.037910036742687225 5424489 5 -1
2.767432689666748 4.10113525390625 0 9360965 5 -1
2.822472333908081 4.1001811027526855 0.152637779712677 2994813 5 -1
2.8230528831481934 4.101024150848389 0.11447833478450775 3257723 5 -1
2.8616223335266113 4.075098037719727 0.0763188898563385 3651704 5 -1
2.8612022399902344 4.074499607086182 0.11447833478450775 4045940 5 -1
2.8612022399902344 4.074499607086182 0.11447833478450775 4505456 5 -1
2.8208131790161133 4.097770690917969 0.2289566695690155 4899181 5 -1
2.9742515087127686 3.989806652069092 0.19079722464084625 5424489 5 -1
2.823467493057251 4.101626396179199 0.0763188898563385 8180304 5 -1
2.7998101711273193 4.149116039276123 0.2688619792461395 2072968 5 -1
2.9870827198028564 4.00701904296875 0.38408854603767395 2072968 5 -1
2.8409199714660645 4.126979351043701 0.1536354124546051 2994813 5 -1
2.7998101711273193 4.149116039276123 0.2688619792461395 3257723 5 -1
2.8415040969848633 4.127828121185303 0.11522655934095383 3651704 5 -1
2.8793106079101562 4.100287437438965 0.1536354124546051 4045940 5 -1
2.7614567279815674 4.174740791320801 0.2688619792461395 4505456 5 -1
2.7602367401123047 4.172896862030029 0.3072708249092102 4899181 5 -1
2.765437364578247 4.180758953094482 0 10672695 5 -1
2.971088171005249 4.065803050994873 0.3092660903930664 2006409 5 -1
2.975287675857544 4.071549892425537 0.1546330451965332 2271109 5 -1
2.975287675857544 4.071549892425537 0.1546330451965332 2468738 5 -1
2.699775457382202 4.0008721351623535 -1.4690139293670654 3257723 0 -1
2.817990779876709 4.176058769226074 0.2706078290939331 3651704 5 -1
2.8153345584869385 4.172122478485107 0.3479243516921997 4505456 5 -1
2.764948844909668 4.180020332336426 0.5798739194869995 4899181 5 -1
2.783313035964966 4.207783222198486 -0.0386582612991333 10672695 5 -1
2.8395094871520996 4.207947731018066 0.11672300845384598 3302798 5 -1
2.952726364135742 4.121952533721924 0.2723536789417267 2006409 5 -1
2.9566357135772705 4.127409934997559 0.07781533896923065 2139270 5 -1
2.504969835281372 4.103416919708252 -1.6341221332550049 2468738 0 -1
2.9499433040618896 4.118067264556885 0.35016903281211853 2468738 5 -1
2.833498001098633 4.199039459228516 0.35016903281211853 2666112 5 -1
2.83892560005188 4.207082271575928 0.1556306779384613 2994813 5 -1
2.7362139225006104 4.054871082305908 -1.3617684841156006 3257723 0 -1
2.833498001098633 4.199039459228516 0.35016903281211853 3651704 5 -1
2.683919906616211 4.308852672576904 0.11672300845384598 13164576 5 -1
2.7794179916381836 4.286713123321533 -0.11747123301029205 3302798 5 -1
2.973752975463867 4.151305198669434 -0.19578538835048676 2072968 5 -1
2.7332448959350586 4.1320905685424805 1.2530264854431152 2271109 0 -1
2.97558856010437 4.153867244720459 0.0783141553401947 2271109 5 -1
2.965348243713379 4.1395721435546875 0.43072786927223206 2468738 5 -1
2.851661443710327 4.225955963134766 0.35241371393203735 2666112 5 -1
2.8189785480499268 4.261701583862305 0.0783141553401947 2994813 5 -1
3.0911381244659424 4.064653396606445 0.19578538835048676 3257723 5 -1
2.853091239929199 4.228074550628662 0.3132566213607788 4505456 5 -1
3.091745615005493 3.984947919845581 0.8222986459732056 4505456 0 -1
2.7370498180389404 4.306774139404297 0.27409955859184265 6933851 5 -1
2.7370498180389404 4.306774139404297 0.27409955859184265 7589974 5 -1
2.6967573165893555 4.32946252822876 0.3132566213607788 8180304 5 -1
2.7005691528320312 4.3355817794799805 0.1566283106803894 13164576 5 -1
2.761286973953247 4.1744842529296875 -1.1821945905685425 3562893 0 -1
2.9098000526428223 3.9819328784942627 -1.4580399990081787 3562893 0 -1
2.875913381576538 4.261895656585693 0.11821945756673813 2072968 5 -1
2.7503442764282227 4.327692985534668 0.39406487345695496 4505456 5 -1
2.754483222961426 4.334205627441406 0.27584540843963623 4899181 5 -1
2.751887083053589 4.33012056350708 0.3546583652496338 6933851 5 -1
2.7139341831207275 4.357038497924805 0.315251886844635 7589974 5 -1
2.7170512676239014 4.3620429039001465 0.19703243672847748 13164576 5 -1
3.009509563446045 4.201220512390137 -0.2775912582874298 3757452 5 -1
2.9710471630096436 4.2309250831604 -0.2379353642463684 3692940 5 -1
3.009509563446045 4.201220512390137 -0.2775912582874298 3562893 5 -1
3.0081801414489746 4.199365139007568 -0.3172471523284912 3107982 5 -1
2.7660346031188965 4.352382183074951 0.4362148344516754 2666112 5 -1
2.769304037094116 4.3575263023376465 0.3569030463695526 2994813 5 -1
2.7706923484802246 4.359710693359375 0.3172471523284912 3651704 5 -1
2.772977352142334 4.363306522369385 0.2379353642463684 4899181 5 -1
2.772977352142334 4.363306522369385 0.2379353642463684 7589974 5 -1
2.7746083736419678 4.365872859954834 0.1586235761642456 10016830 5 -1
2.775179147720337 4.3667707443237305 0.1189676821231842 10672695 5 -1
2.773874521255493 4.364717960357666 0.198279470205307 11197490 5 -1
2.7323179244995117 4.386552333831787 0.2775912582874298 12640037 5 -1
2.7719790935516357 4.275240421295166 -1.0774431228637695 4456788 0 -1
2.987269401550293 4.254025936126709 -0.3192424178123474 3692940 5 -1
2.9885895252227783 4.255906105041504 -0.2793371081352234 3562893 5 -1
3.0220108032226562 4.218672275543213 -0.4389583170413971 3107982 5 -1
2.9459621906280518 4.279573440551758 -0.35914772748947144 2006409 5 -1
2.783431053161621 4.37975549697876 0.4389583170413971 2666112 5 -1
2.78515887260437 4.382473945617676 0.39905303716659546 2994813 5 -1
2.7867209911346436 4.384932041168213 0.35914772748947144 3651704 5 -1
2.750554323196411 4.415830135345459 0.23943181335926056 9360965 5 -1
2.7920589447021484 4.393331050872803 0.1596212089061737 10016830 5 -1
2.7930431365966797 4.394880294799805 0.07981060445308685 10672695 5 -1
2.746910810470581 4.409980297088623 0.35914772748947144 11197490 5 -1
2.9671711921691895 4.3103837966918945 -0.28108298778533936 2006409 5 -1
2.798922300338745 4.404130935668945 0.4818565249443054 2666112 5 -1
2.8055436611175537 4.414549827575684 0.3212376832962036 2994813 5 -1
2.845623016357422 4.388821601867676 0.3212376832962036 3651704 5 -1
2.80950927734375 4.42078971862793 0.1606188416481018 9360965 5 -1
2.7640788555145264 4.43754243850708 0.36139240860939026 10016830 5 -1
2.850781202316284 4.309780597686768 -1.0505070686340332 4456788 0 -1
2.7525486946105957 4.3311614990234375 -1.2121235132217407 4017546 0 -1
3.151151180267334 4.227108478546143 0.08080823719501495 2523534 5 -1
2.9827866554260254 4.333068370819092 -0.3636370599269867 2006409 5 -1
2.7796878814697266 4.462601661682129 -0.40404120087623596 2271109 5 -1
2.939005136489868 4.355392932891846 0.44444531202316284 2271109 5 -1
3.1066386699676514 4.251297950744629 0.28282883763313293 2271109 5 -1
3.1381704807281494 4.209695339202881 0.4848494231700897 2994813 5 -1
2.7875568866729736 4.4752349853515625 0.08080823719501495 4505456 5 -1
2.9249050617218018 4.421840190887451 -0.2032676339149475 4456788 5 -1
3.2176311016082764 4.1472015380859375 -0.7724170088768005 4456788 0 -1
2.9480559825897217 4.2826151847839355 -1.056991696357727 4147337 0 -1
2.9432756900787354 4.275671005249023 -1.0976452827453613 4017546 0 -1
2.933148145675659 4.260958671569824 -1.1789523363113403 3887499 0 -1
2.969158887863159 4.3132710456848145 -0.8537240624427795 3757452 0 -1
2.969158887863159 4.3132710456848145 -0.8537240624427795 3757452 0 -1
3.1676220893859863 4.249203205108643 -0.243921160697937 2588302 5 -1
3.169485330581665 4.251702785491943 0.162614107131958 2523534 5 -1
2.84566330909729 4.477678298950195 0.0406535267829895 2070922 5 -1
2.842737913131714 4.473074913024902 -0.243921160697937 2006409 5 -1
2.8454127311706543 4.477283954620361 0.081307053565979 2271109 5 -1
3.117060661315918 4.265559673309326 0.487842321395874 2271109 5 -1
3.069192409515381 4.284536838531494 0.6098029017448425 2666112 5 -1
3.0260136127471924 4.309199810028076 0.650456428527832 2994813 5 -1
3.200200319290161 4.20806360244751 0.4471887946128845 2994813 5 -1
2.8833484649658203 4.447005748748779 -0.243921160697937 4505456 5 -1
3.0601396560668945 4.271899223327637 0.731763482093811 4505456 5 -1
2.3566482067108154 4.7502923011779785 -0.6135440468788147 4456788 0 -1
2.7810728549957275 4.555704593658447 -0.08180586993694305 4456788 5 -1
2.966142177581787 4.308888912200928 -1.063476324081421 4147337 0 -1
2.974072217941284 4.235232353210449 -1.3088939189910889 3887499 0 -1
3.1053359508514404 4.3349928855896 -0.24541760981082916 3107982 5 -1
3.146195650100708 4.305429935455322 0.24541760981082916 2523534 5 -1
2.9040231704711914 4.478892803192139 0.04090293496847153 2070922 5 -1
2.695570707321167 4.241506576538086 1.7997291088104248 2006409 0 -1
3.133861541748047 4.288550853729248 0.5317381620407104 2271109 5 -1
3.0445783138275146 4.335636615753174 0.6544469594955444 2666112 5 -1
3.0384016036987305 4.326840877532959 0.7362528443336487 2994813 5 -1
2.626089096069336 4.30182409286499 -1.7588262557983398 3257723 0 -1
3.059523582458496 4.104194641113281 -1.5134086608886719 3257723 0 -1
2.87524676322937 4.524228096008301 -0.3292187452316284 2139270 5 -1
2.978525161743164 4.413958549499512 0.6995898485183716 2271109 5 -1
3.0942556858062744 4.319524765014648 0.7818945050239563 2666112 5 -1
3.086822509765625 4.309147834777832 0.8641992211341858 2994813 5 -1
2.911430835723877 4.4903178215026855 0.7452315092086792 2006409 5 -1
2.911430835723877 4.4903178215026855 0.7452315092086792 2072968 5 -1
2.908205509185791 4.485342979431152 0.7866332530975342 2139270 5 -1
2.9491660594940186 4.458518028259277 0.7866332530975342 2271109 5 -1
2.9457144737243652 4.453299522399902 0.8280350565910339 2468738 5 -1
3.109365224838257 4.340617656707764 0.8280350565910339 2468738 5 -1
2.952436923980713 4.463462829589844 0.7452315092086792 2666112 5 -1
3.109365224838257 4.340617656707764 0.8280350565910339 2666112 5 -1
3.2107017040252686 4.306992530822754 0.5796245336532593 2994813 5 -1
2.813508987426758 4.6088385581970215 0.6247674226760864 2070922 5 -1
2.896259307861328 4.557291507720947 0.6247674226760864 3651704 5 -1
2.896259307861328 4.557291507720947 0.6247674226760864 4045940 5 -1
2.8935868740081787 4.553086757659912 0.6664185523986816 4505456 5 -1
-3.391073703765869 4.198672771453857 0.8799118995666504 4212104 0 -1
2.967857837677002 4.577345371246338 0.37710511684417725 2264205 5 -1
2.9706578254699707 4.581664085388184 0.2933039665222168 2199437 5 -1
3.1313600540161133 4.459218502044678 0.4609062373638153 2994813 5 -1
3.124408483505249 4.449319362640381 0.5866079330444336 3257723 5 -1
2.9643540382385254 4.571941375732422 0.4609062373638153 3651704 5 -1
3.1840691566467285 4.4449028968811035 -0.08380113542079926 3651704 5 -1
-4.176810264587402 3.4179656505584717 -0.8799118995666504 4045940 0 -1
2.9109137058258057 4.580350875854492 0.670409083366394 4045940 5 -1
-3.4021999835968018 4.212448596954346 0.9694494605064392 4212104 0 -1
-3.4958794116973877 4.2419257164001465 -0.21074987947940826 4017546 0 -1
2.9918575286865234 4.614360332489014 0.12644992768764496 2134668 5 -1
2.8100028038024902 4.6971435546875 0.5479496717453003 2070922 5 -1
3.1402981281280518 4.471946716308594 0.632249653339386 2994813 5 -1
-4.184543132781982 3.4242935180664062 -1.0115994215011597 4045940 0 -1
-3.889641761779785 3.663724184036255 -1.3066492080688477 4045940 0 -1
-3.51253080368042 4.262130260467529 -0.3391950726509094 4017546 0 -1
-3.51253080368042 4.262130260467529 -0.3391950726509094 4017546 0 -1
-4.1614179611206055 3.4896581172943115 -1.059984564781189 2328718 0 -1
-3.8626723289489746 3.6383211612701416 -1.5687772035598755 2328718 0 -1
-3.7450788021087646 4.01657247543335 -0.6783901453018188 2328718 0 -1
-1.8011505603790283 5.0295515060424805 1.4415791034698486 2199437 0 -1
3.008941888809204 4.64070987701416 -0.1695975363254547 2070155 5 -1
3.130084753036499 4.547047138214111 -0.3815944492816925 2070155 5 -1
2.5851473808288574 4.889471530914307 -0.1695975363254547 2070922 5 -1
2.836669445037842 4.7417192459106445 0.29679569602012634 2070922 5 -1
-3.892732620239258 3.7491214275360107 -1.1871827840805054 2468738 0 -1
-4.215310573577881 3.4494712352752686 -0.9751858115196228 4045940 0 -1
-3.9200758934020996 3.6923906803131104 -1.2719814777374268 4045940 0 -1
-3.3956358432769775 4.289745807647705 -1.0235710144042969 4017546 0 -1
-4.165565013885498 3.493135690689087 -1.1941661834716797 2328718 0 -1
-3.926292896270752 3.6158103942871094 -1.578005313873291 2328718 0 -1
-3.91684889793396 3.5255753993988037 1.7912492752075195 2199437 0 -1
2.7275187969207764 4.847177505493164 -0.21324396133422852 2134668 5 -1
4.122211933135986 3.710423469543457 0.46913671493530273 2134668 0 -1
-3.744861602783203 3.686840295791626 1.8338980674743652 2070922 0 -1
3.023705244064331 4.663479328155518 0.2985415458679199 2070922 5 -1
-4.161806583404541 3.574768543243408 -0.9382734298706055 2468738 0 -1
-3.922252655029297 3.777552366256714 -1.151517391204834 2468738 0 -1
-3.4104044437408447 4.308403491973877 -1.0724550485610962 4017546 0 -1
-4.116791248321533 3.7055442333221436 -0.8150658011436462 2134668 0 -1
-3.7772903442382812 3.718766689300537 1.8017244338989258 2070922 0 -1
-4.18044900894165 3.5907814502716064 -0.9866586327552795 2468738 0 -1
-4.23681116104126 3.639193534851074 -0.38608381152153015 8180304 0 -1
-3.4024102687835693 4.3853631019592285 0.9492473602294922 4017546 0 -1
-3.922689914703369 3.9467318058013916 -0.8629521727561951 2199437 0 -1
-1.8685847520828247 4.961147308349609 1.8984947204589844 2070155 0 -1
-4.228267669677734 3.5457167625427246 -1.121837854385376 2468738 0 -1
3.1162164211273193 4.618007183074951 0.8198045492172241 2468738 5 -1
-4.140224456787109 3.8128244876861572 -0.172590434551239 5949540 0 -1
-3.9037749767303467 4.0130438804626465 -0.6040664911270142 5949540 0 -1
-3.9353890419006348 3.9595086574554443 -0.9547343850135803 2199437 0 -1
-3.7740392684936523 4.962625980377197 0.7701723575592041 4017546 0 -1
-3.7970974445343018 4.992946147918701 0.7257776856422424 4017546 0 -1
-2.480675458908081 5.84317684173584 1.7129350900650024 4456788 0 -1
-2.2861127853393555 5.922006130218506 1.7129350900650024 4456788 0 -1
2.0630764961242676 6.069572448730469 -1.4610328674316406 4456788 0 -1
4.961350917816162 3.9599826335906982 -1.7129350900650024 4456788 0 -1
2.097949981689453 6.1721696853637695 0.8564675450325012 4456788 0 -1
5.0963006019592285 3.6602933406829834 -1.9648373126983643 4456788 0 -1
1.6665606498718262 6.3766584396362305 1.2330738306045532 5424489 0 -1
1.6559947729110718 6.336230754852295 1.4385861158370972 11197490 0 -1
-4.761312007904053 4.790493488311768 -0.4668920338153839 4456788 0 -1
-4.918722152709961 4.325777530670166 -1.711937427520752 2782862 0 -1
-5.007410526275635 4.3010969161987305 -1.5044299364089966 2718350 0 -1
-5.040701389312744 4.3296918869018555 -1.2969223260879517 4899181 0 -1
-5.048222541809082 4.33615255355835 -1.2450454235076904 12640037 0 -1
-5.022309303283691 4.313894271850586 -1.5637890100479126 2782862 0 -1
-5.031484603881836 4.321775436401367 -1.5116627216339111 2718350 0 -1
-4.992802143096924 4.288549423217773 -1.7201679944992065 2588302 0 -1
-2.549363851547241 6.004970550537109 1.9286731481552124 2328718 0 -1
-2.3497438430786133 6.238638877868652 1.3552838563919067 2328718 0 -1
-5.079731464385986 4.363216876983643 -1.1989049911499023 2134668 0 -1
-5.072493076324463 4.356999397277832 -1.2510312795639038 4899181 0 -1
-5.006138801574707 4.300004959106445 -1.7807741165161133 2977934 0 -1
-2.423128366470337 6.27693510055542 1.204641342163086 2977934 0 -1
-5.036789417266846 4.326332092285156 -1.6236469745635986 2912910 0 -1
-5.055558681488037 4.342453956604004 -1.5188956260681152 2718350 0 -1
-5.036789417266846 4.326332092285156 -1.6236469745635986 2588302 0 -1
-2.567523956298828 6.047746658325195 1.8855255842208862 2328718 0 -1
-2.3912031650543213 6.194234848022461 1.6236469745635986 2328718 0 -1
-5.129950046539307 4.4063520431518555 -0.9951384663581848 2134668 0 -1
-2.6237668991088867 6.0397047996521 1.833149790763855 2070155 0 -1
-2.3865115642547607 6.182081699371338 1.6760227680206299 2070155 0 -1
-5.117626667022705 4.395766735076904 -1.099889874458313 2666112 0 -1
-2.4231040477752686 5.98155403137207 2.2521555423736572 2666112 0 -1
-5.104036331176758 4.384093284606934 -1.204641342163086 4899181 0 -1
-5.140575408935547 4.310754299163818 -1.3093926906585693 6343264 0 -1
-5.081253528594971 4.3645243644714355 -1.3617684841156006 10672695 0 -1
-2.479466676712036 5.977945804595947 2.199779748916626 10672695 0 -1
-5.009654998779297 4.40574836730957 -1.6313786506652832 2912910 0 -1
-5.070369243621826 4.355175495147705 -1.5787535905838013 2718350 0 -1
-2.591200590133667 6.103516101837158 1.7892539501190186 2328718 0 -1
-2.4071450233459473 6.235531330108643 1.5787535905838013 2328718 0 -1
-2.3774170875549316 6.158523082733154 1.894504189491272 2134668 0 -1
-2.478583574295044 6.1185078620910645 1.894504189491272 2271109 0 -1
-2.472827911376953 6.104299545288086 1.9471293687820435 4899181 0 -1
-5.1650543212890625 4.331281661987305 -1.315627932548523 6343264 0 -1
-2.4912736415863037 6.006412506103516 2.2102549076080322 10672695 0 -1
-2.1982717514038086 6.138476848602295 2.1576297283172607 10672695 0 -1
3.4170119762420654 5.949192047119141 -0.7402433753013611 4212104 0 -1
3.2451231479644775 5.767032146453857 1.956357479095459 4147337 0 -1
-5.061039447784424 4.450938701629639 -1.4804867506027222 2912910 0 -1
-5.241428375244141 4.289163589477539 -1.3218631744384766 2328718 0 -1
-4.7796950340271 4.91348123550415 -0.793117880821228 2328718 0 -1
-2.6655423641204834 6.135869026184082 1.6919848918914795 2328718 0 -1
-2.404344081878662 6.228275299072266 1.7448593378067017 2328718 0 -1
-2.630342483520508 6.0548415184021 2.0092320442199707 2264205 0 -1
-2.3886842727661133 6.187710285186768 1.9034829139709473 2264205 0 -1
-2.433842420578003 6.153526782989502 1.956357479095459 2070922 0 -1
-5.1037068367004395 4.383810520172119 1.5333611965179443 3651704 0 -1
-5.486245155334473 4.049647331237793 -1.0574904680252075 6343264 0 -1
-5.159666538238525 4.4318766593933105 -1.163239598274231 6343264 0 -1
3.380312442779541 6.007282257080078 -0.7437350749969482 4212104 0 -1
3.393537998199463 6.03078556060791 -0.4249914586544037 4147337 6 -1
-2.275522470474243 6.19464635848999 2.124957323074341 2070922 0 -1
3.34592342376709 6.070130825042725 -0.15937180817127228 3651704 6 -1
3.398334503173828 6.039309501647949 -0.21249572932720184 4045940 6 -1
3.393256187438965 6.030284881591797 -0.8006001114845276 4212104 0 -1
3.4109766483306885 6.061776638031006 -0.3736133873462677 4147337 6 -1
3.3600518703460693 6.095762252807617 -0.2668667137622833 3432845 6 -1
3.4109766483306885 6.061776638031006 -0.3736133873462677 3238030 6 -1
3.407761573791504 6.056063175201416 -0.48036009073257446 3107982 6 -1
3.375544309616089 5.99880838394165 -1.0674668550491333 2588302 0 -1
3.4142889976501465 6.067663192749023 -0.21349336206912994 3651704 6 -1
3.391317844390869 6.0268402099609375 -1.0724550485610962 4212104 0 -1
3.431755304336548 6.098702907562256 -0.05362274870276451 4147337 6 -1
3.37734055519104 6.127127647399902 -0.16086825728416443 3432845 6 -1
3.4254021644592285 6.0874128341674805 -0.4289819896221161 3238030 6 -1
3.428227186203003 6.092432975769043 -0.32173651456832886 2718350 6 -1
3.402615547180176 6.046917915344238 -0.9115867614746094 2588302 0 -1
3.4236857891082764 6.084362506866455 -0.4826047420501709 2006409 6 -1
3.428227186203003 6.092432975769043 -0.32173651456832886 2994813 6 -1
3.4293365478515625 6.094404220581055 -0.26811376214027405 3651704 6 -1
3.3778364658355713 6.128026962280273 -0.10724549740552902 5949540 6 -1
3.4309492111206055 6.097270488739014 -0.16086825728416443 8705099 6 -1
3.431452989578247 6.098165988922119 -0.10724549740552902 9360965 6 -1
3.480461359024048 6.059660911560059 -0.37535926699638367 10016830 6 -1
3.4376816749572754 6.1092352867126465 -0.5387215614318848 3238030 6 -1
3.4413342475891113 6.115725994110107 -0.4309772551059723 2006409 6 -1
3.4441723823547363 6.12076997756958 -0.3232329487800598 3257723 6 -1
3.4441723823547363 6.12076997756958 -0.3232329487800598 8705099 6 -1
3.447413206100464 6.126529216766357 -0.10774431377649307 9360965 6 -1
3.496649742126465 6.087845325469971 -0.37710511684417725 10016830 6 -1
3.4071555137634277 6.181217193603516 0.2706078290939331 2139270 0 -1
3.2210886478424072 6.355319976806641 0.21848152577877045 13164576 6 -1
3.5396316051483154 6.162679195404053 -0.8779166340827942 4456788 0 -1
3.236462354660034 6.385653018951416 0.1646093726158142 2977934 6 -1
3.2918009757995605 6.358486652374268 0.10973957926034927 2912910 6 -1
3.2357966899871826 6.384339809417725 0.21947915852069855 4045940 6 -1
3.292090892791748 6.359046459197998 0.05486978963017464 4505456 6 -1
3.234941005706787 6.382651329040527 0.2743489444255829 8180304 6 -1
3.2913174629211426 6.357553005218506 0.1646093726158142 8705099 6 -1
3.234941005706787 6.382651329040527 0.2743489444255829 10672695 6 -1
3.3070547580718994 6.387951374053955 -0.05511919781565666 4456788 6 -1
3.3070547580718994 6.387951374053955 0.05511919781565666 4212104 6 -1
3.3067636489868164 6.387388706207275 0.11023839563131332 4147337 6 -1
3.3067636489868164 6.387388706207275 0.11023839563131332 2977934 6 -1
3.3070547580718994 6.387951374053955 0.05511919781565666 2912910 6 -1
3.3062779903411865 6.38645076751709 0.16535760462284088 4045940 6 -1
3.3067636489868164 6.387388706207275 0.11023839563131332 4505456 6 -1
3.3062779903411865 6.38645076751709 0.16535760462284088 4899181 6 -1
3.3062779903411865 6.38645076751709 0.16535760462284088 7589974 6 -1
3.3062779903411865 6.38645076751709 0.16535760462284088 8705099 6 -1
3.3067636489868164 6.387388706207275 0.11023839563131332 10672695 6 -1
3.3102948665618896 6.394209861755371 -0.609054684638977 4456788 0 -1
3.32201886177063 6.416856288909912 0.05536860600113869 4456788 6 -1
3.3221163749694824 6.417044639587402 0 4212104 6 -1
3.3221163749694824 6.417044639587402 0 4147337 6 -1
3.3212385177612305 6.415349006652832 0.16610582172870636 4045940 6 -1
3.3212385177612305 6.415349006652832 0.16610582172870636 4505456 6 -1
3.3770885467529297 6.387325763702393 0.11073721200227737 4899181 6 -1
3.3212385177612305 6.415349006652832 0.16610582172870636 7589974 6 -1
3.3205556869506836 6.414029598236084 0.22147442400455475 8705099 6 -1
3.318603754043579 6.410259246826172 0.3322116434574127 9360965 6 -1
3.228635311126709 6.236474990844727 -1.8353945016860962 4456788 0 -1
3.336688995361328 6.445193290710449 0.11123602837324142 4045940 6 -1
3.39259934425354 6.416662693023682 0.05561801418662071 7589974 6 -1
3.335513114929199 6.4429216384887695 0.22247205674648285 8705099 6 -1
3.392300605773926 6.416097164154053 0.11123602837324142 9360965 6 -1
3.390963315963745 6.413568019866943 -0.7262765169143677 4456788 0 -1
3.323134183883667 6.419010162353516 -1.1784534454345703 4456788 0 -1
4.207650184631348 5.9919114112854 -0.16835050284862518 4456788 0 -1
3.0863351821899414 6.6413140296936035 -0.05611683055758476 4456788 0 -1
3.344696283340454 6.460659980773926 -0.8417524695396423 4456788 0 -1
3.7314648628234863 6.237440586090088 -0.8978692889213562 4456788 0 -1
3.7314648628234863 6.237440586090088 -0.8978692889213562 4456788 0 -1
3.9644787311553955 6.114439964294434 -0.7295188307762146 4456788 0 -1
3.029508113861084 6.665538787841797 -0.16835050284862518 4456788 0 -1
3.438340663909912 6.503176212310791 0 4456788 6 -1
2.9842519760131836 6.715158462524414 -0.3381974399089813 4456788 0 -1
2.5680668354034424 6.81829309463501 -1.0145922899246216 4456788 0 -1
3.5501346588134766 6.440608501434326 -0.16909871995449066 4456788 6 -1
3.268857955932617 6.589032173156738 -0.11273247748613358 4456788 0 -1
-5.340645790100098 4.918319225311279 -1.1836910247802734 9360965 0 -1
3.1701040267944336 6.673158645629883 -0.11323129385709763 4456788 0 -1
4.8597893714904785 5.547137260437012 0.4529251754283905 4456788 0 -1
3.223679542541504 6.639723300933838 0.33969390392303467 4456788 0 -1
-5.357321262359619 4.933675765991211 -1.2455443143844604 9360965 0 -1
-5.3428425788879395 5.032520294189453 -0.8492347002029419 10016830 0 -1
2.952726364135742 6.796943664550781 -0.39805540442466736 4456788 0 -1
4.076939582824707 6.163473606109619 -0.6823806762695312 4456788 0 -1
1.6467127799987793 7.2253289222717285 -0.39805540442466736 4456788 0 -1
2.7266366481781006 6.893803596496582 -0.3411903381347656 4456788 0 -1
3.1261086463928223 6.726900577545166 0.22746022045612335 4456788 0 -1
4.547067165374756 5.860710620880127 0.22746022045612335 4456788 0 -1
2.574751377105713 6.669703006744385 -1.9902769327163696 4456788 0 -1
-5.512914180755615 4.622988224029541 -1.8196817636489868 4045940 0 -1
-5.1562323570251465 5.076344013214111 -1.649086594581604 4045940 0 -1
-0.9923245906829834 7.125976085662842 1.8196817636489868 4045940 0 -1
-0.7747914791107178 7.180871486663818 1.7059516906738281 4045940 0 -1
-5.387907981872559 4.961844444274902 -1.1941661834716797 9360965 0 -1
-5.26604700088501 5.184456825256348 -0.6823806762695312 10016830 0 -1
-1.0075500011444092 7.235311985015869 1.3078962564468384 10016830 0 -1
2.6793315410614014 6.940610408782959 -0.4569157063961029 4456788 0 -1
4.695194721221924 5.697183609008789 1.0280603170394897 4456788 0 -1
3.213101387023926 6.617935657501221 -1.1994037628173828 4456788 0 -1
3.3503081798553467 6.610274791717529 -0.7996025085449219 4456788 0 -1
4.473598957061768 5.882503032684326 -0.9709458947181702 4456788 0 -1
2.905697822570801 6.688687801361084 -1.5420905351638794 4456788 0 -1
