VERSION .7
FIELDS x y z rgb label object
SIZE 4 4 4 4 4 4
TYPE F F F I I I
COUNT 1 1 1 1 1 1
WIDTH 685
HEIGHT 1
POINTS 685
VIEWPOINT 0 0 0 1 0 0 0
DATA ascii
0.968721866607666 3.4798195362091064 -1.0993911027908325 4456788 0 -1
2.526752471923828 2.767213821411133 -0.4629015028476715 4456788 0 -1
3.586538791656494 1.1770447492599487 0.08679403364658356 4456788 0 -1
-2.9178595542907715 2.3877415657043457 0.20251941680908203 4456788 0 -1
-2.7624154090881348 2.486464023590088 0.6654209494590759 4456788 0 -1
-2.828521728515625 2.4875476360321045 0.2603820860385895 4456788 0 -1
-2.836829423904419 2.4366843700408936 0.520764172077179 4456788 0 -1
-2.836829423904419 2.4366843700408936 0.520764172077179 4456788 0 -1
-2.8303701877593994 2.431136131286621 0.5786268711090088 4456788 0 -1
-2.833686590194702 2.4339847564697266 0.5496955513954163 4523353 0 -1
-2.839799165725708 2.439235210418701 0.4918328523635864 4590430 0 -1
-2.794696569442749 2.4577999114990234 0.6364895701408386 4657508 0 -1
-2.9651074409484863 2.307142972946167 0.37610748410224915 4725613 0 -1
-2.3690788745880127 2.760134220123291 1.0125970840454102 4725613 0 -1
-2.8164820671081543 2.476959228515625 0.4339701533317566 4471684 0 -1
-3.006650686264038 2.279331684112549 0.1446567177772522 4147337 0 -1
-2.5799765586853027 2.652191638946533 0.7522149682044983 4147337 0 -1
-2.2575926780700684 2.8520431518554688 1.0125970840454102 2134668 0 -1
-2.854011058807373 2.451442241668701 0.3182447850704193 4045940 0 -1
-2.893049478530884 2.426036834716797 -0.02893134392797947 6933851 0 -1
-2.882016897201538 2.4754979610443115 0.2626267671585083 4456788 0 -1
-2.482806921005249 2.8339648246765137 0.5544342994689941 4456788 0 -1
-2.8284549713134766 2.5459063053131104 0.14590376615524292 4456788 0 -1
-2.980008840560913 2.318737506866455 0.49607279896736145 4456788 0 -1
-2.8671016693115234 2.462686538696289 0.4668920338153839 4456788 0 -1
-2.990668773651123 2.3270320892333984 0.37934979796409607 4456788 0 -1
-2.79709792137146 2.517681837081909 0.5836150646209717 4456788 0 -1
-2.994922161102295 2.3303415775299072 0.320988267660141 4456788 0 -1
-2.803481101989746 2.5234274864196777 0.5252535343170166 4456788 0 -1
-2.992884874343872 2.328756332397461 0.35016903281211853 4523353 0 -1
-2.8642802238464355 2.4602630138397217 0.49607279896736145 4523353 0 -1
-2.655097246170044 2.6139602661132812 0.7878803014755249 4523353 0 -1
-3.002439498901367 2.336190700531006 0.17508451640605927 4590430 0 -1
-2.6749730110168457 2.633527994155884 0.641976535320282 4590430 0 -1
-2.786229372024536 2.507899045944214 0.6711573004722595 4657508 0 -1
-2.426701784133911 2.827268600463867 0.7878803014755249 4725613 0 -1
-2.482806921005249 2.8339648246765137 0.5544342994689941 4212104 0 -1
-2.8239681720733643 2.6006548404693604 -0.11772064119577408 4456788 0 -1
-2.4557502269744873 2.9200119972229004 0.44145241379737854 4456788 0 -1
-2.4557502269744873 2.9200119972229004 0.44145241379737854 4456788 0 -1
-3.6598784923553467 0.9876154661178589 0.6180333495140076 4456788 0 -1
-2.972097158432007 2.4321253299713135 -0.05886032059788704 4456788 0 -1
-3.668691635131836 0.9899936318397522 0.559173047542572 4523353 0 -1
-3.024089813232422 2.353036880493164 0.2648714482784271 4523353 0 -1
-2.5204997062683105 2.7603659629821777 0.8829048275947571 4523353 0 -1
-3.0256059169769287 2.3542165756225586 0.23544128239154816 4590430 0 -1
-2.426351547241211 2.8850553035736084 0.7357540130615234 4657508 0 -1
-2.3974664211273193 2.9091031551361084 0.7357540130615234 4725613 0 -1
-3.0599279403686523 2.319720983505249 0.08829048275947571 4212104 0 -1
-2.8220081329345703 2.5988497734069824 -0.5342322587966919 4456788 0 -1
-2.636514186859131 2.827644109725952 -0.23743654787540436 4456788 0 -1
-2.374295711517334 3.060227632522583 -0.029679568484425545 4456788 0 -1
-2.8350677490234375 2.6108767986297607 0.38583439588546753 4456788 0 -1
-2.6824216842651367 2.470301628112793 -1.305901050567627 4456788 0 -1
-2.8866562843322754 2.5386738777160645 0.4748730957508087 4590430 0 -1
-2.423414707183838 3.000561475753784 0.35615482926368713 4725613 0 -1
3.1165640354156494 2.052098512649536 -1.0387848615646362 4725613 0 -1
-2.6586697101593018 2.8514058589935303 -0.23943181335926056 4456788 0 -1
-2.849325656890869 2.389371156692505 -1.297670602798462 4456788 0 -1
-3.015622854232788 2.5288238525390625 -0.15089192986488342 4456788 0 -1
-3.0177500247955322 2.5306074619293213 -0.030178384855389595 4523353 0 -1
-3.573366403579712 1.6089863777160645 0.392318993806839 4590430 0 -1
-3.016420602798462 2.5294928550720215 0.12071353942155838 4590430 0 -1
-2.9978389739990234 2.5139105319976807 0.45267578959465027 4657508 0 -1
-2.505040407180786 2.9786202907562256 -0.6035677194595337 4657508 0 -1
-3.6513352394104004 1.5610580444335938 0 4523353 0 -1
-3.0080151557922363 2.583723783493042 -0.2129945456981659 4523353 0 -1
-2.509544610977173 3.3664262294769287 0 4456788 0 -1
-3.224046468734741 3.105104684829712 -0.6586868762969971 3887499 0 -1
-3.0028023719787598 3.2204859256744385 -1.040031909942627 3887499 0 -1
-3.2744297981262207 3.084244728088379 0.48534825444221497 3757452 0 -1
-3.2658867835998535 3.1454012393951416 -0.4539228081703186 3887499 0 -1
-2.9648187160491943 3.4542105197906494 0.20950284600257874 3887499 0 -1
-2.7932891845703125 3.6002676486968994 -0.034917138516902924 3887499 0 -1
-3.2779452800750732 3.0875561237335205 -0.6983428001403809 3757452 0 -1
-3.0546257495880127 3.2760660648345947 -0.8380113840103149 3757452 0 -1
-3.0546257495880127 3.2760660648345947 -0.8380113840103149 3432845 0 -1
-2.790417432785034 3.5965664386749268 0.20950284600257874 3238030 0 -1
-3.2657811641693115 3.2151825428009033 -0.24616584181785583 3887499 0 -1
-3.128995656967163 3.3558273315429688 0.10549964755773544 3887499 0 -1
-3.022902250289917 3.450448751449585 0.1406661868095398 3887499 0 -1
-3.3565075397491455 3.0910823345184326 -0.49233168363571167 3757452 0 -1
-3.0442728996276855 3.403927803039551 0.4571651220321655 3757452 0 -1
-2.7400903701782227 3.6756913661956787 -0.2109992951154709 3757452 0 -1
-3.017123222351074 3.443852186203003 0.31649893522262573 3692940 0 -1
-2.771543264389038 3.644406318664551 0.31649893522262573 3692940 0 -1
-2.7360434532165527 3.670262575149536 0.6374872326850891 3432845 0 -1
2.952498197555542 3.5106706619262695 0.5666552782058716 2912910 5 -1
3.004695177078247 3.500669240951538 0.2833276391029358 2782862 5 -1
2.997603416442871 3.4924070835113525 0.4249914586544037 2718350 5 -1
3.0413877964019775 3.4715490341186523 0.24791169166564941 2588302 5 -1
-2.915961742401123 3.610410690307617 0.35665363073349 4147337 0 -1
-2.3895092010498047 3.994255304336548 -0.035665363073349 4017546 0 -1
3.020768404006958 3.519395589828491 0.392318993806839 2912910 5 -1
3.020768404006958 3.519395589828491 0.392318993806839 2782862 5 -1
3.0140624046325684 3.511582851409912 0.4993151128292084 2718350 5 -1
3.054227590560913 3.4862048625946045 0.427984356880188 2588302 5 -1
3.093764305114746 3.459265947341919 0.35665363073349 2523534 5 -1
3.0418925285339355 3.544006824493408 0.39506250619888306 3107982 5 -1
3.0418925285339355 3.544006824493408 0.39506250619888306 2977934 5 -1
3.039823293685913 3.541595935821533 0.4309772551059723 2912910 5 -1
3.0418925285339355 3.544006824493408 0.39506250619888306 2782862 5 -1
3.035139799118042 3.5361392498016357 0.5028068423271179 2718350 5 -1
3.113466501235962 3.4812958240509033 0.39506250619888306 2588302 5 -1
3.1113486289978027 3.4789276123046875 0.4309772551059723 2523534 5 -1
3.1529757976531982 3.4530324935913086 0.3232329487800598 2458766 5 -1
3.0377912521362305 3.612088203430176 0 3562893 5 -1
2.8876936435699463 3.7219455242156982 0.2893134355545044 3107982 5 -1
3.0666372776031494 3.572835922241211 0.32547762989997864 3107982 5 -1
3.0609331130981445 3.566190481185913 0.4339701533317566 2977934 5 -1
3.0176591873168945 3.5881502628326416 0.5424627065658569 2912910 5 -1
3.063016891479492 3.568618059158325 0.39780598878860474 2782862 5 -1
3.1764631271362305 3.478754997253418 0.2893134355545044 2523534 5 -1
3.2152087688446045 3.4482903480529785 0.2169850766658783 2458766 5 -1
3.254680633544922 3.4177627563476562 0.03616417944431305 2328718 5 -1
3.020108938217163 3.6646220684051514 -0.18206794559955597 3302798 5 -1
2.9851253032684326 3.6960458755493164 -0.10924076288938522 3238030 5 -1
2.9473352432250977 3.723402738571167 0.18206794559955597 3107982 5 -1
2.9816160202026367 3.6917009353637695 0.2548951208591461 2977934 5 -1
3.1983697414398193 3.502746343612671 0.2913087010383606 2523534 5 -1
3.2361443042755127 3.470743417739868 0.2548951208591461 2458766 5 -1
3.1665444374084473 3.4678924083709717 0.7282717823982239 2328718 5 -1
3.2292771339416504 3.463378429412842 0.4005494713783264 2264205 5 -1
3.0429394245147705 3.692324638366699 -0.0366629958152771 3432845 5 -1
3.0430288314819336 3.6924331188201904 0 3302798 5 -1
3.0429394245147705 3.692324638366699 0.0366629958152771 3238030 5 -1
3.0426714420318604 3.6919994354248047 0.0733259916305542 3107982 5 -1
3.040794610977173 3.6897222995758057 0.1833149790763855 2977934 5 -1
3.218662738800049 3.524970531463623 0.3299669623374939 2523534 5 -1
3.29811954498291 3.4633779525756836 0.1466519832611084 2458766 5 -1
3.253413677215576 3.489264726638794 0.366629958152771 2328718 5 -1
3.2513954639434814 3.48710036277771 0.4032929539680481 2264205 5 -1
3.026728391647339 3.7475569248199463 0.036912404000759125 3562893 5 -1
3.173628091812134 3.622492551803589 0.11073721200227737 3562893 5 -1
3.026017427444458 3.7466766834259033 0.11073721200227737 3432845 5 -1
3.171110153198242 3.6196186542510986 0.22147442400455475 3432845 5 -1
3.0139946937561035 3.731790781021118 0.4429488480091095 3238030 5 -1
2.9842820167541504 3.770078182220459 0.295299232006073 3107982 5 -1
3.062920093536377 3.716569423675537 0.11073721200227737 2977934 5 -1
3.026017427444458 3.7466766834259033 0.11073721200227737 2912910 5 -1
3.280474901199341 3.5182878971099854 0.2583868205547333 2458766 5 -1
3.315868854522705 3.4820168018341064 0.295299232006073 2328718 5 -1
3.3142075538635254 3.480272054672241 0.3322116434574127 2264205 5 -1
3.3102948665618896 3.476163387298584 0.40603646636009216 2199437 5 -1
2.9827866554260254 3.768188953399658 -0.3322116434574127 10016830 5 -1
3.157919406890869 3.6791858673095703 0.11148543655872345 3562893 5 -1
3.007896900177002 3.7999110221862793 0.18580906093120575 3432845 5 -1
3.156435012817383 3.6774563789367676 0.18580906093120575 3432845 5 -1
2.9707624912261963 3.829012632369995 -0.18580906093120575 3302798 5 -1
3.1212258338928223 3.7112960815429688 0.0743236243724823 3302798 5 -1
3.0400140285491943 3.7640066146850586 0.33445632457733154 3238030 5 -1
3.044046640396118 3.7689995765686035 0.2229708731174469 3107982 5 -1
3.08361554145813 3.7416813373565674 0.11148543655872345 2977934 5 -1
3.0840682983398438 3.7422308921813965 0.0743236243724823 2912910 5 -1
3.0472686290740967 3.77298903465271 0 2782862 5 -1
3.260625123977661 3.5709264278411865 0.3716181218624115 2523534 5 -1
3.3397486209869385 3.5070931911468506 0.26013270020484924 2328718 5 -1
3.2643024921417236 3.5009429454803467 0.7803980708122253 2264205 5 -1
3.0012571811676025 3.791522979736328 -0.3716181218624115 9360965 5 -1
2.9993956089019775 3.7891712188720703 -0.40877994894981384 10016830 5 -1
3.004446029663086 3.7955515384674072 -0.2972944974899292 10672695 5 -1
3.0343594551086426 3.757005453109741 -0.4459417462348938 11918891 5 -1
3.1791136264801025 3.703878402709961 -0.11223366111516953 4456788 5 -1
3.0280840396881104 3.825413703918457 -0.18705610930919647 4728182 5 -1
2.9897329807281494 3.853463888168335 0.22446732223033905 3887499 5 -1
3.1799538135528564 3.704857349395752 0 3887499 5 -1
2.9914915561676025 3.8557305335998535 0.1496448814868927 3562893 5 -1
2.987269401550293 3.8502883911132812 0.2992897629737854 3432845 5 -1
3.0246102809906006 3.8210251331329346 0.2992897629737854 3302798 5 -1
3.061951160430908 3.791167974472046 0.2992897629737854 3238030 5 -1
3.103672504425049 3.7660186290740967 0.1496448814868927 3107982 5 -1
3.1421735286712646 3.736204147338867 0.07482244074344635 2977934 5 -1
3.1043107509613037 3.7667932510375977 -0.11223366111516953 2912910 5 -1
3.2804722785949707 3.5926623344421387 0.4115234315395355 2523534 5 -1
2.9907004833221436 3.854710817337036 -0.18705610930919647 2666112 5 -1
2.9908206462860107 3.7783384323120117 0.7856356501579285 7589974 5 -1
3.0195257663726807 3.8146018981933594 -0.4115234315395355 9360965 5 -1
3.021399974822998 3.816969633102417 -0.37411221861839294 10016830 5 -1
3.021399974822998 3.816969633102417 -0.37411221861839294 10672695 5 -1
3.0174715518951416 3.812006950378418 -0.4489346444606781 11197490 5 -1
3.0195257663726807 3.8146018981933594 -0.4115234315395355 11918891 5 -1
3.2387189865112305 3.6967897415161133 -0.0376606285572052 4456788 5 -1
3.0497047901153564 3.8527276515960693 -0.1129818856716156 4456788 5 -1
3.0085134506225586 3.8776698112487793 0.2636243999004364 3562893 5 -1
3.0056777000427246 3.8740150928497314 0.3389456570148468 3432845 5 -1
3.002129316329956 3.869441509246826 0.4142669141292572 3302798 5 -1
3.1626570224761963 3.7605597972869873 0.1129818856716156 3107982 5 -1
3.200307607650757 3.7285709381103516 0.1129818856716156 2977934 5 -1
3.0504214763641357 3.853632688522339 0.0376606285572052 2264205 5 -1
3.009664535522461 3.8791537284851074 -0.2259637713432312 2666112 5 -1
2.997865676879883 3.8639461994171143 -0.4895881712436676 2994813 5 -1
3.0056777000427246 3.8740150928497314 -0.3389456570148468 10016830 5 -1
3.039655923843384 3.8400325775146484 -0.4142669141292572 10672695 5 -1
3.0975611209869385 3.835258960723877 -0.41701042652130127 4590430 5 -1
2.987762928009033 3.9287219047546387 0.3411903381347656 3692940 5 -1
3.025582790374756 3.8996706008911133 0.3411903381347656 3562893 5 -1
2.9187300205230713 3.9941532611846924 0.07582007348537445 3432845 5 -1
3.0674660205841064 3.8751654624938965 0.22746022045612335 3432845 5 -1
2.913583278656006 3.987110137939453 0.3032802939414978 3302798 5 -1
3.025582790374756 3.8996706008911133 0.3411903381347656 3302798 5 -1
2.952726364135742 3.9609315395355225 0.26537024974823 3107982 5 -1
2.982205629348755 3.921414375305176 0.4549204409122467 2977934 5 -1
3.2587316036224365 3.719632863998413 -0.1516401469707489 2977934 5 -1
3.030576467514038 3.906106948852539 -0.18955019116401672 2072968 5 -1
3.0649383068084717 3.87197208404541 -0.3032802939414978 2139270 5 -1
3.0649383068084717 3.87197208404541 -0.3032802939414978 2666112 5 -1
3.0199551582336426 3.8924171924591064 -0.4549204409122467 2994813 5 -1
3.028437376022339 3.9033498764038086 -0.26537024974823 5424489 5 -1
2.9892609119415283 3.9306912422180176 -0.3032802939414978 9360965 5 -1
3.025582790374756 3.8996706008911133 -0.3411903381347656 10016830 5 -1
3.06168532371521 3.8678624629974365 -0.37910038232803345 10672695 5 -1
3.181212902069092 3.7826240062713623 -0.610551118850708 4523353 5 -1
3.1841509342193604 3.7861170768737793 -0.5723916888237 4590430 5 -1
3.189451217651367 3.79241943359375 -0.49607279896736145 4657508 5 -1
3.189451217651367 3.79241943359375 -0.49607279896736145 4724328 5 -1
3.191814422607422 3.79522967338562 -0.457913339138031 4725613 5 -1
3.191814422607422 3.79522967338562 -0.457913339138031 4726897 5 -1
3.195969820022583 3.800170421600342 -0.3815944492816925 4729209 5 -1
3.2007791996002197 3.805889368057251 -0.26711612939834595 4664956 5 -1
3.159693717956543 3.8339953422546387 -0.34343501925468445 3887499 5 -1
2.959261178970337 3.969697952270508 0.5342322587966919 3692940 5 -1
2.9296388626098633 4.0090813636779785 0.3815944492816925 3562893 5 -1
3.012382984161377 3.9610955715179443 0.19079722464084625 3432845 5 -1
2.9340476989746094 4.015114784240723 0.26711612939834595 3302798 5 -1
2.9721522331237793 3.986990451812744 0.26711612939834595 3238030 5 -1
2.9721522331237793 3.986990451812744 0.26711612939834595 3107982 5 -1
3.010256767272949 3.9582996368408203 0.26711612939834595 2977934 5 -1
3.0131800174713135 3.9621434211730957 0.152637779712677 2718350 5 -1
3.2700345516204834 3.732534408569336 0.41975390911102295 2588302 5 -1
2.9764368534088135 3.9927380084991455 0 2070922 5 -1
3.0505144596099854 3.931804895401001 -0.19079722464084625 2072968 5 -1
3.083556652069092 3.8954927921295166 -0.34343501925468445 2139270 5 -1
3.0137996673583984 3.962958335876465 -0.11447833478450775 2666112 5 -1
3.0505144596099854 3.931804895401001 -0.19079722464084625 2994813 5 -1
2.847724199295044 4.055306434631348 -0.49607279896736145 6933851 5 -1
3.045487880706787 3.925326347351074 -0.34343501925468445 6933851 5 -1
2.9658453464508057 3.978529930114746 -0.41975390911102295 7589974 5 -1
3.010256767272949 3.9582996368408203 -0.26711612939834595 8180304 5 -1
3.048361301422119 3.929029703140259 -0.26711612939834595 10016830 5 -1
3.207726001739502 3.8141493797302246 -0.537723958492279 4456788 5 -1
3.195509195327759 3.7996227741241455 -0.6913593411445618 4523353 5 -1
3.2049622535705566 3.8108630180358887 -0.5761328339576721 4590430 5 -1
3.207726001739502 3.8141493797302246 -0.537723958492279 4657508 5 -1
3.207726001739502 3.8141493797302246 -0.537723958492279 4724328 5 -1
3.220276355743408 3.8290722370147705 -0.3072708249092102 4729209 5 -1
3.220276355743408 3.8290722370147705 -0.3072708249092102 4664956 5 -1
3.180345296859741 3.8590540885925293 -0.3456796705722809 3887499 5 -1
2.946957588195801 4.032781600952148 0.42249739170074463 3692940 5 -1
2.9870827198028564 4.00701904296875 0.38408854603767395 3562893 5 -1
3.0310909748077393 3.9856953620910645 0.23045311868190765 3432845 5 -1
2.9936909675598145 4.015883922576904 0.19204427301883698 3302798 5 -1
3.0328738689422607 3.98803973197937 0.1536354124546051 3238030 5 -1
2.992722749710083 4.014585018157959 0.23045311868190765 3107982 5 -1
3.281270980834961 3.7453601360321045 0.5761328339576721 2588302 5 -1
3.3059678077697754 3.6965396404266357 0.7297682166099548 2523534 5 -1
3.032071828842163 3.986984968185425 -0.19204427301883698 2134668 5 -1
2.9950990676879883 4.017772197723389 0.11522655934095383 2070155 5 -1
2.995802640914917 4.018716335296631 -0.038408853113651276 2070922 5 -1
3.0712647438049316 3.958549976348877 -0.1536354124546051 2072968 5 -1
3.0339431762695312 3.989445686340332 -0.07681770622730255 2139270 5 -1
3.7529261112213135 3.223562240600586 0.8065859079360962 6933851 0 -1
3.185594320297241 3.8654232025146484 -0.19204427301883698 9360965 5 -1
3.322169780731201 3.792043447494507 -0.1932913064956665 4456788 5 -1
3.556913375854492 3.5018041133880615 0.7345069646835327 4456788 0 -1
3.298076868057251 3.6119422912597656 -1.2370643615722656 4456788 0 -1
3.4389688968658447 3.6882715225219727 0.1546330451965332 4456788 5 -1
3.239563226699829 3.8520052433013916 -0.3479243516921997 4456788 5 -1
3.1744496822357178 3.851900100708008 -0.7345069646835327 4523353 5 -1
3.225773811340332 3.835608959197998 -0.5798739194869995 4590430 5 -1
3.222797393798828 3.8320698738098145 -0.6185321807861328 4657508 5 -1
3.222797393798828 3.8320698738098145 -0.6185321807861328 4724328 5 -1
3.242619514465332 3.8556394577026367 -0.2706078290939331 4729209 5 -1
3.239563226699829 3.8520052433013916 -0.3479243516921997 4664956 5 -1
3.006479501724243 4.03303861618042 0.386582612991333 3757452 5 -1
3.169605255126953 3.9244606494903564 -0.0773165225982666 3692940 5 -1
3.009673833847046 4.037323951721191 0.3092660903930664 3562893 5 -1
3.0131306648254395 4.041960716247559 0.1932913064956665 3302798 5 -1
3.0922977924346924 3.985659599304199 0.0773165225982666 3238030 5 -1
3.01454758644104 4.0438618659973145 0.1159747838973999 3107982 5 -1
3.2995307445526123 3.766202449798584 0.6185321807861328 2718350 5 -1
3.340979814529419 3.7356879711151123 0.5798739194869995 2588302 5 -1
3.3151373863220215 3.7067923545837402 0.8504817485809326 2523534 5 -1
3.0081658363342285 4.0353007316589355 -0.3479243516921997 2134668 5 -1
3.0149903297424316 4.044455528259277 0.0773165225982666 2070155 5 -1
3.015255928039551 4.044811725616455 0.0386582612991333 2070922 5 -1
3.164016008377075 3.9175403118133545 -0.3092660903930664 6933851 5 -1
3.380094528198242 3.779423713684082 0.2723536789417267 4456788 5 -1
3.497987747192383 3.6732609272003174 0.23344601690769196 4456788 5 -1
3.3807692527770996 3.550168991088867 -1.322860836982727 4456788 0 -1
3.176913261413574 3.933509111404419 -0.4668920338153839 4590430 5 -1
3.207935333251953 3.8925318717956543 -0.5836150646209717 4657508 5 -1
3.2107017040252686 3.8958888053894043 -0.5447073578834534 4724328 5 -1
3.2658448219299316 3.8832554817199707 -0.19453835487365723 4729209 5 -1
3.275545120239258 3.816227436065674 -0.7003380656242371 4664956 5 -1
3.0197043418884277 4.050779342651367 0.5057997107505798 3887499 5 -1
3.025876045227051 4.05905818939209 0.38907670974731445 3757452 5 -1
3.2198424339294434 3.906980276107788 -0.38907670974731445 3692940 5 -1
3.2178452014923096 3.9045567512512207 -0.427984356880188 2912910 5 -1
3.3238847255706787 3.7940011024475098 0.5836150646209717 2718350 5 -1
3.0733449459075928 4.041256904602051 0.07781533896923065 2523534 5 -1
3.0584185123443604 4.021629333496094 -0.5057997107505798 2134668 5 -1
2.992722749710083 4.095408916473389 0.23344601690769196 2070922 5 -1
3.025062084197998 4.057966709136963 -0.7048274278640747 4456788 5 -1
3.233873128890991 3.9240050315856934 -0.5090420246124268 4724328 5 -1
2.989405632019043 4.090869426727295 0.6656703352928162 3757452 5 -1
2.9066386222839355 4.057614803314209 1.0963982343673706 3692940 5 -1
3.1766703128814697 3.9332082271575928 0.7439844608306885 3692940 5 -1
3.362661123275757 3.838261842727661 -0.27409955859184265 3562893 5 -1
3.189601421356201 3.949218988418579 -0.5873561501502991 3651704 5 -1
3.233873128890991 3.9240050315856934 -0.5090420246124268 8705099 5 -1
3.178403377532959 4.015314102172852 -0.4728778302669525 4728182 5 -1
3.3889577388763428 3.8682777881622314 0 3562893 5 -1
3.189581871032715 4.029435634613037 -0.19703243672847748 2070922 5 -1
3.1328134536743164 3.957719564437866 0.9851621389389038 3651704 5 -1
3.3840794563293457 3.8627092838287354 0.27584540843963623 3651704 5 -1
3.256882667541504 3.9519248008728027 -0.4728778302669525 8705099 5 -1
3.3644120693206787 3.9197635650634766 0.3172471523284912 3562893 5 -1
3.213372230529785 3.9786508083343506 0.793117880821228 3107982 5 -1
3.1573455333709717 3.98871111869812 0.9517414569854736 2977934 5 -1
3.338536262512207 3.8896164894104004 0.7138060927391052 2782862 5 -1
3.338536262512207 3.8896164894104004 0.7138060927391052 2782862 5 -1
3.2493958473205566 4.023253917694092 -0.198279470205307 2458766 5 -1
3.1909244060516357 4.112779140472412 -0.1596212089061737 3562893 5 -1
3.111438274383545 4.091346740722656 0.8380113840103149 3432845 5 -1
3.213677406311035 4.059875965118408 0.5586742162704468 3238030 5 -1
3.190208911895752 4.0302276611328125 0.8380113840103149 3107982 5 -1
3.181736946105957 4.019525051116943 0.9178219437599182 2977934 5 -1
3.1860721111297607 4.025001525878906 0.8779166340827942 2912910 5 -1
3.1347508430480957 4.122001647949219 0.803094208240509 3432845 5 -1
3.2248189449310303 4.073951244354248 0.6826300621032715 3238030 5 -1
3.2576045989990234 4.033417224884033 0.7629395127296448 2977934 5 -1
3.2455649375915527 4.018510341644287 0.8834036588668823 2912910 5 -1
3.2973315715789795 4.001006126403809 0.7629395127296448 2782862 5 -1
3.2455649375915527 4.018510341644287 0.8834036588668823 2718350 5 -1
3.2455649375915527 4.018510341644287 0.8834036588668823 2718350 5 -1
3.194148302078247 4.116934299468994 0.8080824017524719 3107982 5 -1
3.35778546333313 3.99257755279541 0.7676782608032227 3107982 5 -1
3.2740018367767334 4.053719520568848 0.8080824017524719 2977934 5 -1
3.3055496215820312 4.010977745056152 0.8888906240463257 2912910 5 -1
3.2359862327575684 4.006650447845459 1.1313153505325317 2782862 5 -1
3.3249688148498535 4.034541130065918 0.6868700385093689 2718350 5 -1
-4.53390645980835 2.711966037750244 -0.487842321395874 4456788 0 -1
3.3051860332489014 4.092330455780029 0.6911099553108215 3107982 5 -1
3.3343851566314697 4.045967102050781 0.81307053565979 2977934 5 -1
3.2458107471466064 4.100470542907715 0.894377589225769 2912910 5 -1
3.301729679107666 4.088050842285156 0.731763482093811 2782862 5 -1
-4.537346363067627 2.7140235900878906 -0.7362528443336487 4456788 0 -1
3.3507039546966553 4.065768241882324 0.8589616417884827 2977934 5 -1
3.2740018367767334 4.13608455657959 0.8180587291717529 2912910 5 -1
3.4537086486816406 4.023799896240234 0.6135440468788147 2912910 5 -1
3.3992395401000977 4.041868686676025 0.7771557569503784 2782862 5 -1
-4.533451080322266 2.8032748699188232 -0.6584374904632568 4456788 0 -1
3.2233352661132812 4.238484859466553 0.6995898485183716 3757452 5 -1
3.352389335632324 4.067813396453857 1.02880859375 3238030 5 -1
3.4805517196655273 4.0550737380981445 0.5349804759025574 2912910 5 -1
3.2532989978790283 4.193173885345459 0.823046863079071 2782862 5 -1
3.4273438453674316 4.075285911560059 0.6995898485183716 2782862 5 -1
-4.5792412757873535 2.8315892219543457 -0.45541927218437195 4456788 0 -1
-4.616623401641846 2.8547046184539795 0.2915581166744232 4456788 0 -1
-4.646045207977295 2.8728976249694824 0.25140342116355896 4456788 0 -1
-4.673700332641602 2.889998197555542 0.2528998553752899 4456788 0 -1
-4.697481155395508 2.904703140258789 0.3391950726509094 4456788 0 -1
-4.646534442901611 3.0595059394836426 0.1705951690673828 4456788 0 -1
-4.623891353607178 3.5978384017944336 -0.04489346593618393 4456788 0 -1
-4.3925933837890625 4.045236587524414 -0.4589109718799591 4456788 0 -1
-4.541084289550781 3.900547742843628 -0.18356439471244812 4456788 0 -1
-4.405027866363525 4.05668830871582 -0.09178219735622406 4523353 0 -1
-4.511004447937012 3.967209577560425 -0.4152645468711853 4456788 0 -1
-4.515260696411133 3.9709525108337402 -0.3229835331439972 4456788 0 -1
-4.566702842712402 3.922553062438965 -0.13842152059078217 4456788 0 -1
-4.5196452140808105 3.97480845451355 -0.18456202745437622 4523353 0 -1
-4.518449783325195 3.973757266998291 -0.23070253431797028 4590430 0 -1
-4.4750542640686035 3.9355928897857666 1.0669680833816528 4456788 0 -1
-4.432550430297852 3.8982131481170654 1.345307469367981 4456788 0 -1
-4.354374885559082 4.193732738494873 0.32472941279411316 4456788 0 -1
-4.590444087982178 3.9429450035095215 -0.18555966019630432 4456788 0 -1
-4.590444087982178 3.9429450035095215 -0.18555966019630432 4456788 0 -1
-4.545010089874268 3.9971158504486084 -0.13916973769664764 4523353 0 -1
-4.545010089874268 3.9971158504486084 -0.13916973769664764 4590430 0 -1
-4.452403545379639 3.824375867843628 1.4844772815704346 4657508 0 -1
-4.298247337341309 4.139675617218018 1.020578145980835 4657508 0 -1
-4.477780818939209 3.8461735248565674 1.345307469367981 4724328 0 -1
-5.685655117034912 2.0165202617645264 0.5102890729904175 4147337 0 -1
-5.349946022033691 2.643846035003662 1.020578145980835 4147337 0 -1
-2.2581772804260254 5.319087028503418 -1.9122122526168823 4456788 0 -1
-1.239783525466919 5.644021987915039 -1.9122122526168823 4456788 0 -1
-2.5099968910217285 5.16977071762085 -2.005490779876709 4456788 0 -1
-4.608840465545654 3.8648550510406494 0.9327864646911621 4456788 0 -1
-4.661741256713867 3.9092161655426025 -0.18655729293823242 4456788 0 -1
-4.428654193878174 4.171429634094238 -0.18655729293823242 4456788 0 -1
-4.612410545349121 3.96181321144104 -0.27983593940734863 4456788 0 -1
-4.428654193878174 4.171429634094238 -0.18655729293823242 4456788 0 -1
-4.663795471191406 3.9109387397766113 -0.046639323234558105 4523353 0 -1
-4.430215358734131 4.172900199890137 -0.09327864646911621 4523353 0 -1
-4.663795471191406 3.9109387397766113 0.046639323234558105 4590430 0 -1
-4.430605411529541 4.173267841339111 0.046639323234558105 4590430 0 -1
-4.3039231300354 4.053943157196045 1.4458190202713013 4657508 0 -1
-2.9375369548797607 5.011084079742432 -1.8189336061477661 5949540 0 -1
-1.6825114488601685 5.691080093383789 -1.352540373802185 5949540 0 -1
-2.744771718978882 5.083995342254639 -2.0162153244018555 4456788 0 -1
-2.509819507598877 5.400742053985596 -1.406661868095398 4456788 0 -1
-1.5030419826507568 5.7509965896606445 -1.4535506963729858 4456788 0 -1
-1.2904936075210571 5.874876022338867 -1.1253294944763184 4456788 0 -1
-1.2838448286056519 5.633162975311279 -2.0162153244018555 4456788 0 -1
-2.2534759044647217 5.433086395263672 -1.687994360923767 4456788 0 -1
-2.246426582336426 5.679680347442627 -0.37510985136032104 4456788 4 -1
-4.6353020668029785 3.981475830078125 -0.3282211124897003 4456788 0 -1
-4.397047519683838 4.2348313331604 -0.4219985902309418 4456788 0 -1
-4.639803409576416 3.985342264175415 -0.18755492568016052 4456788 0 -1
-4.453906536102295 4.195215225219727 -0.09377746284008026 4456788 0 -1
-4.6407575607299805 3.986161947250366 -0.1406661868095398 4523353 0 -1
-4.454298496246338 4.195584774017334 -0.04688873142004013 4523353 0 -1
-4.406375885009766 4.2438154220581055 0.1406661868095398 4590430 0 -1
-1.3452856540679932 5.902748107910156 0.8908858895301819 11197490 0 -1
-2.234707832336426 5.516488552093506 -1.5555585622787476 4456788 0 -1
-2.260969400405884 5.71644926071167 -0.23569069802761078 4456788 4 -1
-3.595318078994751 4.72761869430542 1.6026967763900757 4456788 0 -1
-2.3207807540893555 5.342255115509033 1.9798017740249634 4456788 0 -1
-4.228069305419922 3.9824953079223633 2.026939868927002 4456788 0 -1
-2.282485008239746 5.63442850112915 -0.9427627921104431 3651704 4 -1
-2.302978277206421 5.685017108917236 0.47138139605522156 10016830 0 -1
-2.2743351459503174 5.750241756439209 0.09477509558200836 4456788 4 -1
-2.2743351459503174 5.750241756439209 -0.09477509558200836 4456788 4 -1
-2.273533582687378 5.748215675354004 -0.18955019116401672 4456788 4 -1
-2.274001121520996 5.7493977546691895 -0.14216263592243195 4456788 4 -1
-2.143096446990967 5.834144115447998 0.14291086792945862 4456788 4 -1
-2.3339366912841797 5.761439323425293 -0.09527391195297241 4456788 4 -1
-2.3335940837860107 5.760593414306641 0.14291086792945862 4456788 4 -1
-2.143411159515381 5.835000991821289 0.09527391195297241 4456788 4 -1
-2.2388710975646973 5.799630165100098 0.047636955976486206 4456788 4 -1
-2.2865066528320312 5.781015396118164 0.047636955976486206 4456788 4 -1
-2.2386739253997803 5.799119472503662 0.09527391195297241 4456788 4 -1
-2.2859697341918945 5.77965784072876 -0.14291086792945862 4456788 4 -1
-2.2854995727539062 5.778469085693359 -0.19054782390594482 4456788 4 -1
-2.2859697341918945 5.77965784072876 -0.14291086792945862 4456788 4 -1
-2.2832822799682617 5.772863388061523 -0.33345869183540344 4456788 4 -1
-2.237293004989624 5.795542240142822 -0.23818477988243103 4456788 4 -1
-2.281130075454712 5.767422199249268 -0.42873260378837585 4456788 4 -1
-2.2784371376037598 5.760613441467285 -0.5240064859390259 4456788 4 -1
-2.36155366897583 5.693660259246826 -0.8098282217979431 4045940 4 -1
-2.1546332836151123 5.865550518035889 -0.09577272832393646 4456788 4 -1
-2.154823064804077 5.866067409515381 -0.04788636416196823 4456788 4 -1
-2.2505929470062256 5.8299946784973145 0.04788636416196823 4456788 4 -1
-2.2982754707336426 5.8107709884643555 0.09577272832393646 4456788 4 -1
-2.2500643730163574 5.828625202178955 0.1436590850353241 4456788 4 -1
-2.250394821166992 5.82948112487793 0.09577272832393646 4456788 4 -1
-2.2025139331817627 5.8477396965026855 0.09577272832393646 4456788 4 -1
-2.2025139331817627 5.8477396965026855 0.09577272832393646 4456788 4 -1
-2.296114921569824 5.8053083419799805 -0.2873181700706482 4456788 4 -1
-2.2968578338623047 5.807186603546143 -0.23943181335926056 4456788 4 -1
-2.2968578338623047 5.807186603546143 -0.23943181335926056 4456788 4 -1
-2.294222831726074 5.8005242347717285 -0.38309091329574585 4456788 4 -1
-2.2833125591278076 5.772940158843994 -0.7182954549789429 4456788 4 -1
-2.276577949523926 5.7559123039245605 -0.8619545102119446 4456788 4 -1
-2.2833125591278076 5.772940158843994 -0.7182954549789429 4456788 4 -1
-2.3660356998443604 5.704466342926025 -0.9577272534370422 2458766 4 -1
-2.3714354038238525 5.717484474182129 -0.8619545102119446 2328718 4 -1
-2.1658554077148438 5.8961005210876465 -0.09627154469490051 4456788 4 -1
-2.213205099105835 5.876125335693359 -0.19254308938980103 4456788 4 -1
-2.214245557785034 5.878887176513672 0 4456788 4 -1
-2.2139854431152344 5.878196716308594 -0.09627154469490051 4456788 4 -1
-2.213660478591919 5.877333641052246 0.14440731704235077 4456788 4 -1
-2.262314796447754 5.860359191894531 0.048135772347450256 4456788 4 -1
-2.213660478591919 5.877333641052246 0.14440731704235077 4456788 4 -1
-2.2971842288970947 5.808011531829834 -0.6739007830619812 4456788 4 -1
-2.3071911334991455 5.833312034606934 -0.3369503915309906 4456788 4 -1
-2.2473881244659424 5.821692943572998 -0.722036600112915 4456788 4 -1
-2.2952048778533936 5.803007125854492 -0.722036600112915 4456788 4 -1
-2.35025954246521 5.801733493804932 -0.529493510723114 2458766 4 -1
-2.177269220352173 5.9271721839904785 -0.04838518053293228 4456788 4 -1
-2.225456953048706 5.908653736114502 -0.09677036106586456 4456788 4 -1
-2.225130081176758 5.907785892486572 -0.14515553414821625 4456788 4 -1
-2.319145441055298 5.863536357879639 0.33869627118110657 4456788 4 -1
-2.177077293395996 5.926650047302246 0.09677036106586456 4456788 4 -1
-2.173238515853882 5.916199207305908 0.38708144426345825 4456788 4 -1
-2.2735025882720947 5.889339923858643 0.14515553414821625 4456788 4 -1
-2.1609079837799072 5.882632255554199 0.7741628885269165 4456788 4 -1
-2.1884922981262207 5.957724571228027 -0.04863458871841431 4456788 4 -1
-2.2369282245635986 5.93911075592041 -0.09726917743682861 4456788 4 -1
-2.1879780292510986 5.956325054168701 -0.14590376615524292 4456788 4 -1
-2.3300700187683105 5.891157627105713 0.38907670974731445 4456788 4 -1
-2.0912258625030518 5.992558002471924 0.04863458871841431 4456788 4 -1
-2.2260642051696777 5.910265922546387 0.632249653339386 4456788 4 -1
-2.3333635330200195 5.899484157562256 -0.19453835487365723 4456788 4 -1
-2.3882737159729004 5.895573139190674 0.4888399541378021 4456788 4 -1
-2.3439507484436035 5.926252365112305 0.2933039665222168 4456788 4 -1
-2.3918676376342773 5.904445171356201 0.3421879708766937 4456788 4 -1
-2.1997151374816895 5.988276958465576 0.04888399690389633 4456788 4 -1
-2.4441280364990234 5.892745018005371 0.04888399690389633 4456788 4 -1
-2.2470128536224365 5.965885639190674 -0.24441997706890106 4456788 4 -1
-2.3927829265594482 5.906704425811768 0.2933039665222168 4456788 4 -1
-2.3408455848693848 5.918401718139648 0.4399559497833252 4456788 4 -1
-2.2779719829559326 5.900918006896973 0.8310279250144958 4456788 4 -1
-2.1014564037323 6.02187442779541 0.1466519832611084 4456788 4 -1
-2.050956964492798 6.033916473388672 0.2933039665222168 4456788 4 -1
-2.0516204833984375 6.0358686447143555 0.24441997706890106 4456788 4 -1
-2.1432418823242188 5.984811305999756 0.537723958492279 4456788 4 -1
-2.3447091579437256 5.9281697273254395 0.24441997706890106 4456788 4 -1
-2.400458812713623 5.925652503967285 0.49133405089378357 4456788 4 -1
-2.400458812713623 5.925652503967285 0.49133405089378357 4456788 4 -1
-2.4018051624298096 5.928976535797119 0.442200630903244 4456788 4 -1
-2.4030091762542725 5.931948661804199 0.39306724071502686 4456788 4 -1
-2.400458812713623 5.925652503967285 0.49133405089378357 4456788 4 -1
-2.3527886867523193 5.948597431182861 0.442200630903244 4456788 4 -1
-2.204502820968628 6.001310348510742 0.49133405089378357 4456788 4 -1
-2.1096951961517334 6.045483112335205 0.3439338207244873 4456788 4 -1
-2.1077065467834473 6.039784908294678 0.442200630903244 4456788 4 -1
-2.111185312271118 6.049753189086914 0.24566702544689178 4456788 4 -1
-2.1087632179260254 6.042812824249268 0.39306724071502686 4456788 4 -1
-2.0614209175109863 6.064701557159424 0.29480043053627014 4456788 4 -1
-2.111185312271118 6.049753189086914 0.24566702544689178 4456788 4 -1
-2.3527886867523193 5.948597431182861 0.442200630903244 4456788 4 -1
-2.1105024814605713 6.047796249389648 0.29480043053627014 4456788 4 -1
-2.413997173309326 5.959072589874268 0.44444531202316284 4456788 4 -1
-2.4152071475982666 5.96205997467041 0.39506250619888306 4456788 4 -1
-2.411147117614746 5.952037334442139 0.5432109236717224 4456788 4 -1
-2.413997173309326 5.959072589874268 0.44444531202316284 4456788 4 -1
-2.4152071475982666 5.96205997467041 0.39506250619888306 4456788 4 -1
-2.363406181335449 5.975441932678223 0.4938281178474426 4456788 4 -1
-2.26352596282959 6.009727954864502 0.5432109236717224 4456788 4 -1
-2.2111740112304688 6.019471168518066 0.641976535320282 4456788 4 -1
-2.1194674968719482 6.073486804962158 0.39506250619888306 4456788 4 -1
-2.0725553035736084 6.097459316253662 0.2469140589237213 4456788 4 -1
-2.1194674968719482 6.073486804962158 0.39506250619888306 4456788 4 -1
-2.1194674968719482 6.073486804962158 0.39506250619888306 4456788 4 -1
-2.0691404342651367 6.087412357330322 0.44444531202316284 4456788 4 -1
-2.1204042434692383 6.076170921325684 0.3456796705722809 4456788 4 -1
-2.1204042434692383 6.076170921325684 0.3456796705722809 4456788 4 -1
-2.0679802894592285 6.0839996337890625 0.4938281178474426 4456788 4 -1
-2.4261889457702637 5.989169120788574 0.44668999314308167 4456788 4 -1
-2.4216761589050293 5.978028774261475 0.5955866575241089 4456788 4 -1
-2.375342607498169 6.005620956420898 0.4963222146034241 4456788 4 -1
-2.4284780025482178 5.994819641113281 0.34742555022239685 4456788 4 -1
-2.42740535736084 5.992171287536621 0.39705777168273926 4456788 4 -1
-2.375342607498169 6.005620956420898 0.4963222146034241 4456788 4 -1
-2.12791109085083 6.097681999206543 0.4963222146034241 4456788 4 -1
-2.13017201423645 6.104161262512207 0.39705777168273926 4456788 4 -1
-2.13017201423645 6.104161262512207 0.39705777168273926 4456788 4 -1
-2.1806740760803223 6.08933687210083 0.34742555022239685 4456788 4 -1
-1.979452133178711 6.14747953414917 0.4963222146034241 4456788 4 -1
-2.13017201423645 6.104161262512207 0.39705777168273926 4456788 4 -1
-2.0771355628967285 6.110933780670166 0.5459544062614441 4456788 4 -1
-2.13017201423645 6.104161262512207 0.39705777168273926 4456788 4 -1
-2.13017201423645 6.104161262512207 0.39705777168273926 4456788 4 -1
-2.3857979774475098 6.032055854797363 0.5486978888511658 4456788 4 -1
-2.388617992401123 6.039185523986816 0.4489346444606781 4456788 4 -1
-2.235164165496826 6.084779739379883 0.5985795259475708 4456788 4 -1
-2.182126522064209 6.093392848968506 0.6983428001403809 4456788 4 -1
-2.1358234882354736 6.12035608291626 0.5985795259475708 4456788 4 -1
-2.141822338104248 6.137546062469482 0.34917140007019043 4456788 4 -1
-2.139803647994995 6.131761074066162 0.4489346444606781 4456788 4 -1
-2.140876293182373 6.134835243225098 0.39905303716659546 4456788 4 -1
-2.138604164123535 6.128324031829834 0.49881628155708313 4456788 4 -1
-2.0233569145202637 6.114457607269287 0.9477509260177612 4456788 4 -1
-2.088869094848633 6.145453929901123 0.49881628155708313 4456788 4 -1
-2.0934903621673584 6.1590495109558105 0.24940814077854156 4456788 4 -1
-2.142642021179199 6.139894962310791 0.2992897629737854 4456788 4 -1
-2.193037271499634 6.123859882354736 0.701834499835968 4456788 4 -1
-2.1004910469055176 6.179645538330078 0.4511793255805969 4456788 4 -1
-2.1032772064208984 6.187842845916748 0.30078622698783875 4456788 4 -1
-2.0515072345733643 6.199526309967041 0.40104830265045166 4456788 4 -1
-2.2500176429748535 6.125214576721191 -0.8060871362686157 4456788 4 -1
-2.3041272163391113 6.117526054382324 -0.7053261995315552 4456788 4 -1
-2.254037618637085 6.136158466339111 -0.7053261995315552 4456788 4 -1
-2.2500176429748535 6.125214576721191 -0.8060871362686157 4456788 4 -1
-2.2558443546295166 6.141077041625977 -0.6549457907676697 4456788 4 -1
-2.245452880859375 6.112788200378418 -0.9068480134010315 4456788 4 -1
-2.110941171646118 6.210390090942383 0.45342400670051575 4456788 4 -1
-2.0640816688537598 6.237525463104248 0.2519022226333618 4456788 4 -1
-2.2651960849761963 6.166535377502441 -0.7088179588317871 4456788 4 -1
-2.2651960849761963 6.166535377502441 -0.7088179588317871 4456788 4 -1
-2.263244390487671 6.161222457885742 -0.7594478130340576 4456788 4 -1
-2.2589311599731445 6.14948034286499 -0.8607075214385986 4456788 4 -1
-4.46148681640625 4.98857307434082 -0.41102463006973267 4456788 0 -1
-5.30763053894043 4.129854679107666 -0.41301989555358887 4456788 0 -1
-4.406469821929932 5.029702663421631 -0.8260397911071777 4456788 0 -1
-5.387430667877197 4.084192752838135 0.36313825845718384 4456788 0 -1
-5.392662048339844 4.088159084320068 -0.20750758051872253 4456788 0 -1
-5.392662048339844 4.088159084320068 -0.20750758051872253 4456788 0 -1
-5.395038604736328 4.08996057510376 -0.051876895129680634 4523353 0 -1
-5.395038604736328 4.08996057510376 -0.051876895129680634 4590430 0 -1
-5.668240070343018 3.7322473526000977 -0.46913671493530273 4456788 0 -1
-5.420976161956787 4.109623432159424 -0.05212630331516266 4456788 0 -1
-5.4171552658081055 4.106727123260498 -0.2606315016746521 4456788 0 -1
-5.418588638305664 4.107813358306885 -0.20850521326065063 4456788 0 -1
-5.419703006744385 4.108658313751221 -0.15637890994548798 4523353 0 -1
-5.420498847961426 4.109261512756348 -0.10425260663032532 4590430 0 -1
-5.420976161956787 4.109623432159424 -0.05212630331516266 4657508 0 -1
-5.027074337005615 4.524894714355469 0.7297682166099548 4147337 0 -1
-5.236186981201172 4.390931606292725 0.15712712705135345 4456788 0 -1
-5.441314220428467 4.125041961669922 -0.3142542541027069 4456788 0 -1
-5.441314220428467 4.125041961669922 -0.3142542541027069 4456788 0 -1
-5.445634365081787 4.128316879272461 -0.15712712705135345 4456788 0 -1
-5.445634365081787 4.128316879272461 -0.15712712705135345 4523353 0 -1
-5.446913719177246 4.129286766052246 -0.052375711500644684 4590430 0 -1
-5.498803615570068 4.05891752243042 0.10475142300128937 4657508 0 -1
-4.375392913818359 4.994229793548584 1.6236469745635986 4147337 0 -1
-5.525475025177002 4.078604698181152 0.05262511968612671 4456788 0 -1
-5.521580696105957 4.075729846954346 -0.26312559843063354 4456788 0 -1
-5.524177074432373 4.077646732330322 -0.15787535905838013 4456788 0 -1
-5.524177074432373 4.077646732330322 -0.15787535905838013 4523353 0 -1
-5.524988651275635 4.078245639801025 -0.10525023937225342 4590430 0 -1
-5.525475025177002 4.078604698181152 0.05262511968612671 4657508 0 -1
-5.547749042510986 4.095046043395996 -0.2643726170063019 4456788 0 -1
-5.5492167472839355 4.096129417419434 -0.21149811148643494 4456788 0 -1
-5.5492167472839355 4.096129417419434 -0.21149811148643494 4523353 0 -1
-4.502258777618408 5.2454304695129395 -0.5312393307685852 4456788 0 -1
-5.899221420288086 4.708559036254883 -0.23145075142383575 4523353 0 -1
-6.100391387939453 4.016797065734863 -2.1593756675720215 4456788 0 -1
-6.53402042388916 3.9083385467529297 -1.2413042783737183 4456788 0 -1
-2.2726542949676514 7.0580620765686035 2.1279501914978027 4456788 0 -1
-6.580615520477295 3.9362096786499023 -1.3113880157470703 4456788 0 -1
-5.431471347808838 5.703625679016113 -0.12071353942155838 4456788 0 -1
-4.597955226898193 6.292098522186279 -1.1467785835266113 4456788 0 -1
-3.862720012664795 6.86458683013916 0.06035676971077919 4456788 0 -1
-4.472424030303955 6.627809047698975 -0.42948082089424133 4456788 0 -1
-5.025913715362549 6.098479747772217 -1.4784914255142212 4456788 0 -1
-4.707709789276123 6.442293167114258 -0.985660970211029 4456788 0 -1
-4.493776321411133 6.659451961517334 -0.3080190420150757 4456788 0 -1
-4.89553689956665 6.309852600097656 -1.1752111911773682 4456788 0 -1
-4.453300952911377 6.732452869415283 -0.06185321882367134 4456788 0 -1
-4.471389293670654 6.759798526763916 0 4456788 0 -1
-4.496573448181152 6.7978715896606445 -0.5634129643440247 4456788 0 -1
-4.693844795227051 6.684277534484863 -0.7542102336883545 4456788 0 -1
-4.520476341247559 6.83400821685791 -0.37710511684417725 4456788 0 -1
-6.742861747741699 5.381924152374268 -0.7297682166099548 4456788 0 -1
-4.009176731109619 7.582839012145996 -1.398431420326233 4456788 0 -1
-7.0121259689331055 4.757019996643066 -1.9311672449111938 4456788 0 -1
-6.817344665527344 5.032192230224609 -1.9311672449111938 4456788 0 -1
-5.681203365325928 6.221861839294434 -2.1309430599212646 4456788 0 -1
-5.359416961669922 6.6357855796813965 -1.6647993326187134 4456788 0 -1
-4.721224308013916 7.2815728187561035 -0.46614381670951843 4456788 0 -1
-4.455239772796631 7.447288513183594 -0.46614381670951843 4456788 0 -1
-5.534325122833252 6.580594062805176 -1.4705103635787964 4456788 0 -1
-5.782322883605957 6.072057247161865 -2.40628981590271 4456788 0 -1
-5.460999965667725 6.6264166831970215 -1.5373517274856567 4456788 0 -1
-3.5855143070220947 7.888865947723389 -1.0026206970214844 4456788 0 -1
-6.8428778648376465 5.051039695739746 -1.9384000301361084 4456788 0 -1
-4.4750847816467285 7.4804606437683105 -0.3342069089412689 4456788 0 -1
-4.4513397216796875 8.244979858398438 0.2873181700706482 4456788 0 -1
-4.466795444488525 8.273609161376953 -0.2883158028125763 4456788 0 -1
-4.468400955200195 8.276582717895508 -0.7956119775772095 4456788 0 -1
-4.927402019500732 7.753314018249512 -2.1698508262634277 4590430 0 -1
-4.458103656768799 8.087833404541016 -1.952865719795227 4590430 0 -1
-4.912804126739502 7.577047824859619 -2.7484776973724365 4657508 0 -1
-4.637044429779053 7.910238742828369 -2.2421791553497314 4657508 0 -1
-4.411489963531494 8.343761444091797 -0.7983554601669312 4456788 0 -1
-4.4391961097717285 8.396164894104004 -0.36413589119911194 4456788 0 -1
-4.403806209564209 9.07039737701416 -0.386582612991333 4456788 0 -1
-5.210610389709473 8.365283966064453 -2.164862632751465 4523353 0 -1
-4.757462978363037 8.811996459960938 -1.2370643615722656 4523353 0 -1
-5.2988691329956055 8.010773658752441 -3.092660903930664 4657508 0 -1
-4.899928569793701 8.531025886535645 -2.2421791553497314 4657508 0 -1
-4.8568196296691895 8.63123893737793 -2.094280242919922 4456788 0 -1
-4.416583061218262 9.096713066101074 -0.46539559960365295 4456788 0 -1
-4.781336784362793 8.856217384338379 -1.0859230756759644 4523353 0 -1
-4.352056503295898 8.963809967041016 -1.784016489982605 4523353 0 -1
-5.329551696777344 8.057159423828125 -3.025071382522583 4657508 0 -1
-5.3170061111450195 8.200450897216797 -2.6372416019439697 4729209 0 -1
-4.430784225463867 9.12596321105957 -0.4668920338153839 4456788 0 -1
-3.2502918243408203 9.313944816589355 -2.412275552749634 4657508 0 -1
-3.879910469055176 9.354388236999512 -1.9765595197677612 4456788 0 -1
-4.425413131713867 9.315620422363281 -0.3162495195865631 4456788 0 -1
-4.574701309204102 9.22121810913086 -0.7115614414215088 4523353 0 -1
-3.755793809890747 9.27136516571045 -2.529996156692505 4726897 0 -1
-3.8664448261260986 9.32192325592041 -2.300041913986206 4456788 0 -1
-4.438199520111084 9.342535018920898 -0.396558940410614 4456788 0 -1
-3.764812469482422 9.076889991760254 -3.2517833709716797 4729209 0 -1
-4.4490132331848145 9.365299224853516 -0.5569283962249756 4456788 0 -1
-4.687521934509277 9.448630332946777 -0.8105764389038086 4523353 0 -1
-5.755904674530029 8.19670581817627 -3.404421091079712 4657508 0 -1
-5.4921135902404785 8.47052001953125 -3.161248207092285 4657508 0 -1
-3.6937782764434814 9.339045524597168 -3.3233635425567627 4657508 0 -1
-4.384260654449463 9.646271705627441 -0.569149374961853 4456788 0 -1
-5.44488525390625 8.567578315734863 -3.089668035507202 4657508 0 -1
-3.705143928527832 9.367780685424805 -3.3335893154144287 4657508 0 -1
-3.1168949604034424 9.953559875488281 -1.951369285583496 4657508 0 -1
-4.38047981262207 10.318123817443848 -1.3847140073776245 4456788 0 -1
-4.384191036224365 10.326866149902344 -1.5622925758361816 4456788 0 -1
-4.458407402038574 10.501681327819824 -1.0534999370574951 4456788 0 -1
-4.471073627471924 10.531515121459961 -1.0564929246902466 4456788 0 -1
-4.453777313232422 10.737970352172852 -0.8035930395126343 4456788 0 -1
5.3571295738220215 10.34790325164795 0.08928811550140381 8705099 6 -1
5.3571295738220215 10.34790325164795 -0.08928811550140381 12640037 6 -1
5.356657981872559 10.346991539001465 -0.17857623100280762 13164576 6 -1
