VERSION .7
FIELDS x y z rgb label object
SIZE 4 4 4 4 4 4
TYPE F F F I I I
COUNT 1 1 1 1 1 1
WIDTH 680
HEIGHT 1
POINTS 680
VIEWPOINT 0 0 0 1 0 0 0
DATA ascii
-1.0320439338684082 0.36603304743766785 0.3142542541027069 4456788 0 -1
1.1310163736343384 0.305203914642334 -0.026936078444123268 4456788 0 -1
1.131282091140747 0.3052756190299988 0.008978692814707756 4456788 0 -1
1.1529706716537476 0.345991849899292 0.036912404000759125 4456788 0 -1
1.1532078981399536 0.3460630178451538 0.027684303000569344 4456788 0 -1
-1.2349921464920044 0.29222729802131653 0.029180752113461494 4456788 0 -1
-0.02483515813946724 1.6203901767730713 -0.1496448814868927 4523353 0 -1
0.07384742796421051 1.6045688390731812 -0.2618785500526428 4657508 0 -1
1.083363652229309 1.2113537788391113 0.08729285001754761 4657508 0 -1
-0.025412730872631073 1.6580744981765747 -0.0763188898563385 4523353 0 -1
-1.441595435142517 0.8622934818267822 -0.20750758051872253 4456788 0 -1
-0.2580944001674652 1.664262056350708 0.1685999035835266 4456788 0 -1
0.5254570841789246 1.5878983736038208 -0.2593844532966614 4456788 0 -1
0.2422126978635788 1.645981788635254 0.3112613558769226 4590430 0 -1
-0.02519606053829193 1.643937587738037 -0.40204593539237976 4657508 0 -1
0.025600440800189972 1.6703218221664429 0.2723536789417267 4724328 0 -1
0.2651447653770447 1.7097246646881104 0.30976492166519165 4456788 0 -1
0.6739479303359985 1.5165164470672607 -0.579125702381134 4456788 0 -1
1.6402605772018433 0.3881230354309082 -0.4983174800872803 4456788 0 -1
0.7905996441841125 1.5271328687667847 -0.3636370599269867 4523353 0 -1
1.4639846086502075 0.9346701502799988 0.2693607807159424 4523353 0 -1
-1.62297785282135 0.32278475165367126 -0.5925937294960022 4590430 0 -1
-0.6851863861083984 1.5772451162338257 -0.3636370599269867 4724328 0 -1
-1.7177746295928955 0.34163835644721985 0.14814843237400055 4724328 0 -1
1.6666311025619507 0.3943629264831543 -0.5212630033493042 4456788 0 -1
1.74211585521698 0.41222432255744934 0 4456788 0 -1
1.6494356393814087 0.3902941048145294 -0.5761328339576721 4590430 0 -1
-1.6910343170166016 0.5997558832168579 -0.3212376832962036 4456788 0 -1
-1.7102952003479004 0.3401508033275604 -0.53074049949646 4456788 0 -1
1.621996283531189 0.5752702355384827 -0.600574791431427 4456788 0 -1
1.6747441291809082 0.3962826430797577 -0.600574791431427 4456788 0 -1
-1.6807563304901123 0.5961105823516846 -0.37710511684417725 4456788 0 -1
1.677918791770935 0.5951042175292969 0.39107197523117065 4657508 0 -1
-1.778865933418274 0.35378846526145935 -0.18156912922859192 4724328 0 -1
0.014212507754564285 1.8547767400741577 -0.0426487922668457 4590430 0 -1
0.3540871739387512 1.7417118549346924 -0.6364895701408386 4523353 0 -1
-1.8251079320907593 0.3629852533340454 -0.3182447850704193 4523353 0 -1
-1.330161690711975 2.2690954208374023 -0.18181852996349335 4456788 0 -1
1.8488906621932983 1.7415035963058472 0.7070720791816711 4456788 0 -1
-1.4518128633499146 2.1948351860046387 -0.1616164743900299 4456788 0 -1
-1.2919825315475464 2.2960314750671387 0.10101030021905899 4456788 0 -1
-1.292893886566162 2.2976508140563965 -0.02020205929875374 4456788 0 -1
-1.5290290117263794 2.0924086570739746 -0.4848494231700897 4456788 0 -1
-1.4098838567733765 2.1744725704193115 -0.4848494231700897 4456788 0 -1
-0.28215551376342773 2.6150550842285156 0.18181852996349335 4456788 0 -1
-1.4012644290924072 2.1184167861938477 -0.7070720791816711 4523353 0 -1
-1.2455683946609497 2.2135469913482666 -0.7070720791816711 4590430 0 -1
-1.3131338357925415 2.2862331867218018 0 4657508 0 -1
-1.3294159173965454 2.2678234577178955 -0.20202060043811798 4724328 0 -1
-0.9461180567741394 2.4508488178253174 -0.22222265601158142 4724328 0 -1
-0.8079875111579895 2.509323835372925 0.04040411859750748 4724328 0 -1
-0.4632813334465027 2.5876128673553467 -0.20202060043811798 4724328 0 -1
-2.047417640686035 1.6341794729232788 -0.5112866759300232 4456788 0 -1
-1.4468871355056763 2.2315428256988525 -0.2249661386013031 4456788 0 -1
-1.7370984554290771 2.0238349437713623 0.10225734114646912 4456788 0 -1
-1.7370984554290771 2.0238349437713623 0.10225734114646912 4456788 0 -1
-1.4627472162246704 2.2113654613494873 -0.30677202343940735 4456788 0 -1
-2.030369997024536 1.6614915132522583 -0.4908352196216583 4456788 0 -1
-1.8974584341049194 1.8680599927902222 -0.18406321108341217 4456788 0 -1
-1.537751317024231 2.1466727256774902 -0.3885778784751892 4456788 0 -1
-1.5431956052780151 2.111794948577881 -0.5317381620407104 4456788 0 -1
-1.933226227760315 1.8209408521652222 -0.2658690810203552 4456788 0 -1
-1.7790687084197998 1.9892504215240479 0.04090293496847153 4456788 0 -1
-1.3088939189910889 2.326085329055786 0 4456788 0 -1
-1.9503295421600342 1.7961018085479736 -0.30677202343940735 4456788 0 -1
-1.8199669122695923 1.9519025087356567 -0.04090293496847153 4456788 0 -1
-1.3494402170181274 2.3019824028015137 -0.06135440245270729 4456788 0 -1
-1.5613455772399902 2.1366324424743652 -0.3476749360561371 4456788 0 -1
-1.4709486961364746 2.223764419555664 -0.12270880490541458 4456788 0 -1
-1.5501147508621216 2.1212635040283203 -0.47038376331329346 4456788 0 -1
-1.6407368183135986 2.0727617740631104 0.36812642216682434 4523353 0 -1
-1.8199669122695923 1.9519025087356567 0.04090293496847153 4590430 0 -1
-1.5497419834136963 2.1634116172790527 -0.20451468229293823 4590430 0 -1
-1.5522267818450928 2.1241536140441895 -0.4499322772026062 4657508 0 -1
-1.629022240638733 2.0169808864593506 -0.6339954733848572 4724328 0 -1
-1.5632370710372925 2.0970027446746826 -0.5317381620407104 4664956 0 -1
-1.5763713121414185 2.114621639251709 -0.40902936458587646 4212104 0 -1
-1.6731795072555542 2.0302481651306152 0.4499322772026062 4147337 0 -1
-1.9741140604019165 1.8180054426193237 -0.31051313877105713 4456788 0 -1
-1.4645321369171143 2.2587568759918213 -0.22770963609218597 4456788 0 -1
-1.7800662517547607 2.0318312644958496 0.04140175133943558 4456788 0 -1
-1.9758164882659912 1.8195732831954956 -0.28981226682662964 4456788 0 -1
-1.4830501079559326 2.2420592308044434 -0.26911139488220215 4456788 0 -1
-1.9017391204833984 1.9133946895599365 -0.14490613341331482 4456788 0 -1
-1.9017391204833984 1.9133946895599365 -0.14490613341331482 4456788 0 -1
-1.502443790435791 2.226512908935547 -0.28981226682662964 4456788 0 -1
-1.366097331047058 2.330397367477417 -0.04140175133943558 4456788 0 -1
-1.5769846439361572 2.158033847808838 -0.3933166265487671 4456788 0 -1
-1.564448356628418 2.140878438949585 -0.5175219178199768 4456788 0 -1
-1.958252191543579 1.8445132970809937 -0.24841050803661346 4456788 0 -1
-1.8007646799087524 2.013509511947632 0.04140175133943558 4456788 0 -1
-1.3038105964660645 2.365356206893921 0.062102627009153366 4456788 0 -1
-2.0784401893615723 1.6589406728744507 -0.47612014412879944 4456788 0 -1
-1.9758164882659912 1.8195732831954956 -0.28981226682662964 4456788 0 -1
-1.862586498260498 1.9559149742126465 -0.062102627009153366 4456788 0 -1
-1.3658968210220337 2.3300552368164062 -0.062102627009153366 4456788 0 -1
-1.5769846439361572 2.158033847808838 -0.3933166265487671 4456788 0 -1
-1.7494302988052368 1.9561104774475098 -0.6417271494865417 4456788 0 -1
-1.6481740474700928 2.0821573734283447 -0.49682101607322693 4456788 0 -1
-1.4841489791870117 2.243720769882202 -0.24841050803661346 4456788 0 -1
-1.5690186023712158 2.147132635116577 -0.47612014412879944 4456788 0 -1
-1.657943606376648 2.0527901649475098 -0.5796245336532593 4523353 0 -1
-1.6684314012527466 2.1077487468719482 0.26911139488220215 4590430 0 -1
-1.57115638256073 2.1500580310821533 -0.45541927218437195 4657508 0 -1
-1.6550328731536865 2.0491862297058105 -0.6003254055976868 4724328 0 -1
-1.4635357856750488 2.2572202682495117 -0.24841050803661346 4724328 0 -1
-1.566782832145691 2.144073009490967 -0.49682101607322693 4664956 0 -1
-1.5751389265060425 2.155508041381836 -0.41401752829551697 4212104 0 -1
-1.6660360097885132 2.062809705734253 -0.5175219178199768 4147337 0 -1
-1.975262999534607 1.860535979270935 -0.335204541683197 4456788 0 -1
-1.49971604347229 2.2672548294067383 -0.2933039665222168 4456788 0 -1
-1.8015128374099731 2.0563111305236816 0.04190056771039963 4456788 0 -1
-1.80124831199646 2.056009292602539 0.06285085529088974 4456788 0 -1
-1.6633793115615845 2.143928050994873 0.335204541683197 4456788 0 -1
-1.569435477256775 2.190903425216675 -0.4609062373638153 4456788 0 -1
-1.80124831199646 2.056009292602539 0.06285085529088974 4456788 0 -1
-1.6897841691970825 2.1347239017486572 0.25140342116355896 4456788 0 -1
-2.0012242794036865 1.8429718017578125 -0.2723536789417267 4456788 0 -1
-1.885027289390564 1.9794801473617554 -0.06285085529088974 4456788 0 -1
-1.8016715049743652 2.056492328643799 -0.020950283855199814 4456788 0 -1
-1.502030372619629 2.2707533836364746 -0.25140342116355896 4456788 0 -1
-1.3823533058166504 2.358128309249878 -0.06285085529088974 4456788 0 -1
-1.5941165685653687 2.1814780235290527 -0.41900569200515747 4456788 0 -1
-1.7634429931640625 1.9717786312103271 -0.6913593411445618 4456788 0 -1
-1.6680315732955933 2.107243776321411 -0.5028068423271179 4456788 0 -1
-1.5217642784118652 2.2551445960998535 -0.2723536789417267 4456788 0 -1
-1.58792245388031 2.173001766204834 -0.4818565249443054 4456788 0 -1
-1.7357226610183716 1.9812159538269043 -0.733259916305542 4523353 0 -1
-1.6749730110168457 2.0738751888275146 -0.6075582504272461 4523353 0 -1
-1.885027289390564 1.9794801473617554 0.06285085529088974 4590430 0 -1
-1.8015128374099731 2.0563111305236816 0.04190056771039963 4590430 0 -1
-1.5900859832763672 2.175962448120117 -0.4609062373638153 4657508 0 -1
-1.7277984619140625 1.9721710681915283 -0.7751604914665222 4724328 0 -1
-1.569435477256775 2.190903425216675 -0.4609062373638153 4664956 0 -1
-1.5770045518875122 2.201469659805298 -0.37710511684417725 4212104 0 -1
-1.8223170042037964 2.0800578594207764 -0.08479876816272736 4456788 0 -1
-1.8229594230651855 2.0807912349700928 -0.04239938408136368 4456788 0 -1
-1.8212456703186035 2.0788350105285645 -0.12719815969467163 4456788 0 -1
-1.8231199979782104 2.0809743404388428 -0.02119969204068184 4456788 0 -1
-1.8229594230651855 2.0807912349700928 -0.04239938408136368 4456788 0 -1
-1.8197449445724487 2.0771219730377197 -0.1695975363254547 4456788 0 -1
-1.69418203830719 2.1836295127868652 0.12719815969467163 4456788 0 -1
-1.8231199979782104 2.0809743404388428 0.02119969204068184 4456788 0 -1
-1.585958480834961 2.2139692306518555 -0.4875929057598114 4456788 0 -1
-1.8231735229492188 2.081035614013672 0 4523353 0 -1
-1.8231735229492188 2.081035614013672 0 4724328 0 -1
-1.817813515663147 2.0749173164367676 -0.211996927857399 4728182 0 -1
-1.9195770025253296 1.9733071327209473 -0.2755959928035736 4729209 0 -1
-1.822691798210144 2.0804855823516846 -0.06359907984733582 4471684 0 -1
-1.841153621673584 2.1015586853027344 -0.1715928018093109 4456788 0 -1
-1.7750413417816162 2.153848171234131 0.21449099481105804 4456788 0 -1
-1.7357661724090576 2.106191396713257 -0.62202388048172 4456788 0 -1
-1.3927173614501953 2.4247920513153076 -0.1286945939064026 4456788 0 -1
-1.9267886877059937 2.02333402633667 -0.1715928018093109 4456788 0 -1
-1.3701608180999756 2.434965133666992 -0.1715928018093109 4456788 0 -1
-1.844406008720398 2.105271100997925 -0.04289820045232773 4456788 0 -1
-1.8432682752609253 2.1039724349975586 -0.10724549740552902 4590430 0 -1
-1.8441351652145386 2.10496187210083 -0.0643472969532013 4724328 0 -1
-1.841153621673584 2.1015586853027344 -0.1715928018093109 4728182 0 -1
-1.7227857112884521 2.220496892929077 -0.34717613458633423 4456788 0 -1
-1.4960979223251343 2.4018843173980713 -0.10849253833293915 4456788 0 -1
-1.6273881196975708 2.3174848556518555 0 4456788 0 -1
-1.7790687084197998 2.202761650085449 -0.04339701682329178 4456788 0 -1
-1.7915894985198975 2.130290985107422 -0.520764172077179 4456788 0 -1
-1.8136094808578491 2.1564738750457764 -0.28208062052726746 4456788 0 -1
-1.7250301837921143 2.179250717163086 0.5424627065658569 4456788 0 -1
-1.6366463899612427 2.284728765487671 0.34717613458633423 4456788 0 -1
-1.8192470073699951 2.163177251815796 -0.17358806729316711 4456788 0 -1
-1.6315165758132935 2.2775676250457764 0.412271648645401 4456788 0 -1
-1.8660169839859009 2.1299386024475098 -0.02169850841164589 4456788 0 -1
-1.6490130424499512 2.256601572036743 -0.45566868782043457 4724328 0 -1
-1.8863842487335205 2.1092443466186523 0.10849253833293915 4600703 0 -1
-2.125265121459961 1.8254886865615845 -0.412271648645401 4536450 0 -1
-1.580220103263855 2.3417718410491943 -0.1952865719795227 4536450 0 -1
-1.66681706905365 2.3268463611602783 0.10973957926034927 4456788 0 -1
-1.6678457260131836 2.328282356262207 0.04389583319425583 4456788 0 -1
-1.7660669088363647 2.142958402633667 -0.7023333311080933 4456788 0 -1
-1.6776202917099 2.2504420280456543 -0.570645809173584 4456788 0 -1
-1.6802337169647217 2.2539477348327637 0.5486978888511658 4456788 0 -1
-1.6700268983840942 2.28535795211792 0.4389583170413971 4456788 0 -1
-1.6772408485412598 2.295229911804199 0.35116666555404663 4456788 0 -1
-1.6679672002792358 2.2825393676757812 -0.4609062373638153 4724328 0 -1
-1.6802337169647217 2.2539477348327637 -0.5486978888511658 4725613 0 -1
-1.6868114471435547 2.3083269596099854 0.17558333277702332 4536450 0 -1
-1.5746266841888428 2.3805038928985596 -0.24142707884311676 4536450 0 -1
-1.5759637355804443 2.4306185245513916 0.02219732478260994 4456788 0 -1
-1.5977851152420044 2.4155144691467285 0.06659197062253952 4456788 0 -1
-1.597033977508545 2.4143788814544678 0.1109866201877594 4456788 0 -1
-1.5902584791183472 2.4041359424591064 0.2885652184486389 4456788 0 -1
-1.685758113861084 2.353287696838379 0.1109866201877594 4456788 0 -1
-1.6647993326187134 2.370760440826416 0 4456788 0 -1
-1.704291582107544 2.286220073699951 0.5105384588241577 4456788 0 -1
-1.7018629312515259 2.2829623222351074 0.5327357649803162 4456788 0 -1
-1.6869213581085205 2.3084774017333984 0.46614381670951843 4456788 0 -1
-1.6928589344024658 2.3166027069091797 0.3995518386363983 4456788 0 -1
-1.7568659782409668 2.26442289352417 0.42174917459487915 4456788 0 -1
-1.674270510673523 2.3372511863708496 0.35515719652175903 4456788 0 -1
-1.653179407119751 2.3078083992004395 0.5771304368972778 4657508 0 -1
-1.7646859884262085 2.2293484210968018 -0.5549331307411194 4725613 0 -1
-1.6798501014709473 2.3450400829315186 0.2663678824901581 4536450 0 -1
-1.6114132404327393 2.43611741065979 0.22446732223033905 4456788 0 -1
-1.6131254434585571 2.4387059211730957 0.17957386374473572 4456788 0 -1
-1.5907208919525146 2.453378677368164 0.17957386374473572 4456788 0 -1
-1.5899238586425781 2.4521493911743164 0.20202060043811798 4456788 0 -1
-1.592032790184021 2.455402135848999 0.1346803903579712 4456788 0 -1
-1.5932968854904175 2.4573516845703125 0.0673401951789856 4456788 0 -1
-1.6368788480758667 2.4257359504699707 0.1346803903579712 4456788 0 -1
-1.6291558742523193 2.4142911434173584 0.3142542541027069 4456788 0 -1
-1.6123172044754028 2.437483787536621 0.20202060043811798 4456788 0 -1
-1.7234408855438232 2.311908006668091 0.5162748694419861 4456788 0 -1
-1.7036634683609009 2.331388235092163 0.4938281178474426 4456788 0 -1
-1.707982063293457 2.3372979164123535 0.4489346444606781 4456788 0 -1
-1.701345443725586 2.328216075897217 0.5162748694419861 4456788 0 -1
-1.7723382711410522 2.284364938735962 0.47138139605522156 4456788 0 -1
-1.8953279256820679 2.2081828117370605 0.33670100569725037 4664956 0 -1
-1.67435884475708 2.337374448776245 0.5611683130264282 4664956 0 -1
-1.7804384231567383 2.2948052883148193 0.3815944492816925 4600703 0 -1
-1.7676316499710083 2.278298854827881 0.5162748694419861 4536450 0 -1
-1.654433250427246 2.4517505168914795 0.15887299180030823 4456788 0 -1
-1.6310490369796753 2.4658026695251465 0.18156912922859192 4456788 0 -1
-1.6310490369796753 2.4658026695251465 0.18156912922859192 4456788 0 -1
-1.6075897216796875 2.4793953895568848 0.2042652666568756 4456788 0 -1
-1.6056917905807495 2.476468324661255 0.2496575564146042 4456788 0 -1
-1.6075897216796875 2.4793953895568848 0.2042652666568756 4456788 0 -1
-1.6056917905807495 2.476468324661255 0.2496575564146042 4456788 0 -1
-1.6735379695892334 2.431133985519409 0.2496575564146042 4456788 0 -1
-1.6458382606506348 2.4390132427215576 0.34044212102890015 4456788 0 -1
-1.644319772720337 2.436763048171997 0.36313825845718384 4456788 0 -1
-1.6259946823120117 2.4581613540649414 0.29504984617233276 4456788 0 -1
-1.7847251892089844 2.300330638885498 0.5447073578834534 4456788 0 -1
-1.818800449371338 2.2977116107940674 0.4312266707420349 4456788 0 -1
-1.7152385711669922 2.3472282886505127 0.5674034953117371 4456788 0 -1
-1.609398365020752 2.385011911392212 0.703580379486084 4456788 0 -1
-1.8227238655090332 2.3026680946350098 0.38583439588546753 4726897 0 -1
-1.9490584135055542 2.2247250080108643 -0.15887299180030823 4728182 0 -1
-1.789707064628601 2.3067517280578613 -0.4993151128292084 4728182 0 -1
-1.8002210855484009 2.320303201675415 0.38583439588546753 4600703 0 -1
-1.9389327764511108 2.213167190551758 0.34044212102890015 4147337 0 -1
-1.8390998840332031 2.2770895957946777 0.4539228081703186 4017546 0 -1
-1.6742380857467651 2.481099843978882 0.09178219735622406 4456788 0 -1
-1.5879812240600586 2.40069317817688 -0.8260397911071777 4456788 0 -1
-1.6243443489074707 2.5052363872528076 0.22945548593997955 4456788 0 -1
-1.6197330951690674 2.498124361038208 0.3212376832962036 4456788 0 -1
-1.6425461769104004 2.4831838607788086 0.3212376832962036 4456788 0 -1
-1.6210312843322754 2.500126600265503 0.2982921302318573 4456788 0 -1
-1.6607533693313599 2.461116313934326 0.39007434248924255 4456788 0 -1
-1.6867179870605469 2.4502804279327393 0.3441832363605499 4456788 0 -1
-1.9295916557312012 2.2481024265289307 0.4359654188156128 4726897 0 -1
-1.846272349357605 2.3324172496795654 0.3441832363605499 4726897 0 -1
-1.716566801071167 2.3962960243225098 0.527747631072998 4726897 0 -1
-1.6700369119644165 2.5247440338134766 0 4456788 0 -1
-1.6882538795471191 2.5018701553344727 0.2319495677947998 4456788 0 -1
-1.6882538795471191 2.5018701553344727 0.2319495677947998 4456788 0 -1
-1.6409817934036255 2.5308961868286133 0.25514453649520874 4456788 0 -1
-1.68346107006073 2.494767665863037 0.32472941279411316 4456788 0 -1
-1.6535497903823853 2.402097225189209 0.8118234872817993 4456788 0 -1
-1.5844378471374512 2.443688154220581 0.9377745985984802 4456788 0 -1
-1.800918459892273 2.464477300643921 0.2109992951154709 4456788 0 -1
-1.5941354036331177 2.508387327194214 0.7267753481864929 4456788 0 -1
-1.7557963132858276 2.500344753265381 0.16411055624485016 4456788 0 -1
-1.5802741050720215 2.4372665882110596 0.9612189531326294 4456788 0 -1
-1.7581208944320679 2.503655195236206 0.04688873142004013 4456788 0 -1
-1.7792068719863892 2.4837405681610107 -0.16411055624485016 4456788 0 -1
-1.7575013637542725 2.502772808074951 0.09377746284008026 4456788 0 -1
-1.7768243551254272 2.530289649963379 -0.04738754779100418 4456788 0 -1
-1.7765634059906006 2.5299181938171387 -0.07108131796121597 4456788 0 -1
-1.7227025032043457 2.4048614501953125 0.9003633856773376 4456788 0 -1
-1.6169887781143188 2.493891716003418 0.8529758453369141 4456788 0 -1
-1.7410534620285034 2.382554769515991 -0.9240571856498718 4456788 0 -1
-1.5967998504638672 2.5635547637939453 0.6634256839752197 4456788 0 -1
-1.776198148727417 2.529397964477539 0.09477509558200836 4456788 0 -1
-1.8002510070800781 2.513117551803589 0.07108131796121597 4456788 0 -1
-1.7751539945602417 2.5279111862182617 0.14216263592243195 4456788 0 -1
-1.7943190336227417 2.5048367977142334 0.2606315016746521 4456788 0 -1
-1.7930983304977417 2.5031328201293945 0.2843252718448639 4456788 0 -1
-1.773691177368164 2.5258278846740723 0.18955019116401672 4456788 0 -1
-1.7500419616699219 2.5422706604003906 0.18955019116401672 4456788 0 -1
-1.776198148727417 2.529397964477539 0.09477509558200836 4471684 0 -1
-1.8891563415527344 2.3865931034088135 0.5449568033218384 9360965 0 -1
-1.8194681406021118 2.5399444103240967 0.04788636416196823 4456788 0 -1
-1.7957385778427124 2.557224750518799 0 4456788 0 -1
-1.795527696609497 2.556924343109131 0.04788636416196823 4456788 0 -1
-1.8132065534591675 2.531203508377075 0.2633749842643738 4456788 0 -1
-1.7893486022949219 2.5481247901916504 0.2633749842643738 4456788 0 -1
-1.816259741783142 2.535465717315674 0.19154545664787292 4456788 0 -1
-1.8143320083618164 2.5327744483947754 0.23943181335926056 4456788 0 -1
-1.7904592752456665 2.54970645904541 0.23943181335926056 4456788 0 -1
-1.7914634943008423 2.5511367321014404 0.21548862755298615 4456788 0 -1
-1.7654905319213867 2.5647127628326416 0.2633749842643738 4456788 0 -1
-1.9164888858795166 2.4211225509643555 0.4788636267185211 8180304 0 -1
-1.8041775226593018 2.518599033355713 0.40703409910202026 8180304 0 -1
-1.909042239189148 2.411715030670166 0.550693154335022 9360965 0 -1
-1.8366926908493042 2.5639896392822266 0.14515553414821625 4456788 0 -1
-1.8131121397018433 2.581965446472168 0.1209629476070404 4456788 0 -1
-1.807279348373413 2.5229291915893555 0.580622136592865 4456788 0 -1
-1.762230634689331 2.5599770545959473 0.5564295649528503 4456788 0 -1
-1.7597193717956543 2.5563290119171143 0.580622136592865 4456788 0 -1
-1.762230634689331 2.5599770545959473 0.5564295649528503 4456788 0 -1
-1.805419921875 2.5710113048553467 0.31450366973876953 4456788 0 -1
-1.956778883934021 2.4720215797424316 -0.16934813559055328 4456788 0 -1
-1.7767465114593506 2.581064224243164 0.38708144426345825 4456788 0 -1
-1.8333854675292969 2.559372663497925 0.5132819414138794 4456788 0 -1
-1.6846343278884888 2.4965062141418457 1.0510059595108032 4456788 0 -1
-1.6172997951507568 2.596465826034546 0.90435391664505 4456788 0 -1
-1.801885962486267 2.565978765487671 0.5866079330444336 4456788 0 -1
-1.8203548192977905 2.541182279586792 0.6354919672012329 4456788 0 -1
-1.7724508047103882 2.5748238563537598 0.6354919672012329 4456788 0 -1
-1.7752119302749634 2.5788350105285645 0.6110499501228333 4456788 0 -1
-1.7724508047103882 2.5748238563537598 0.6354919672012329 4456788 0 -1
-1.7665892839431763 2.5663089752197266 0.6843759417533875 4456788 0 -1
-1.7778608798980713 2.5826830863952637 0.5866079330444336 4456788 0 -1
-1.7695767879486084 2.570648670196533 0.6599339246749878 4456788 0 -1
-1.8398386240005493 2.5683813095092773 0.4399559497833252 4456788 0 -1
-1.8417645692825317 2.5710699558258057 0.4155139625072479 4456788 0 -1
-1.8471800088882446 2.5277843475341797 0.6110499501228333 4456788 0 -1
-1.8537049293518066 2.5367133617401123 0.7160508036613464 4456788 0 -1
-1.771731972694397 2.6255786418914795 0.5925937294960022 4456788 0 -1
-1.6640335321426392 2.6714937686920166 0.6913593411445618 4456788 0 -1
-1.8520934581756592 2.585488796234131 0.5185195207595825 4456788 0 -1
-1.8147335052490234 2.5842742919921875 0.641976535320282 4456788 0 -1
-1.7905369997024536 2.601097583770752 0.641976535320282 4456788 0 -1
-1.7876336574554443 2.596879720687866 0.6666679382324219 4456788 0 -1
-1.7876336574554443 2.596879720687866 0.6666679382324219 4456788 0 -1
-1.7876336574554443 2.596879720687866 0.6666679382324219 4456788 0 -1
-1.7905369997024536 2.601097583770752 0.641976535320282 4456788 0 -1
-1.7876336574554443 2.596879720687866 0.6666679382324219 4456788 0 -1
-2.0750060081481934 2.467287540435791 0.4489346444606781 4456788 0 -1
-1.8270021677017212 2.60174560546875 0.6983428001403809 4456788 0 -1
-1.9470502138137817 2.5602495670318604 0.49881628155708313 4456788 0 -1
-2.0771782398223877 2.4698703289031982 0.423993855714798 4456788 0 -1
-2.0829389095306396 2.4767203330993652 0.34917140007019043 4456788 0 -1
-1.7782821655273438 2.6352853775024414 0.6983428001403809 4456788 0 -1
-2.0829389095306396 2.4767203330993652 0.34917140007019043 4456788 0 -1
-1.7961957454681396 2.6093180179595947 0.7482244372367859 4456788 0 -1
-1.7719229459762573 2.625861644744873 0.7482244372367859 4456788 0 -1
-1.9149342775344849 2.56878662109375 0.5736387372016907 4456788 0 -1
-1.8026421070098877 2.618682622909546 0.6983428001403809 4456788 0 -1
-1.8386591672897339 2.6183457374572754 0.5985795259475708 4456788 0 -1
-1.799477458000183 2.6140851974487305 0.723283588886261 4456788 0 -1
-2.105454683303833 2.503492593765259 0.32747289538383484 4456788 0 -1
-1.97501540184021 2.59702205657959 0.40304356813430786 4456788 0 -1
-1.8237475156784058 2.6493420600891113 0.6801360249519348 4456788 0 -1
-2.1000163555145264 2.497026205062866 0.40304356813430786 4456788 0 -1
-2.8208131790161133 1.744259238243103 -0.152637779712677 4456788 0 -1
-2.7980306148529053 1.7863819599151611 -0.05087926238775253 4456788 0 -1
-2.949610710144043 1.5205812454223633 0.10175852477550507 4456788 0 -1
-1.1951009035110474 3.095820426940918 -0.10175852477550507 4456788 0 -1
-1.669326901435852 2.847670555114746 0.35615482926368713 4456788 0 -1
-2.796304941177368 1.7852801084518433 0.12719815969467163 4657508 0 -1
-2.8208131790161133 1.744259238243103 0.152637779712677 4724328 0 -1
-2.823798894882202 1.7461055517196655 0 4725613 0 -1
-2.8050851821899414 1.7345339059829712 0.3815944492816925 4664956 0 -1
-1.8441729545593262 2.78800106048584 -0.2568903863430023 4456788 0 -1
-1.8611531257629395 2.758094310760498 -0.41102463006973267 4456788 0 -1
-2.825794219970703 1.804107427597046 0 4456788 0 -1
-1.8441729545593262 2.78800106048584 -0.2568903863430023 4456788 0 -1
-1.8417752981185913 2.7843761444091797 -0.3082684576511383 4456788 0 -1
-1.8628718852996826 2.760641574859619 -0.3853355646133423 4456788 0 -1
-2.7449169158935547 1.752471923828125 -0.796360194683075 4456788 0 -1
-1.8441729545593262 2.78800106048584 -0.2568903863430023 4456788 0 -1
-1.8430290222167969 2.786271572113037 -0.2825794219970703 4657508 0 -1
-1.8404115438461304 2.7823145389556885 -0.3339574933052063 4724328 0 -1
-2.825047492980957 1.8036307096481323 0.07706711441278458 4725613 0 -1
-2.733963966369629 1.7454791069030762 -0.8477382659912109 4600703 0 -1
-1.864478349685669 2.7630221843719482 -0.3596465289592743 4212104 0 -1
-2.80948805809021 1.7936968803405762 -0.3596465289592743 4147337 0 -1
-1.993779182434082 2.6745529174804688 -0.3339574933052063 4147337 0 -1
-1.857377290725708 2.7524988651275635 -0.46240270137786865 4147337 0 -1
-2.8511483669281006 1.763017177581787 0.05137807875871658 3562893 0 -1
-1.859656572341919 2.8114089965820312 -0.3112613558769226 4456788 0 -1
-2.686178684234619 1.7149708271026611 -1.141291618347168 4456788 0 -1
-1.8620775938034058 2.8150689601898193 -0.2593844532966614 4456788 0 -1
-1.856791377067566 2.807077407836914 -0.36313825845718384 4456788 0 -1
-1.8582795858383179 2.8093273639678955 -0.3371998071670532 4456788 0 -1
-2.8790831565856934 1.7802907228469849 0.025938447564840317 4456788 0 -1
-1.859656572341919 2.8114089965820312 -0.3112613558769226 4456788 0 -1
-2.8491218090057373 1.8190008401870728 0.18156912922859192 4456788 0 -1
-1.8840891122817993 2.792083740234375 -0.3371998071670532 4456788 0 -1
-1.8582795858383179 2.8093273639678955 -0.3371998071670532 4456788 0 -1
-2.77156662940979 1.7694861888885498 -0.8040918707847595 4456788 0 -1
-1.8889987468719482 2.7993595600128174 -0.23344601690769196 4456788 0 -1
-2.8502120971679688 1.8196969032287598 0.1556306779384613 4590430 0 -1
-1.8840891122817993 2.792083740234375 -0.3371998071670532 4657508 0 -1
-2.6487550735473633 1.902403712272644 -0.9078456163406372 4724328 0 -1
-1.8582795858383179 2.8093273639678955 -0.3371998071670532 4724328 0 -1
-1.8792226314544678 2.784872055053711 -0.41501516103744507 4664956 0 -1
-1.859656572341919 2.8114089965820312 -0.3112613558769226 4212104 0 -1
-2.660125255584717 1.9105700254440308 -0.855968713760376 4147337 0 -1
-2.5690548419952393 2.154343366622925 -0.4668920338153839 4147337 0 -1
-2.011523962020874 2.6983566284179688 -0.36313825845718384 4147337 0 -1
-1.8733323812484741 2.7761430740356445 -0.4928304851055145 4147337 0 -1
-1.8854851722717285 2.7941527366638184 -0.3112613558769226 3562893 0 -1
-1.8775379657745361 2.838441848754883 -0.3142542541027069 4456788 0 -1
-2.7120072841644287 1.7314609289169312 -1.1522656679153442 4456788 0 -1
-1.881036639213562 2.843731164932251 -0.23569069802761078 4456788 0 -1
-2.8003664016723633 1.7316160202026367 -0.9165748953819275 4456788 0 -1
-1.881036639213562 2.843731164932251 -0.23569069802761078 4456788 0 -1
-2.8999314308166504 1.793182373046875 0.23569069802761078 4590430 0 -1
-2.87524676322937 1.8356800079345703 0.20950284600257874 4657508 0 -1
-1.8775379657745361 2.838441848754883 -0.3142542541027069 4724328 0 -1
-2.8765172958374023 1.8364912271499634 0.1833149790763855 4664956 0 -1
-2.87524676322937 1.8356800079345703 0.20950284600257874 4212104 0 -1
-1.8799822330474854 2.842137098312378 -0.2618785500526428 4212104 0 -1
-1.9007428884506226 2.8735227584838867 -0.18506084382534027 4456788 0 -1
-2.945371150970459 1.7018556594848633 -0.7472267746925354 4456788 0 -1
3.340365171432495 1.7922205924987793 -0.6180333495140076 4456788 0 -1
-2.3847668170928955 2.952709436416626 0.5886031985282898 4456788 0 -1
3.3521225452423096 1.798528790473938 -0.5297428965568542 4456788 0 -1
-3.1919326782226562 2.1017251014709473 0.3825920820236206 4456788 0 -1
-2.361060380935669 2.982754707336426 0.5297428965568542 4456788 0 -1
-2.93990421295166 2.4653279781341553 0.17658096551895142 4456788 0 -1
-2.942929744720459 2.467865228652954 -0.02943016029894352 4456788 0 -1
-2.908252239227295 2.4387855529785156 -0.5886031985282898 4456788 0 -1
-3.1977622509002686 2.1693592071533203 0.26711612939834595 4456788 0 -1
-2.3664169311523438 2.9895219802856445 0.6826300621032715 4456788 0 -1
-2.953195571899414 2.476473808288574 0.38583439588546753 4456788 0 -1
-2.988823413848877 2.445812702178955 0.29679569602012634 4590430 0 -1
-2.986969470977783 2.444295644760132 0.32647526264190674 4657508 0 -1
-2.960891008377075 2.482927083969116 0.26711612939834595 4600703 0 -1
-2.9919991493225098 2.448411464691162 0.23743654787540436 4536450 0 -1
-3.0120701789855957 2.4648358821868896 0.3292187452316284 4456788 0 -1
-3.013939619064331 2.4663658142089844 0.2992897629737854 4456788 0 -1
-2.930549144744873 2.3981258869171143 -0.9577272534370422 4456788 0 -1
-2.936310052871704 2.4028401374816895 -0.9277982711791992 4456788 0 -1
-2.971273183822632 2.4314510822296143 0.7182954549789429 4456788 0 -1
-3.0077922344207764 2.4613354206085205 0.38907670974731445 4456788 0 -1
-3.010021209716797 2.4631590843200684 0.35914772748947144 4590430 0 -1
-3.002794027328491 2.457245111465454 0.4489346444606781 4657508 0 -1
-3.013939619064331 2.4663658142089844 0.2992897629737854 4724328 0 -1
-3.018475294113159 2.4700775146484375 0.20950284600257874 4725613 0 -1
-3.0120701789855957 2.4648358821868896 0.3292187452316284 4600703 0 -1
-3.0156302452087402 2.4677493572235107 0.2693607807159424 4536450 0 -1
-3.035104513168335 2.4836854934692383 0.36214062571525574 4456788 0 -1
-3.035104513168335 2.4836854934692383 0.36214062571525574 4456788 0 -1
-3.030428409576416 2.479858875274658 0.42249739170074463 4456788 0 -1
-3.0250236988067627 2.475435972213745 0.4828541576862335 4456788 0 -1
-3.0188865661621094 2.47041392326355 0.5432109236717224 4456788 0 -1
-3.030428409576416 2.479858875274658 0.42249739170074463 4456788 0 -1
-3.030428409576416 2.479858875274658 0.42249739170074463 4590430 0 -1
-3.0250236988067627 2.475435972213745 0.4828541576862335 4657508 0 -1
-3.030428409576416 2.479858875274658 0.42249739170074463 4724328 0 -1
-3.0328571796417236 2.481846570968628 0.392318993806839 4725613 0 -1
-3.0250236988067627 2.475435972213745 0.4828541576862335 4726897 0 -1
-3.0554730892181396 2.5003535747528076 0.4259890913963318 4456788 0 -1
-3.0554730892181396 2.5003535747528076 0.4259890913963318 4456788 0 -1
-3.0528404712677 2.498199224472046 0.45641690492630005 4456788 0 -1
-3.0500237941741943 2.495894193649292 0.4868446886539459 4456788 0 -1
-3.040463924407959 2.4880712032318115 0.5781280994415283 4456788 0 -1
-3.077191114425659 2.4561097621917725 0.5172724723815918 4456788 0 -1
-3.0528404712677 2.498199224472046 0.45641690492630005 4590430 0 -1
-3.0705676078796387 2.4508230686187744 0.5781280994415283 4657508 0 -1
-3.047022581100464 2.493438243865967 0.5172724723815918 4724328 0 -1
-2.655642509460449 2.969383716583252 0.39880362153053284 4456788 0 -1
-2.328111171722412 3.2500009536743164 0.21474041044712067 4456788 0 -1
-3.2240772247314453 2.315614700317383 -0.5215124487876892 4456788 0 -1
-3.1054697036743164 2.4786808490753174 0.4908352196216583 4456788 0 -1
-2.8661458492279053 2.6394975185394287 0.9203160405158997 4456788 0 -1
-3.2493958473205566 2.333799362182617 -0.15338601171970367 4657508 0 -1
-3.244041919708252 2.329953908920288 -0.27609482407569885 4724328 0 -1
-3.06137752532959 2.4434878826141357 -0.8282844424247742 4724328 0 -1
-3.2778356075286865 2.3542253971099854 -0.06185321882367134 4456788 0 -1
-2.845247983932495 2.8626863956451416 0 4456788 0 -1
-3.095168113708496 2.223029136657715 -1.3298442363739014 4456788 0 -1
-3.2782206535339355 2.354501962661743 0 4456788 0 -1
-3.2782206535339355 2.354501962661743 0 4590430 0 -1
-3.2773544788360596 2.353879928588867 -0.09277983009815216 4657508 0 -1
-2.4728310108184814 3.187229633331299 0.5299922823905945 4456788 0 -1
-2.485206365585327 3.2031800746917725 0.3429361879825592 4456788 0 -1
-3.0773518085479736 2.643280029296875 -0.31176018714904785 4456788 0 -1
-3.1614692211151123 2.270648241043091 -1.184688687324524 4456788 0 -1
-3.271944046020508 2.415170669555664 -0.12470407038927078 4456788 0 -1
-2.2366857528686523 3.3813977241516113 0.3429361879825592 4456788 0 -1
-3.303105354309082 2.3723747730255127 -0.12470407038927078 4523353 0 -1
-3.1373438835144043 2.2533206939697266 -1.2782167196273804 4590430 0 -1
-3.335833787918091 2.329469919204712 0 4657508 0 -1
-2.8986034393310547 2.853693723678589 0.09352805465459824 4657508 0 -1
-3.2636637687683105 2.2790722846984863 -0.8417524695396423 4724328 0 -1
-3.0350022315979004 2.6691370010375977 -0.4676402509212494 4724328 0 -1
-2.400041341781616 3.2195329666137695 0.6546963453292847 4724328 0 -1
-2.293712615966797 3.3320562839508057 0.43646425008773804 4212104 0 -1
-2.4726057052612305 3.123671531677246 0.9741882085800171 4456788 0 -1
-2.487248420715332 3.2058122158050537 0.5970830917358398 4456788 0 -1
-2.4926137924194336 3.2127275466918945 0.5342322587966919 4456788 0 -1
-3.2088699340820312 2.2408087253570557 -1.2255916595458984 4456788 0 -1
-3.3307039737701416 2.3921968936920166 -0.06285085529088974 4456788 0 -1
-3.316983699798584 2.382342576980591 -0.37710511684417725 4523353 0 -1
-3.20501708984375 2.558136224746704 -0.06285085529088974 4523353 0 -1
-2.526257276535034 3.1914501190185547 0.5028068423271179 4523353 0 -1
-2.388225793838501 3.268181324005127 0.6599339246749878 4523353 0 -1
-3.16565203666687 2.2106289863586426 -1.3827186822891235 4590430 0 -1
-3.345796823501587 2.3364272117614746 0.4085305333137512 4657508 0 -1
-2.348520040512085 3.344413995742798 0.3456796705722809 4212104 0 -1
-3.08138370513916 2.6467432975769043 0.5656576752662659 4147337 0 -1
-2.2858927249908447 3.3875277042388916 0.3456796705722809 4147337 0 -1
-3.2193362712860107 2.5695652961730957 0.34842318296432495 4456788 0 -1
-2.504054546356201 3.227473258972168 0.6334967017173767 4456788 0 -1
-2.9760355949401855 2.866243362426758 -0.12669934332370758 4456788 0 -1
-2.4809913635253906 3.2623488903045654 0.5384721755981445 4456788 0 -1
3.450932502746582 2.2032222747802734 -0.5701470375061035 4456788 0 -1
-2.504054546356201 3.227473258972168 0.6334967017173767 4456788 0 -1
-3.1999573707580566 2.2345850467681885 -1.3620178699493408 4456788 0 -1
-3.355954885482788 2.4103329181671143 -0.12669934332370758 4456788 0 -1
-3.3352816104888916 2.395484685897827 -0.47512251138687134 4523353 0 -1
-3.2299792766571045 2.5780601501464844 0.09502450376749039 4523353 0 -1
-3.374849557876587 2.356715202331543 0.38009801506996155 4657508 0 -1
-2.89477276802063 2.9125144481658936 0.47512251138687134 4724328 0 -1
-2.4857287406921387 3.268578052520752 0.47512251138687134 4212104 0 -1
-3.4441723823547363 2.3365235328674316 0.19154545664787292 4456788 0 -1
-2.475721836090088 3.321054458618164 0.4469393789768219 4456788 0 -1
-3.2547428607940674 2.597825765609741 0.1276969611644745 4456788 0 -1
-2.420466184616089 3.378926992416382 0.2873181700706482 4456788 0 -1
-2.8468706607818604 2.926556348800659 -0.8300303220748901 4456788 0 -1
-3.2793030738830566 2.617428779602051 0.16086825728416443 4456788 0 -1
-2.5481081008911133 3.486973285675049 0.2985415458679199 4456788 0 -1
-3.3721044063568115 2.965602159500122 -0.10325497388839722 4456788 0 -1
-3.2764570713043213 2.8814847469329834 1.0669680833816528 4590430 0 -1
-4.0767107009887695 2.9279978275299072 -1.6161648035049438 4456788 0 -1
-3.9000024795532227 3.3498928546905518 -1.1717194318771362 4456788 0 -1
-2.7914326190948486 4.392345905303955 -0.8484864830970764 4456788 0 -1
-4.173949718475342 2.914740562438965 -1.3737400770187378 4456788 0 -1
-4.367838382720947 2.5237669944763184 -1.5353565216064453 4456788 0 -1
-4.9953813552856445 1.639404296875 -0.40404120087623596 4523353 0 -1
-3.317811965942383 4.025856971740723 -0.7676782608032227 4523353 0 -1
-5.019681930541992 1.6473795175552368 -0.487842321395874 4456788 0 -1
-3.5364415645599365 3.9542417526245117 0.081307053565979 4456788 0 -1
-3.5317654609680176 3.9490134716033936 0.2845746874809265 4456788 0 -1
-4.860970973968506 1.9644168615341187 -0.81307053565979 4456788 0 -1
-4.620876789093018 2.5751278400421143 -0.406535267829895 4456788 0 -1
-3.6837990283966064 3.7869107723236084 -0.487842321395874 4456788 0 -1
-3.4139938354492188 4.059412479400635 -0.1219605803489685 4456788 0 -1
-4.593713760375977 2.6542794704437256 0.0406535267829895 4456788 0 -1
-4.467159271240234 2.852024793624878 0.243921160697937 4728182 0 -1
-4.142699718475342 3.2234246730804443 0.7724170088768005 4728182 0 -1
-3.5368568897247314 3.9547061920166016 0 4728182 0 -1
-3.8114194869995117 3.3519585132598877 1.544834017753601 4729209 0 -1
-2.4752016067504883 4.681523323059082 0.325228214263916 4729209 0 -1
5.033916473388672 1.1911394596099854 1.1789523363113403 4729209 0 -1
-3.5581374168395996 3.9785008430480957 -0.08180586993694305 4456788 0 -1
-3.5581374168395996 3.9785008430480957 -0.08180586993694305 4456788 0 -1
-3.513932943344116 4.010928630828857 0.24541760981082916 4456788 0 -1
-3.3539421558380127 4.152698040008545 0.04090293496847153 4456788 0 -1
-3.5581374168395996 3.9785008430480957 -0.08180586993694305 4456788 0 -1
-3.350494146347046 4.148428916931152 -0.24541760981082916 4456788 0 -1
-4.62148904800415 2.670328140258789 0.08180586993694305 4456788 0 -1
-3.3421053886413574 4.138042449951172 -0.4499322772026062 4456788 0 -1
-3.5568835735321045 3.9770987033843994 -0.1636117398738861 4590430 0 -1
-3.5568835735321045 3.9770987033843994 -0.1636117398738861 4590430 0 -1
-3.5568835735321045 3.9770987033843994 0.1636117398738861 4724328 0 -1
-3.5568835735321045 3.9770987033843994 -0.1636117398738861 4728182 0 -1
-3.5534329414367676 3.973240375518799 -0.2863205373287201 4729209 0 -1
-3.580148696899414 4.00311279296875 -0.04115234315395355 4456788 0 -1
-3.3645713329315186 4.165858745574951 -0.4115234315395355 4456788 0 -1
-4.604188919067383 2.7540056705474854 0.2469140589237213 4456788 0 -1
-3.4310638904571533 3.9163389205932617 1.3168749809265137 4456788 0 -1
-3.360196828842163 4.160442352294922 -0.4938281178474426 4456788 0 -1
-4.0682172775268555 3.494380474090576 0.28806641697883606 4523353 0 -1
-3.5785717964172363 4.001349449157715 -0.1646093726158142 4590430 0 -1
-3.5751001834869385 3.997467517852783 -0.28806641697883606 4657508 0 -1
-3.559593915939331 3.9801294803619385 -0.5761328339576721 4724328 0 -1
-3.5785717964172363 4.001349449157715 -0.1646093726158142 4728182 0 -1
-3.428596258163452 3.83365535736084 1.6560701131820679 4456788 0 -1
-3.872408628463745 3.7295472621917725 0.5382227897644043 4456788 0 -1
-3.8499107360839844 3.790261745452881 0.08280350267887115 4456788 0 -1
-3.8485538959503174 3.788926124572754 0.1656070053577423 4657508 0 -1
-3.8493454456329346 3.789705276489258 -0.12420525401830673 4724328 0 -1
-3.942779779434204 3.713775873184204 0.45816275477409363 4456788 0 -1
-3.9909918308258057 3.6753928661346436 -0.3332092761993408 4456788 0 -1
-3.8538336753845215 3.877453565597534 0.12570171058177948 4456788 0 -1
-4.5955119132995605 2.9339706897735596 -0.41900569200515747 4456788 0 -1
-4.707442283630371 2.7199923992156982 -0.5866079330444336 4523353 0 -1
-4.016664028167725 3.699035167694092 -0.2933039665222168 4523353 0 -1
-3.793987512588501 3.90018367767334 -0.5447073578834534 4523353 0 -1
-4.127665042877197 3.6300809383392334 0.21074987947940826 4456788 0 -1
-4.636497497558594 2.960137367248535 0 4456788 0 -1
-4.622866153717041 2.951434850692749 -0.42149975895881653 4456788 0 -1
-4.170886993408203 3.582568407058716 0.1685999035835266 4456788 0 -1
-4.605770587921143 2.9405200481414795 0.632249653339386 4724328 0 -1
-3.4802141189575195 4.1381516456604 1.0115994215011597 4724328 0 -1
-3.6239399909973145 4.136495113372803 0.12644992768764496 3238030 0 -1
-3.3996846675872803 4.294861316680908 0.5057997107505798 3238030 0 -1
-4.717260360717773 2.8216397762298584 0.6359907388687134 4456788 0 -1
-4.6572184562683105 2.9733667373657227 0.29679569602012634 4456788 0 -1
-4.575771808624268 3.1041994094848633 0.211996927857399 4456788 0 -1
-4.6502203941345215 2.9688987731933594 -0.423993855714798 4523353 0 -1
-4.155139446258545 3.6542434692382812 0 4590430 0 -1
-3.5438344478607178 4.213799476623535 0.5511919856071472 4590430 0 -1
-4.415812015533447 2.819242477416992 1.7807741165161133 4657508 0 -1
-3.8939433097839355 3.504957914352417 1.7807741165161133 4657508 0 -1
-3.5138444900512695 4.093862056732178 1.2295821905136108 4657508 0 -1
-4.656188488006592 2.8791697025299072 0.8055883049964905 4724328 0 -1
-3.5569844245910645 4.144123077392578 0.8903870582580566 4724328 0 -1
-3.609790086746216 4.2056450843811035 0.5117855072021484 4456788 0 -1
-4.752907752990723 2.8429620265960693 0.5544342994689941 4456788 0 -1
-1.9584406614303589 4.9515604972839355 1.6206541061401367 4456788 0 -1
-4.756429195404053 2.8450686931610107 0.5117855072021484 4456788 0 -1
-1.9352736473083496 5.013183116912842 1.450058937072754 4456788 0 -1
-4.677574634552002 2.986362934112549 0.42648792266845703 4456788 0 -1
-4.601199150085449 3.1214494705200195 0.2558927536010742 4456788 0 -1
-4.901010036468506 2.6295602321624756 -0.21324396133422852 4523353 0 -1
-4.648172378540039 3.060584545135498 0.0852975845336914 4523353 0 -1
-3.737194538116455 4.092849254608154 0.5117855072021484 4523353 0 -1
-3.5697503089904785 4.244614601135254 0.46913671493530273 4590430 0 -1
4.437050819396973 3.1868035793304443 -1.0662198066711426 4590430 0 -1
-4.441787242889404 2.8358263969421387 1.7912492752075195 4657508 0 -1
-4.089888572692871 3.429675340652466 1.578005313873291 4657508 0 -1
-4.256061553955078 3.3970441818237305 1.151517391204834 4724328 0 -1
-3.6522581577301025 4.168818473815918 0.5117855072021484 4724328 0 -1
-3.3537144660949707 4.322598934173584 1.0235710144042969 4724328 0 -1
-3.6309001445770264 4.230239391326904 0.5147783756256104 4456788 0 -1
-3.4547030925750732 4.36436653137207 0.600574791431427 4456788 0 -1
-4.780702114105225 2.8595876693725586 0.5576766133308411 4456788 0 -1
-1.974626898765564 4.992484092712402 1.5872334241867065 4456788 0 -1
-4.780702114105225 2.8595876693725586 0.5576766133308411 4456788 0 -1
-2.1177661418914795 4.874931335449219 1.7588262557983398 4456788 0 -1
-1.9423563480377197 5.031530380249023 1.5014370679855347 4456788 0 -1
-3.649305820465088 4.251683712005615 0.560918927192688 4456788 0 -1
-3.457719564437866 4.36817741394043 0.8198045492172241 4456788 0 -1
4.738356590270996 2.929978609085083 -0.8198045492172241 4456788 0 -1
-4.775303840637207 2.9528253078460693 0.43147608637809753 4456788 0 -1
-1.9813464879989624 5.0094733238220215 1.6396090984344482 4456788 0 -1
-4.775303840637207 2.9528253078460693 0.43147608637809753 4456788 0 -1
-2.141150712966919 4.928760528564453 1.682756781578064 4456788 0 -1
-3.7135813236236572 4.238814353942871 0.5641612410545349 4456788 0 -1
-3.4736361503601074 4.388284683227539 0.8679403066635132 4456788 0 -1
4.823800086975098 2.885366678237915 -0.6943522691726685 4456788 0 -1
-4.8101348876953125 2.974362850189209 0.30377912521362305 4456788 0 -1
-2.148036241531372 4.944610118865967 1.7358806133270264 4456788 0 -1
-3.7998931407928467 4.610817909240723 0.41301989555358887 4456788 0 -1
-3.579505681991577 4.801723957061768 0 4456788 0 -1
-3.5880467891693115 4.718057632446289 1.0612316131591797 4456788 0 -1
-3.6633949279785156 4.72174596786499 0.7382481098175049 4456788 0 -1
-3.871704339981079 4.603653430938721 0.27684304118156433 4456788 0 -1
-3.7584476470947266 4.653538227081299 -0.692107617855072 4456788 0 -1
-3.526815414428711 4.731042861938477 -1.199653148651123 4456788 0 -1
-3.718792676925659 4.697993755340576 -0.5998265743255615 4456788 0 -1
-3.5423738956451416 4.84758186340332 -0.46140506863594055 4456788 0 -1
-4.002422332763672 4.475274085998535 0.46140506863594055 4523353 0 -1
-3.721548318862915 4.701475143432617 0.5536860823631287 4523353 0 -1
-3.255521774291992 4.921663284301758 1.199653148651123 4523353 0 -1
-3.721548318862915 4.701475143432617 0.5536860823631287 4590430 0 -1
-3.638415575027466 4.689550399780273 -1.0150911808013916 4724328 0 -1
-3.678105354309082 4.740706443786621 0.5075455904006958 4725613 0 -1
-3.6580827236175537 4.714899063110352 -1.020578145980835 4456788 0 -1
-3.9960951805114746 5.1505632400512695 0.8564675450325012 4456788 0 -1
-3.9602599143981934 5.207494735717773 0.6549457907676697 4590430 0 -1
-3.969585418701172 5.219757080078125 0.8100776672363281 4456788 0 -1
-4.007233619689941 5.164919376373291 0.9619672298431396 4456788 0 -1
-3.976677656173706 5.229083061218262 0.7088179588317871 4523353 0 -1
-3.9732513427734375 5.2245774269104 0.7594478130340576 4590430 0 -1
-3.989140033721924 5.24547004699707 0.8140681982040405 4456788 0 -1
-4.464211463928223 4.889053821563721 -0.5087926387786865 4456788 0 -1
-3.9810471534729004 5.234828472137451 0.915826678276062 4523353 0 -1
-3.9766366481781006 5.229028701782227 0.9667059779167175 4590430 0 -1
-4.055442810058594 5.227056503295898 -0.8691873550415039 4456788 0 -1
-3.7745139598846436 5.483203887939453 -0.46015802025794983 4456788 0 -1
-3.7314066886901855 5.529674530029297 -0.15338601171970367 4456788 0 -1
-3.7830772399902344 5.495643138885498 -0.10225734114646912 4456788 0 -1
-3.995044708251953 5.149209022521973 1.4316027164459229 4523353 0 -1
-4.051823139190674 5.118715286254883 1.3804740905761719 4590430 0 -1
-3.693896532058716 5.584393501281738 0.3596465289592743 4456788 0 -1
-4.5211381912231445 4.95139741897583 -0.05137807875871658 4456788 0 -1
-4.0981621742248535 5.2821173667907715 -0.5137807726860046 4456788 0 -1
-3.844182014465332 5.474314212799072 -0.46240270137786865 4456788 0 -1
-3.7496085166931152 5.5566487312316895 -0.15413422882556915 4456788 0 -1
-4.570500373840332 4.901832103729248 -0.20551231503486633 4456788 0 -1
-3.801866054534912 5.522937774658203 -0.05137807875871658 4456788 0 -1
-4.084554195404053 5.160064697265625 1.284451961517334 4523353 0 -1
-4.096486568450928 5.1751389503479 1.181695818901062 4590430 0 -1
-3.8015313148498535 5.522451400756836 -0.10275615751743317 4657508 0 -1
-3.7979576587677 5.51725959777832 -0.3082684576511383 4724328 0 -1
-3.9010472297668457 5.445791244506836 -0.7227848172187805 4456788 0 -1
-4.1641106605529785 5.2605695724487305 0.6195298433303833 4456788 0 -1
-3.860677719116211 5.497804641723633 -0.5162748694419861 4456788 0 -1
-4.2748799324035645 5.187170028686523 0.4646473824977875 4456788 0 -1
-3.768695831298828 5.584934711456299 -0.05162748694419861 4456788 0 -1
-4.592687606811523 4.9256272315979 -0.20650994777679443 4456788 0 -1
-3.7683639526367188 5.584442615509033 -0.10325497388839722 4456788 0 -1
-4.2849555015563965 5.199396133422852 0.05162748694419861 4523353 0 -1
-3.867537498474121 5.399012088775635 1.1358046531677246 4523353 0 -1
-3.922652006149292 5.475951194763184 0.15488246083259583 4590430 0 -1
