VERSION .7
FIELDS x y z rgb label object
SIZE 4 4 4 4 4 4
TYPE F F F I I I
COUNT 1 1 1 1 1 1
WIDTH 681
HEIGHT 1
POINTS 681
VIEWPOINT 0 0 0 1 0 0 0
DATA ascii
-1.8121782541275024 1.9846363067626953 0.6571904420852661 4523353 0 -1
-1.7972322702407837 1.9682679176330566 0.7419891953468323 4590430 0 -1
-1.8611315488815308 2.038248300552368 -0.19079722464084625 4657508 0 -1
-1.8443191051483154 2.0622096061706543 -0.02119969204068184 4724328 0 -1
-1.76180100440979 2.0948710441589355 0.40279415249824524 3107982 0 -1
-1.7637550830841064 2.0971944332122803 0.3815944492816925 7589974 0 -1
-1.863385558128357 2.083528518676758 0.15014369785785675 4456788 0 -1
-1.8261817693710327 1.9999725818634033 0.7078202962875366 4523353 0 -1
-1.8819715976715088 2.0610716342926025 -0.21449099481105804 4657508 0 -1
-1.8874653577804565 2.0670883655548096 -0.021449100226163864 4724328 0 -1
-1.7357661724090576 2.106191396713257 0.62202388048172 4899181 0 -1
-1.7417593002319336 2.1134634017944336 0.579125702381134 6343264 0 -1
-1.775940179824829 2.1116831302642822 0.4718801975250244 6933851 0 -1
-1.5545223951339722 2.3501102924346924 -0.28208062052726746 4456788 0 -1
-1.5394630432128906 2.3743233680725098 -0.10849253833293915 4456788 0 -1
-1.5556743144989014 2.35185170173645 -0.2603820860385895 4456788 0 -1
-1.5556743144989014 2.35185170173645 -0.2603820860385895 4456788 0 -1
-1.556733250617981 2.353452682495117 -0.23868359625339508 4456788 0 -1
-1.6565495729446411 2.2669148445129395 -0.3688746392726898 4456788 0 -1
-1.530975103378296 2.314512014389038 -0.5641612410545349 4456788 0 -1
-1.8127927780151367 1.985309362411499 0.8896388411521912 4657508 0 -1
-1.7648741006851196 2.1415109634399414 0.5641612410545349 2718350 0 -1
-1.7283529043197632 2.139967679977417 0.6726537346839905 2458766 0 -1
-1.759037733078003 2.1344289779663086 0.6075582504272461 2264205 0 -1
-1.759037733078003 2.1344289779663086 0.6075582504272461 4899181 0 -1
-1.7648741006851196 2.1415109634399414 0.5641612410545349 5424489 0 -1
-1.7648741006851196 2.1415109634399414 0.5641612410545349 5949540 0 -1
-1.7620123624801636 2.1380386352539062 0.5858597159385681 6343264 0 -1
-1.5076617002487183 2.3252758979797363 0.7242812514305115 4456788 0 -1
-1.650269627571106 2.303746461868286 -0.41701042652130127 4456788 0 -1
-1.5465466976165771 2.3852484226226807 -0.35116666555404663 4456788 0 -1
-1.448392391204834 2.47078275680542 -0.04389583319425583 4456788 0 -1
-1.57950758934021 2.387882709503174 -0.08779166638851166 4456788 0 -1
-1.5779752731323242 2.385565996170044 -0.1536354124546051 4456788 0 -1
-1.573555588722229 2.3788845539093018 -0.2633749842643738 4456788 0 -1
-1.573555588722229 2.3788845539093018 -0.2633749842643738 4456788 0 -1
-1.5756040811538696 2.381981611251831 -0.21947915852069855 4456788 0 -1
-1.6538294553756714 2.3087158203125 -0.37311458587646484 4456788 0 -1
-1.5555158853530884 2.3516123294830322 -0.5048021078109741 4456788 0 -1
-1.8494460582733154 1.9835187196731567 0.9218124747276306 4657508 0 -1
-1.815614104270935 2.1153109073638916 -0.6584374904632568 4536450 0 -1
-1.8147685527801514 2.1578519344329834 0.5048021078109741 4471684 0 -1
-1.7447890043258667 2.16031813621521 0.7023333311080933 2458766 0 -1
-1.8931994438171387 2.1168646812438965 0.37311458587646484 6343264 0 -1
-1.757819652557373 2.176452159881592 -0.6145416498184204 6343264 0 -1
-1.9669444561004639 2.0655019283294678 0.2633749842643738 10672695 0 -1
-1.5554084777832031 2.351449966430664 0.6659197211265564 4456788 0 -1
-1.5980197191238403 2.4158692359924316 -0.04439464956521988 4456788 0 -1
-1.5902584791183472 2.4041359424591064 -0.2885652184486389 4456788 0 -1
-1.5902584791183472 2.4041359424591064 -0.2885652184486389 4456788 0 -1
-1.594402551651001 2.410400629043579 -0.19977591931819916 4456788 0 -1
-1.551342248916626 2.3926448822021484 -0.5105384588241577 4456788 0 -1
-1.5793287754058838 2.3876125812530518 -0.4439464807510376 4456788 0 -1
-1.5731922388076782 2.3783352375030518 -0.5105384588241577 4456788 0 -1
-1.6038135290145874 2.2839133739471436 -0.7769063711166382 4657508 0 -1
-1.9566811323165894 2.098527669906616 0.3995518386363983 10672695 0 -1
-1.651473045349121 2.399080514907837 -0.3142542541027069 4456788 0 -1
-1.651473045349121 2.399080514907837 -0.3142542541027069 4456788 0 -1
-1.650050163269043 2.3970134258270264 -0.33670100569725037 4456788 0 -1
-1.5935308933258057 2.457712411880493 0.04489346593618393 4456788 0 -1
-1.5035337209701538 2.5132763385772705 -0.0673401951789856 4456788 0 -1
-2.0548717975616455 2.0230345726013184 -0.5162748694419861 4456788 0 -1
-2.078702688217163 2.0464961528778076 -0.2693607807159424 4456788 0 -1
-1.5709104537963867 2.4228248596191406 -0.4938281178474426 4456788 0 -1
-1.7134754657745361 2.3919806480407715 -0.34044212102890015 4456788 0 -1
-1.8597171306610107 2.302616834640503 0.11348070204257965 4456788 0 -1
-1.8610289096832275 2.304241180419922 -0.02269614115357399 4456788 0 -1
-1.8602092266082764 2.3032262325286865 -0.09078456461429596 4657508 0 -1
-1.9698634147644043 2.2025859355926514 -0.2042652666568756 4726897 0 -1
-1.8507159948349 2.3380308151245117 0.275346577167511 4456788 0 -1
-1.9494553804397583 2.271245002746582 0.09178219735622406 4456788 0 -1
-1.8583712577819824 2.3477017879486084 0.04589109867811203 4456788 0 -1
-1.9732593297958374 2.2523486614227295 0.022945549339056015 4456788 0 -1
-1.8585349321365356 2.3479087352752686 0.022945549339056015 4456788 0 -1
-1.857224941253662 2.3462538719177246 0.11472774296998978 4456788 0 -1
-1.8294987678527832 2.3112270832061768 -0.527747631072998 4456788 0 -1
-1.857224941253662 2.3462538719177246 0.11472774296998978 4456788 0 -1
-1.8580983877182007 2.3473572731018066 -0.06883664429187775 4456788 0 -1
-1.8577163219451904 2.346874475479126 -0.09178219735622406 4456788 0 -1
-1.8585349321365356 2.3479087352752686 -0.022945549339056015 4523353 0 -1
-1.8814797401428223 2.3295624256134033 -0.022945549339056015 4657508 0 -1
-2.0335028171539307 2.1809182167053223 -0.275346577167511 4664956 0 -1
-1.876003384590149 2.322781801223755 0.22945548593997955 4471684 0 -1
-2.0361499786376953 2.1837575435638428 0.22945548593997955 10016830 0 -1
-1.9715713262557983 2.297011613845825 0 4456788 0 -1
-1.8555420637130737 2.391606330871582 -0.02319495752453804 4456788 0 -1
-1.87741219997406 2.3717565536499023 0.1159747838973999 4456788 0 -1
-1.940712332725525 2.2610585689544678 0.5334840416908264 4456788 0 -1
-1.8787363767623901 2.373429536819458 0.02319495752453804 4456788 0 -1
-1.8782950639724731 2.3728718757629395 0.06958486884832382 4456788 0 -1
-1.8785709142684937 2.373220443725586 -0.04638991504907608 4456788 0 -1
-1.8785709142684937 2.373220443725586 -0.04638991504907608 4456788 0 -1
-1.8787915706634521 2.3734991550445557 0 4523353 0 -1
-1.8787915706634521 2.3734991550445557 0 4657508 0 -1
-1.8448888063430786 2.377875328063965 0.32472941279411316 4664956 0 -1
-1.8817219734191895 2.329862117767334 0.44070419669151306 4471684 0 -1
-1.894472599029541 2.3933093547821045 0.2109992951154709 4456788 0 -1
-1.9922444820404053 2.3210971355438232 -0.0703330934047699 4456788 0 -1
-1.9856798648834229 2.313448905944824 0.2578880190849304 4456788 0 -1
-1.9927124977111816 2.3216423988342285 -0.023444365710020065 4456788 0 -1
-1.9922444820404053 2.3210971355438232 -0.0703330934047699 4456788 0 -1
-1.992771029472351 2.3217105865478516 0 4657508 0 -1
-1.9692318439483643 2.294285774230957 0.4688872992992401 4729209 0 -1
-1.8614007234573364 2.3991575241088867 0.37510985136032104 4729209 0 -1
-1.9668030738830566 2.2914562225341797 0.49233168363571167 4664956 0 -1
-1.8631197214126587 2.4013731479644775 0.3516654670238495 4664956 0 -1
-1.8808445930480957 2.3760929107666016 0.4219985902309418 4147337 0 -1
-1.9040648937225342 2.3575263023376465 0.4219985902309418 4017546 0 -1
-2.3206915855407715 1.9933496713638306 -0.4501816928386688 4456788 0 -1
-2.107755184173584 2.2605535984039307 -0.09477509558200836 4456788 0 -1
-1.913553237915039 2.4174139499664307 0.2369377315044403 4456788 0 -1
-1.5636054277420044 2.6673223972320557 -0.04738754779100418 4456788 0 -1
-2.0134384632110596 2.345789670944214 -0.07108131796121597 4456788 0 -1
-2.0134384632110596 2.345789670944214 -0.07108131796121597 4456788 0 -1
-2.032813549041748 2.320326089859009 0.21324396133422852 4456788 0 -1
-2.106516122817993 2.2592246532440186 -0.14216263592243195 4456788 0 -1
-2.0361685752868652 2.324155569076538 0.11846886575222015 4456788 0 -1
-2.0134384632110596 2.345789670944214 -0.07108131796121597 4456788 0 -1
-2.0110716819763184 2.343031883239746 -0.16585642099380493 4456788 0 -1
-2.011841297149658 2.343928575515747 -0.14216263592243195 4523353 0 -1
-2.037604808807373 2.3257949352264404 -0.02369377389550209 4657508 0 -1
-1.9851490259170532 2.3128304481506348 0.5212630033493042 4664956 0 -1
-1.8773863315582275 2.4197614192962646 0.42648792266845703 4664956 0 -1
-2.0585694313049316 2.3497250080108643 -0.07182954251766205 4456788 0 -1
-2.0585694313049316 2.3497250080108643 -0.07182954251766205 4456788 0 -1
-2.0588717460632324 2.350069999694824 -0.04788636416196823 4523353 0 -1
-2.8858535289764404 1.726179599761963 0.38907670974731445 4523353 0 -1
-2.7407455444335938 1.8593192100524902 0.7003380656242371 4726897 0 -1
-2.4690070152282715 2.0704457759857178 1.0375378131866455 4726897 0 -1
3.2059667110443115 0.7586048245429993 0.7781534194946289 3757452 0 -1
-2.701090097427368 1.886217474937439 0.7781534194946289 2718350 0 -1
3.0016965866088867 1.547432541847229 0.23344601690769196 2718350 0 -1
3.0016965866088867 1.547432541847229 0.23344601690769196 2718350 0 -1
3.2118239402770996 0.7599908113479614 0.7522149682044983 2718350 0 -1
-3.1052989959716797 1.0191096067428589 0.8819071650505066 2458766 0 -1
-2.444317102432251 2.0995371341705322 1.0375378131866455 2072968 0 -1
-2.913602113723755 1.7427774667739868 0.39281782507896423 4456788 0 -1
-2.913602113723755 1.7427774667739868 0.39281782507896423 4523353 0 -1
-3.0910069942474365 1.0144190788269043 1.0475142002105713 4726897 0 -1
-2.7414774894714355 1.9144207239151 0.7070720791816711 4726897 0 -1
-2.4927475452423096 2.0903539657592773 1.0475142002105713 4726897 0 -1
3.2228317260742188 0.8696787357330322 0.733259916305542 4726897 0 -1
-2.8725152015686035 1.7762293815612793 0.5237571001052856 4471684 0 -1
-2.654770612716675 1.9596071243286133 0.8903870582580566 3757452 0 -1
-3.1227757930755615 1.1075488328933716 0.8380113840103149 3302798 0 -1
-2.7759106159210205 1.883175253868103 0.6546963453292847 2718350 0 -1
3.1217164993286133 1.334629774093628 0.39281782507896423 2718350 0 -1
-3.262279987335205 0.6488161683082581 0.7856356501579285 2718350 0 -1
-2.45467209815979 2.108431577682495 1.099889874458313 2072968 0 -1
-2.915088653564453 1.8025548458099365 0.396558940410614 4456788 0 -1
-2.915088653564453 1.8025548458099365 0.396558940410614 4523353 0 -1
-2.184523582458496 2.704777479171753 -0.7068226933479309 4456788 0 -1
-1.870283842086792 3.002614736557007 -0.27185487747192383 4456788 0 -1
-2.0587449073791504 2.8739705085754395 -0.2990403473377228 4456788 0 -1
-2.131242513656616 2.7469563484191895 -0.7068226933479309 4456788 0 -1
-2.055821180343628 2.8698890209198 -0.35341134667396545 4456788 0 -1
-2.055821180343628 2.8698890209198 -0.35341134667396545 4456788 0 -1
-2.098487138748169 2.8716869354248047 -0.4115234315395355 4456788 0 -1
-3.514535665512085 0.6989858746528625 -0.670409083366394 4456788 0 -1
-2.661406993865967 2.450948715209961 -0.4469393789768219 4456788 0 -1
-2.773188352584839 2.2693543434143066 -0.670409083366394 4456788 0 -1
-2.3289644718170166 2.6583633422851562 -0.8938787579536438 4456788 0 -1
-2.0661234855651855 3.0014395713806152 -0.11173484474420547 4456788 0 -1
-2.68648362159729 2.4181175231933594 -0.4748730957508087 4456788 0 -1
-2.1797447204589844 2.7536966800689697 -0.9776799082756042 4456788 0 -1
-2.287386417388916 2.664957046508789 -0.9776799082756042 4523353 0 -1
-2.233647108078003 2.8789455890655518 0.11173484474420547 4523353 0 -1
-2.68070125579834 2.412912607192993 -0.53074049949646 4726897 0 -1
-3.0477614402770996 1.8845934867858887 0.670409083366394 3757452 0 -1
-3.0432205200195312 1.8817856311798096 0.6983428001403809 3692940 0 -1
-2.7187156677246094 2.3909785747528076 -0.6482117772102356 4456788 0 -1
-2.6640801429748535 2.509345293045044 0.36638057231903076 4456788 0 -1
-2.7538256645202637 2.421856164932251 0.28183120489120483 4456788 0 -1
-2.853353977203369 2.2201876640319824 0.6763948798179626 4456788 0 -1
-2.7436418533325195 2.412899971008301 0.42274680733680725 4456788 0 -1
-2.757969856262207 2.4255006313323975 0.1972818374633789 4523353 0 -1
-3.0557773113250732 1.9509384632110596 0.6200286149978638 3757452 0 -1
-1.7586244344711304 3.1253185272216797 0.8173104524612427 10672695 0 -1
-3.0134940147399902 2.1643686294555664 0.05686505511403084 4456788 0 -1
-2.836483955383301 2.3786025047302246 0.2558927536010742 4456788 0 -1
-3.0419232845306396 2.1242270469665527 0.05686505511403084 4456788 0 -1
-2.8648486137390137 2.3443617820739746 0.2558927536010742 4456788 0 -1
-2.806544780731201 2.4106714725494385 0.2843252718448639 4456788 0 -1
-2.8144898414611816 2.4174957275390625 0.05686505511403084 4456788 0 -1
-2.806544780731201 2.4106714725494385 0.2843252718448639 4456788 0 -1
-2.7626469135284424 2.4296138286590576 0.48335298895835876 4456788 0 -1
-2.798577308654785 2.4038279056549072 0.39805540442466736 4456788 0 -1
-2.793586254119873 2.399540662765503 0.4549204409122467 4456788 0 -1
-2.8048038482666016 2.4091761112213135 0.31275781989097595 4523353 0 -1
-2.7703089714050293 2.436352252960205 0.39805540442466736 4724328 0 -1
-2.7815706729888916 2.3892199993133545 0.5686505436897278 4726897 0 -1
-2.798577308654785 2.4038279056549072 0.39805540442466736 2666112 0 -1
-2.783857822418213 2.1104331016540527 1.2510312795639038 4045940 0 -1
-2.9230430126190186 2.2744126319885254 0.22746022045612335 8705099 0 -1
-2.8402464389801025 2.3817574977874756 0.1705951690673828 10672695 0 -1
-2.938498020172119 2.110504627227783 0.824543297290802 13164576 0 -1
-3.009392261505127 2.221369504928589 0.14340968430042267 4456788 0 -1
-3.0675253868103027 2.1421055793762207 -0.11472774296998978 4456788 0 -1
-2.6609690189361572 2.562800168991089 0.602320671081543 4456788 0 -1
-2.6561200618743896 2.6149673461914062 0.3441832363605499 4456788 0 -1
-2.8354241847991943 2.4354772567749023 0.20077355206012726 4456788 0 -1
-2.838761329650879 2.4383437633514404 0.08604580909013748 4456788 0 -1
-2.8206937313079834 2.4228246212005615 0.4302290380001068 4456788 0 -1
-2.8153181076049805 2.4182074069976807 0.4875929057598114 4456788 0 -1
-2.8153181076049805 2.4182074069976807 0.4875929057598114 4456788 0 -1
-2.81809139251709 2.4205892086029053 0.4589109718799591 4456788 0 -1
-2.81809139251709 2.4205892086029053 0.4589109718799591 4523353 0 -1
-2.81809139251709 2.4205892086029053 0.4589109718799591 4724328 0 -1
-2.7825913429260254 2.390096664428711 0.7457303404808044 4726897 0 -1
-2.81809139251709 2.4205892086029053 0.4589109718799591 2666112 0 -1
-3.0399281978607178 2.183354377746582 0.05736387148499489 8705099 0 -1
-2.8354241847991943 2.4354772567749023 0.20077355206012726 8705099 0 -1
-2.6075685024261475 2.6235501766204834 0.5736387372016907 8705099 0 -1
-2.8660879135131836 2.4034276008605957 0.14340968430042267 10672695 0 -1
-2.610623836517334 2.626624345779419 0.5449568033218384 10672695 0 -1
-3.255392551422119 1.8809881210327148 -0.34717613458633423 4456788 0 -1
-3.0948357582092285 2.161176919937134 -0.08679403364658356 4456788 0 -1
-2.9488306045532227 2.353656768798828 0.1446567177772522 4456788 0 -1
-2.429091215133667 2.888312816619873 -0.11572537571191788 4456788 0 -1
-2.193547487258911 3.062152624130249 0.2603820860385895 4456788 0 -1
3.4858627319335938 1.4087077379226685 -0.34717613458633423 4456788 0 -1
3.643636703491211 0.9832326173782349 -0.11572537571191788 4456788 0 -1
-3.065281629562378 2.201563835144043 -0.11572537571191788 4456788 0 -1
-2.7302632331848145 2.5716843605041504 0.4339701533317566 4456788 0 -1
-3.5585553646087646 1.262105941772461 0 4456788 0 -1
-2.7115509510040283 2.611516237258911 0.2893134355545044 4456788 0 -1
-2.839799165725708 2.439235210418701 0.4918328523635864 4456788 0 -1
-2.845221519470215 2.44389271736145 0.4339701533317566 4456788 0 -1
-2.8425965309143066 2.4416377544403076 0.4629015028476715 4456788 0 -1
-2.836829423904419 2.4366843700408936 0.520764172077179 4456788 0 -1
-2.836829423904419 2.4366843700408936 0.520764172077179 4456788 0 -1
-2.839799165725708 2.439235210418701 0.4918328523635864 4456788 0 -1
-2.836829423904419 2.4366843700408936 0.520764172077179 4523353 0 -1
-2.8111603260040283 2.4146358966827393 0.723283588886261 4657508 0 -1
-2.836829423904419 2.4366843700408936 0.520764172077179 4724328 0 -1
-2.847851037979126 2.388134717941284 0.6654209494590759 4726897 0 -1
-2.832383155822754 2.490943431854248 0.5252535343170166 4456788 0 -1
-2.9882736206054688 2.3251683712005615 0.4085305333137512 4456788 0 -1
-2.89321231842041 2.426173448562622 0.49607279896736145 4456788 0 -1
-2.9882736206054688 2.3251683712005615 0.4085305333137512 4456788 0 -1
-2.8581149578094482 2.454967498779297 0.5544342994689941 4456788 0 -1
-2.992884874343872 2.328756332397461 0.35016903281211853 4456788 0 -1
-2.8612849712371826 2.4576902389526367 0.5252535343170166 4456788 0 -1
-2.8581149578094482 2.454967498779297 0.5544342994689941 4523353 0 -1
-2.876314878463745 2.412003755569458 0.641976535320282 4657508 0 -1
-2.3887643814086914 2.726621150970459 1.1672301292419434 4657508 0 -1
-2.91908860206604 2.388747453689575 0.5252535343170166 4726897 0 -1
-2.4849853515625 2.8951730728149414 0.44145241379737854 4456788 0 -1
-3.353461980819702 1.868821382522583 -0.11772064119577408 4456788 0 -1
-3.0004661083221436 2.3948705196380615 0.11772064119577408 4456788 0 -1
-2.8239681720733643 2.6006548404693604 -0.11772064119577408 4456788 0 -1
-2.4648654460906982 2.9308505058288574 0.2943015992641449 4456788 0 -1
3.185075044631958 1.9695018529891968 -0.8534746766090393 4456788 0 -1
3.568105697631836 1.2654931545257568 -0.6474635601043701 4456788 0 -1
-3.655132532119751 0.9863348007202148 0.6474635601043701 4523353 0 -1
-3.635315179824829 1.090911865234375 -0.5886031985282898 4657508 0 -1
-2.576759099960327 2.5368359088897705 -1.2949271202087402 4657508 0 -1
-3.2338945865631104 2.0646560192108154 -0.17658096551895142 4726897 0 -1
-3.0668556690216064 2.2637858390808105 -0.4708825647830963 4726897 0 -1
-2.979231119155884 2.3779215812683105 0.4708825647830963 4726897 0 -1
-2.7795026302337646 2.5018444061279297 -1.0091053247451782 4456788 0 -1
-2.7853615283966064 2.507117986679077 -0.9794257879257202 4456788 0 -1
-2.863072395324707 2.5179331302642822 -0.6826300621032715 4523353 0 -1
-2.7486886978149414 2.5313284397125244 -1.1373010873794556 4456788 0 -1
-3.0121631622314453 2.5259225368499756 -0.24142707884311676 4456788 0 -1
-2.48826265335083 3.3378772735595703 -0.1596212089061737 4456788 0 -1
-2.521348714828491 3.315416097640991 0.09577272832393646 4523353 0 -1
-2.5410468578338623 3.341317892074585 0.09652095288038254 4456788 0 -1
-2.5390307903289795 3.3386669158935547 0.19304190576076508 4456788 0 -1
-2.5417184829711914 3.342200994491577 0 4456788 0 -1
-2.5390307903289795 3.3386669158935547 0.19304190576076508 4456788 0 -1
-2.536938428878784 3.3359158039093018 0.2573891878128052 4523353 0 -1
-2.5380594730377197 3.3373899459838867 0.22521555423736572 4657508 0 -1
-2.5595409870147705 3.3656365871429443 0.16211529076099396 4456788 0 -1
-2.5613465309143066 3.3680105209350586 0.03242305666208267 4456788 0 -1
-2.5611207485198975 3.3677139282226562 0.06484611332416534 4456788 0 -1
-2.55871319770813 3.3645479679107666 0.19453835487365723 4523353 0 -1
-0.9139906764030457 4.682925701141357 -0.6644232869148254 4725613 4 -1
-0.9483859539031982 4.6649956703186035 -0.7382481098175049 4726897 4 -1
-0.914947509765625 4.687828063964844 -0.6275109052658081 4728182 4 -1
-0.7368597388267517 4.75147008895874 0.295299232006073 2139270 4 -1
-0.7345763444900513 4.736745834350586 0.4798612594604492 2271109 4 -1
-0.6996660232543945 4.7546539306640625 0.3322116434574127 2468738 4 -1
-0.6996660232543945 4.7546539306640625 0.3322116434574127 2666112 4 -1
-0.6988400220870972 4.749040603637695 0.40603646636009216 2994813 4 -1
-0.6992738246917725 4.751988410949707 0.36912405490875244 3257723 4 -1
-0.8424898982048035 4.705645561218262 -0.8175598978996277 4456788 4 -1
-0.921129584312439 4.7195024490356445 -0.6317508220672607 4725613 4 -1
-0.9559127688407898 4.702018737792969 -0.7060744762420654 4726897 4 -1
-0.9244246482849121 4.736384868621826 -0.48310357332229614 4212104 4 -1
-0.9132007360458374 4.678878307342529 -0.8918834924697876 4147337 4 -1
-0.8892614245414734 4.753147125244141 -0.3716181218624115 3757452 4 -1
-0.7050580382347107 4.791296005249023 0.26013270020484924 2072968 4 -1
-0.7047466039657593 4.78917932510376 0.2972944974899292 2139270 4 -1
-0.7047466039657593 4.78917932510376 0.2972944974899292 2271109 4 -1
-0.7047466039657593 4.78917932510376 0.2972944974899292 2468738 4 -1
-0.7047466039657593 4.78917932510376 0.2972944974899292 2666112 4 -1
-0.7047466039657593 4.78917932510376 0.2972944974899292 2994813 4 -1
-0.7047466039657593 4.78917932510376 0.2972944974899292 3257723 4 -1
-0.6684215068817139 4.799997806549072 0.18580906093120575 4505456 4 -1
-0.6688340902328491 4.802960395812988 0.0743236243724823 4899181 4 -1
-0.7400876879692078 4.772284507751465 0.4459417462348938 5424489 4 -1
-0.8850200176239014 4.730476379394531 -0.823046863079071 4456788 4 -1
-0.9587716460227966 4.716081619262695 -0.823046863079071 4456788 4 -1
-0.8481441736221313 4.737226963043213 -0.823046863079071 4456788 4 -1
-0.9612020254135132 4.728035926818848 -0.7482244372367859 4726897 4 -1
-0.962328314781189 4.73357629776001 -0.7108132243156433 4729209 4 -1
-0.9298834800720215 4.764354228973389 -0.5237571001052856 4341894 4 -1
-0.9306288361549377 4.768172740936279 -0.48634588718414307 4212104 4 -1
-0.9306288361549377 4.768172740936279 -0.48634588718414307 4147337 4 -1
-0.8940656781196594 4.7788262367248535 -0.4489346444606781 3757452 4 -1
-0.8961808085441589 4.790131568908691 -0.2992897629737854 3302798 4 -1
-0.7837652564048767 4.8073296546936035 0.33670100569725037 2070155 4 -1
-0.7837652564048767 4.8073296546936035 0.33670100569725037 2070922 4 -1
-0.7450547218322754 4.8043131828308105 0.4489346444606781 2139270 4 -1
-0.7474332451820374 4.819650650024414 0.22446732223033905 2271109 4 -1
-0.7094764709472656 4.821321487426758 0.2992897629737854 2994813 4 -1
-0.673085629940033 4.833491325378418 0.1496448814868927 4899181 4 -1
-0.6729075908660889 4.832212448120117 0.18705610930919647 5424489 4 -1
-0.6724326014518738 4.828802108764648 0.2618785500526428 6343264 4 -1
-0.7087234258651733 4.81620454788208 0.37411221861839294 7589974 4 -1
-1.040756344795227 4.7379655838012695 -0.7908732295036316 4456788 4 -1
-1.0394067764282227 4.7318220138549805 -0.8285338282585144 4456788 4 -1
-0.8931784629821777 4.774084091186523 -0.753212571144104 4456788 4 -1
-0.9624767899513245 4.734306812286377 -0.9038550853729248 4456788 4 -1
-0.9638502597808838 4.741062641143799 -0.866194486618042 4456788 4 -1
-0.9708334803581238 4.775412082672119 -0.6402307152748108 4729209 4 -1
-0.9344132542610168 4.787562370300293 -0.6025700569152832 4600703 4 -1
-0.9352761507034302 4.7919840812683105 -0.5649094581604004 4536450 4 -1
-0.9352761507034302 4.7919840812683105 -0.5649094581604004 4471684 4 -1
-0.9360827207565308 4.796116352081299 -0.5272487998008728 4341894 4 -1
-0.9368330240249634 4.799960613250732 -0.4895881712436676 4212104 4 -1
-0.9368330240249634 4.799960613250732 -0.4895881712436676 4147337 4 -1
-0.9375271797180176 4.8035173416137695 -0.4519275426864624 3757452 4 -1
-0.8645655512809753 4.828947067260742 -0.3012850284576416 2977934 4 -1
-0.7908499836921692 4.850784778594971 0.0376606285572052 2458766 4 -1
-0.8283149003982544 4.843356609344482 0.1129818856716156 2328718 4 -1
-0.750021755695343 4.836341857910156 0.4519275426864624 2070155 4 -1
-0.7889903783798218 4.839378356933594 0.3389456570148468 2070922 4 -1
-0.7856320142745972 4.818779468536377 0.5649094581604004 2072968 4 -1
-0.7509981989860535 4.84263801574707 0.376606285572052 2139270 4 -1
-0.7514194250106812 4.8453545570373535 0.3389456570148468 2271109 4 -1
-0.7880589365959167 4.833665370941162 0.4142669141292572 2468738 4 -1
-0.7514194250106812 4.8453545570373535 0.3389456570148468 2666112 4 -1
-0.6766164898872375 4.858846664428711 0.3012850284576416 4045940 4 -1
-0.6766164898872375 4.858846664428711 0.3012850284576416 4505456 4 -1
-0.6775728464126587 4.8657145500183105 0.1506425142288208 4899181 4 -1
-0.6393091082572937 4.866082668304443 0.2636243999004364 6343264 4 -1
-0.7134482860565186 4.8483123779296875 0.376606285572052 6933851 4 -1
-0.7138484716415405 4.85103178024292 0.3389456570148468 7589974 4 -1
-0.6766164898872375 4.858846664428711 0.3012850284576416 9360965 4 -1
-0.6766164898872375 4.858846664428711 0.3012850284576416 10016830 4 -1
-0.6762774586677551 4.856411933898926 0.3389456570148468 10672695 4 -1
-0.9997355937957764 4.727766990661621 -1.06148099899292 4456788 0 -1
-0.9001470804214478 4.811331272125244 -0.7202907204627991 4523353 4 -1
-0.9751593470573425 4.796690464019775 -0.7202907204627991 4724328 4 -1
-0.9772628545761108 4.807037353515625 -0.6444706320762634 4729209 4 -1
-0.9396758079528809 4.814526081085205 -0.6444706320762634 4600703 4 -1
-0.9437360167503357 4.835328578948975 -0.4549204409122467 4536450 4 -1
-0.94228196144104 4.827878952026367 -0.53074049949646 4471684 4 -1
-0.9414700269699097 4.823719024658203 -0.5686505436897278 4341894 4 -1
-0.94228196144104 4.827878952026367 -0.53074049949646 4212104 4 -1
-0.9059865474700928 4.842543601989746 -0.4549204409122467 4147337 4 -1
-0.8702911138534546 4.860926628112793 -0.3032802939414978 3432845 4 -1
-0.8710088729858398 4.864935874938965 -0.22746022045612335 2977934 4 -1
-0.8712906837463379 4.866509914398193 -0.18955019116401672 2912910 4 -1
-0.8712906837463379 4.866509914398193 -0.18955019116401672 2782862 4 -1
-0.7531760334968567 4.856681823730469 0.5686505436897278 2072968 4 -1
-0.7555027008056641 4.871684551239014 0.41701042652130127 2139270 4 -1
-0.756395697593689 4.877442836761475 0.3411903381347656 2271109 4 -1
-0.7921512722969055 4.858766078948975 0.4928304851055145 2468738 4 -1
-0.7927382588386536 4.862366199493408 0.4549204409122467 2666112 4 -1
-0.6813983917236328 4.893186092376709 0.26537024974823 4505456 4 -1
-0.6437891721725464 4.900182723999023 0.22746022045612335 6343264 4 -1
-0.6810973882675171 4.891024589538574 0.3032802939414978 6933851 4 -1
-0.6810973882675171 4.891024589538574 0.3032802939414978 9360965 4 -1
-0.6816591620445251 4.8950581550598145 0.22746022045612335 10016830 4 -1
-0.7195290923118591 4.88963508605957 0.22746022045612335 10672695 4 -1
-0.718173086643219 4.880420684814453 0.37910038232803345 11197490 4 -1
-0.9804260730743408 4.822596549987793 -0.763188898563385 4726897 4 -1
-0.946789562702179 4.850974082946777 -0.610551118850708 4729209 4 -1
-0.9846611618995667 4.843428611755371 -0.610551118850708 4600703 4 -1
-0.913646399974823 4.883485794067383 -0.34343501925468445 4536450 4 -1
-0.9119470119476318 4.8744025230407715 -0.457913339138031 4471684 4 -1
-0.8767392039299011 4.896941661834717 -0.2289566695690155 3562893 4 -1
-0.8764038681983948 4.895068645477295 -0.26711612939834595 3432845 4 -1
-0.8770228624343872 4.898526191711426 -0.19079722464084625 2977934 4 -1
-0.8770228624343872 4.898526191711426 -0.19079722464084625 2912910 4 -1
-0.8772549033164978 4.899822235107422 -0.152637779712677 2588302 4 -1
-0.8394831418991089 4.908659934997559 -0.03815944492816925 2199437 4 -1
-0.8395078182220459 4.908804416656494 0 2070155 4 -1
-0.8001947999000549 4.908102512359619 0.26711612939834595 3257723 4 -1
-0.8001947999000549 4.908102512359619 0.26711612939834595 3651704 4 -1
-0.6858812570571899 4.92537784576416 0.26711612939834595 6343264 4 -1
-0.6858812570571899 4.92537784576416 0.26711612939834595 6933851 4 -1
-0.6482343077659607 4.934016704559326 0.19079722464084625 7589974 4 -1
-0.6861437559127808 4.927262783050537 0.2289566695690155 8705099 4 -1
-0.6858812570571899 4.92537784576416 0.26711612939834595 9360965 4 -1
-0.7233033776283264 4.915284156799316 0.34343501925468445 10016830 4 -1
-0.7244971394538879 4.923396587371826 0.19079722464084625 10672695 4 -1
-0.5723244547843933 4.946488857269287 0.0763188898563385 10672695 4 -1
-0.6105331778526306 4.9423604011535645 0.03815944492816925 11197490 4 -1
-0.6102643013000488 4.940183162689209 0.152637779712677 11918891 4 -1
-0.9211357235908508 4.923516750335693 -0.19204427301883698 4536450 4 -1
-0.9215689301490784 4.925832271575928 -0.11522655934095383 3562893 4 -1
-0.9211357235908508 4.923516750335693 -0.19204427301883698 3432845 4 -1
-0.9213793873786926 4.924819469451904 -0.1536354124546051 3302798 4 -1
-0.8808064460754395 4.91965913772583 -0.38408854603767395 3107982 4 -1
-0.8827550411224365 4.930542945861816 -0.19204427301883698 2977934 4 -1
-0.8829886317253113 4.931847095489502 -0.1536354124546051 2912910 4 -1
-0.8829886317253113 4.931847095489502 -0.1536354124546051 2588302 4 -1
-0.8802601099014282 4.91660737991333 0.42249739170074463 2134668 4 -1
-0.8445978164672852 4.9385666847229 -0.1536354124546051 2072968 4 -1
-0.8441013097763062 4.935663223266602 0.23045311868190765 3257723 4 -1
-0.8441013097763062 4.935663223266602 0.23045311868190765 3651704 4 -1
-0.6884305477142334 4.9436845779418945 0.4609062373638153 3651704 4 -1
-0.6900591850280762 4.955379962921143 0.3072708249092102 6343264 4 -1
-0.6903641819953918 4.9575700759887695 0.2688619792461395 6933851 4 -1
-0.6906283497810364 4.959466934204102 0.23045311868190765 9360965 4 -1
-0.6145236492156982 4.974663257598877 0.038408853113651276 11197490 4 -1
-0.6517226099967957 4.960567474365234 0.3072708249092102 11918891 4 -1
-0.8504817485809326 4.972971439361572 0 2912910 4 -1
-0.8890355825424194 4.9656219482421875 -0.0773165225982666 2588302 4 -1
-0.8865259885787964 4.951604843139648 0.386582612991333 2134668 4 -1
-0.7720522880554199 4.978400707244873 0.2706078290939331 2666112 4 -1
-0.8495824933052063 4.967713356018066 0.2319495677947998 3651704 4 -1
-0.6918333172798157 4.968120098114014 0.5412156581878662 3651704 4 -1
-0.8495824933052063 4.967713356018066 0.2319495677947998 6933851 4 -1
-0.8764156103134155 4.895134449005127 0.8504817485809326 10672695 4 -1
-1.6339302062988281 4.807024002075195 0.07781533896923065 4456788 0 -1
-0.54341059923172 5.036402225494385 0.35016903281211853 4456788 4 -1
-1.4368765354156494 4.860222339630127 0.3112613558769226 4600703 0 -1
-1.1560747623443604 4.894515037536621 0.7003380656242371 4600703 4 -1
-1.1163008213043213 4.898025035858154 0.7392457127571106 3238030 4 -1
-0.9670788049697876 4.954928398132324 0.5447073578834534 3238030 4 -1
-1.0113321542739868 4.9746198654174805 0.11672300845384598 2718350 4 -1
-1.0039682388305664 4.9383978843688965 0.6225227117538452 2588302 4 -1
-1.0091911554336548 4.964088439941406 0.35016903281211853 2523534 4 -1
-0.9712915420532227 4.976512432098389 0.2723536789417267 2264205 4 -1
-0.8523426055908203 4.983852386474609 0.4668920338153839 2468738 4 -1
-0.776300847530365 5.005796432495117 0.35016903281211853 2666112 4 -1
-0.8547365665435791 4.99785041809082 0.2723536789417267 3257723 4 -1
-0.8555666208267212 5.002703666687012 0.1556306779384613 3651704 4 -1
-0.8151158690452576 4.999622821807861 0.35016903281211853 6933851 4 -1
-0.8547365665435791 4.99785041809082 0.2723536789417267 8705099 4 -1
-0.6613526940345764 5.033866882324219 0.07781533896923065 8705099 4 -1
-0.853452205657959 4.990340709686279 0.38907670974731445 10016830 4 -1
-1.4092823266983032 4.910702228546143 0.11747123301029205 4456788 4 -1
-1.1669273376464844 4.940462112426758 0.5873561501502991 4456788 4 -1
-0.5088028907775879 5.082466125488281 0.1566283106803894 4456788 4 -1
-0.3074553608894348 5.006200790405273 0.978926956653595 4456788 0 -1
-0.037272512912750244 4.864179611206055 1.566283106803894 4456788 0 -1
-0.8512799143791199 4.9776387214660645 0.783141553401947 4728182 4 -1
-0.8984687328338623 5.018309593200684 0.35241371393203735 2072968 4 -1
-1.055719256401062 4.992514610290527 0.27409955859184265 2271109 4 -1
-1.055719256401062 4.992514610290527 0.27409955859184265 2271109 4 -1
-0.8578063249588013 5.0157999992370605 0.4698849320411682 2468738 4 -1
-0.8002780675888062 4.9086127281188965 1.1747123003005981 8180304 4 -1
-0.79039466381073 4.847991943359375 1.4096548557281494 8705099 0 -1
-0.716281533241272 4.8675665855407715 1.4974465370178223 4456788 0 -1
-0.9989531636238098 4.913729190826416 1.142788052558899 3757452 4 -1
-0.716281533241272 4.8675665855407715 1.4974465370178223 3757452 0 -1
-0.8867404460906982 4.952802658081055 1.0639750957489014 3432845 4 -1
-0.6046338081359863 4.894603729248047 1.4580399990081787 3432845 0 -1
-1.0202282667160034 5.018379211425781 0.4728778302669525 2468738 4 -1
-0.8619400262832642 5.039970874786377 0.5516908168792725 2468738 4 -1
-0.6007393598556519 4.863077640533447 1.6655476093292236 4456788 0 -1
-2.0465505123138428 4.71099853515625 0.6344943046569824 4456788 0 -1
-1.2594157457351685 4.9795331954956055 0.6344943046569824 4456788 4 -1
-0.8938020467758179 4.992244720458984 1.0310533046722412 4456788 4 -1
0.038520898669958115 5.027098178863525 1.229332685470581 4456788 0 -1
-1.7487431764602661 4.760597229003906 1.0310533046722412 4456788 0 -1
-0.6508703231811523 4.954080581665039 1.3483004570007324 4456788 0 -1
0.19143244624137878 4.992985248565674 1.3483004570007324 4456788 0 -1
-0.8022671341896057 4.92081356048584 1.3879562616348267 4456788 0 -1
-1.7052034139633179 4.886383056640625 0 4456788 0 -1
-1.4249274730682373 4.965218544006348 0.3172471523284912 4523353 4 -1
-1.2211858034133911 4.993929386138916 0.5948384404182434 4523353 4 -1
-1.1364365816116333 4.986374855041504 0.793117880821228 4600703 4 -1
-0.27493828535079956 5.118529796600342 0.7138060927391052 4600703 0 -1
-1.2188584804534912 4.98441219329834 0.6741502285003662 4212104 4 -1
-1.0439400672912598 4.9368109703063965 1.150020956993103 3757452 4 -1
-0.762346088886261 4.9158124923706055 1.4276121854782104 3757452 0 -1
-0.9808346033096313 5.025407314300537 0.753462016582489 2139270 4 -1
-1.0832393169403076 4.931365966796875 -1.2769696712493896 4456788 0 -1
-1.0558449029922485 4.993109226226807 1.0375378131866455 4456788 4 -1
-0.8073128461837769 4.951761722564697 1.3966856002807617 4456788 0 -1
-1.8379522562026978 4.76107931137085 1.0375378131866455 4212104 0 -1
-0.8616583347320557 5.038323402404785 0.9976325631141663 2070922 4 -1
-0.9973689317703247 5.1101226806640625 0.11971590667963028 3651704 4 -1
-0.9563485980033875 5.11173152923584 0.2793371081352234 4045940 4 -1
-1.1495845317840576 5.044064521789551 0.5985795259475708 4505456 4 -1
-0.9543192386627197 5.100884437561035 0.4389583170413971 4505456 4 -1
-0.8342645764350891 5.117074012756348 0.7629395127296448 4523353 4 -1
-0.8827550411224365 5.161681175231934 0.20077355206012726 4212104 4 -1
-0.8236125707626343 5.051738262176514 1.1243319511413574 3238030 4 -1
-0.9091027975082397 5.077705383300781 0.9235583543777466 2070155 4 -1
-0.7396493554115295 5.026364803314209 1.2849507331848145 2070155 0 -1
-0.9078073501586914 5.070469856262207 0.9637130498886108 2070922 4 -1
-0.8739914894104004 5.110438823699951 0.7629395127296448 2006409 4 -1
-1.0415369272232056 5.123194217681885 0.36139240860939026 2994813 4 -1
-1.0795842409133911 5.105372905731201 0.4818565249443054 3257723 4 -1
-0.963005542755127 5.147313117980957 0.20077355206012726 4045940 4 -1
-0.9619007110595703 5.1414079666137695 0.3212376832962036 4505456 4 -1
-2.1252641677856445 4.782265663146973 0.6464658975601196 4456788 0 -1
-0.9913966655731201 5.079523086547852 1.0101029872894287 4456788 4 -1
-0.6227841973304749 5.041533946990967 1.4141441583633423 4456788 0 -1
-0.8374298214912415 5.136488437652588 -0.8484864830970764 4523353 4 -1
-0.8459919691085815 5.189005374908447 -0.40404120087623596 4017546 4 -1
-0.8803953528404236 5.147883415222168 -0.7272741198539734 2912910 4 -1
-1.0690430402755737 5.055522918701172 -1.0505070686340332 2588302 0 -1
-0.8821851015090942 5.158348560333252 -0.6464658975601196 2588302 4 -1
-0.8876110315322876 5.190075397491455 -0.28282883763313293 2458766 4 -1
-0.8301296234130859 5.091711521148682 1.0909112691879272 2006409 4 -1
-1.0826817750930786 5.120020866394043 0.6464658975601196 2072968 4 -1
-1.050229549407959 5.165951728820801 0.12121235579252243 2139270 4 -1
-0.8019864559173584 5.171424388885498 -0.6464658975601196 2139270 4 -1
-1.050013542175293 5.164889335632324 0.1616164743900299 2271109 4 -1
-0.8435903191566467 5.174274444580078 -0.5656576752662659 2271109 4 -1
-1.0846160650253296 5.129168510437012 0.5656576752662659 3257723 4 -1
-0.8867744207382202 5.185183525085449 0.3636370599269867 3257723 4 -1
-0.8813170194625854 5.15327262878418 0.6868700385093689 3651704 4 -1
-0.8813170194625854 5.15327262878418 0.6868700385093689 4045940 4 -1
-0.8363438844680786 5.129827499389648 0.8888906240463257 4505456 4 -1
-1.1247870922088623 5.120509147644043 0.5656576752662659 6933851 4 -1
-0.7849934101104736 5.0618486404418945 1.382219910621643 4456788 0 -1
-0.997516393661499 5.110877990722656 1.0163382291793823 4456788 4 -1
-0.8308619260787964 5.096203327178955 1.219605803489685 4456788 4 -1
-1.333824872970581 5.103531837463379 0.569149374961853 4456788 4 -1
-1.0819369554519653 5.1164984703063965 0.894377589225769 4456788 4 -1
-0.6642959117889404 5.05626916885376 1.463526964187622 4456788 0 -1
-1.0404475927352905 5.117835521697998 0.9350311160087585 4456788 4 -1
-0.6657928228378296 5.067663192749023 1.4228734970092773 4456788 0 -1
-1.2934058904647827 5.113924980163574 0.569149374961853 4456788 4 -1
-1.0389649868011475 5.1105427742004395 0.975684642791748 4456788 4 -1
-0.8653128743171692 5.059692859649658 1.3415664434432983 4456788 0 -1
-0.8323798775672913 5.105514049530029 1.1789523363113403 4725613 4 -1
-0.843639612197876 5.174576759338379 -0.81307053565979 4600703 4 -1
-0.8487976789474487 5.206214427947998 -0.569149374961853 4147337 4 -1
-0.8480663299560547 5.201728820800781 -0.6098029017448425 2588302 4 -1
-1.0968393087387085 5.186972618103027 0.2032676339149475 2006409 4 -1
-1.0568675994873047 5.198603630065918 0.081307053565979 2139270 4 -1
-1.0550040006637573 5.189436435699463 0.325228214263916 2271109 4 -1
-0.8464500904083252 5.191815376281738 0.6911099553108215 4045940 4 -1
-1.1355887651443481 5.169683456420898 0.3658817410469055 4505456 4 -1
-0.8379137516021729 5.139456748962402 1.0163382291793823 4505456 4 -1
-1.1326372623443604 5.156246662139893 0.5284958481788635 6933851 4 -1
-1.0921859741210938 5.164966583251953 0.5284958481788635 9360965 4 -1
-1.509805679321289 5.10690450668335 0.36812642216682434 4456788 4 -1
-0.4469505250453949 5.283872127532959 0.6135440468788147 4456788 4 -1
-1.0104944705963135 5.177372455596924 0.8180587291717529 4456788 4 -1
-1.3023840188980103 5.149422645568848 0.5317381620407104 4456788 4 -1
-1.0453389883041382 5.141895771026611 0.9816704392433167 4456788 4 -1
-0.7043514847755432 5.058014392852783 1.5543115139007568 4456788 0 -1
-1.1772369146347046 5.165396213531494 0.6544469594955444 4456788 4 -1
-0.9204141497612 5.140883922576904 1.1043792963027954 4456788 4 -1
-0.6741230487823486 5.131067752838135 1.3088939189910889 4456788 0 -1
-0.8953890204429626 5.235555171966553 -0.5317381620407104 4456788 4 -1
-1.0437815189361572 5.13423490524292 1.0225733518600464 4725613 4 -1
-0.8488153219223022 5.20632266998291 -0.8180587291717529 4600703 4 -1
-0.8524819016456604 5.228812217712402 -0.6544469594955444 4147337 4 -1
-0.8516430258750916 5.223667144775391 -0.6953498721122742 3302798 4 -1
-1.1858717203140259 5.203283309936523 0.12270880490541458 2134668 4 -1
-1.103211522102356 5.217106342315674 0.24541760981082916 2006409 4 -1
-1.1042495965957642 5.222015380859375 0.08180586993694305 2139270 4 -1
-0.8516430258750916 5.223667144775391 0.6953498721122742 4045940 4 -1
-0.844312310218811 5.1787028312683105 0.9816704392433167 4505456 4 -1
-1.1404304504394531 5.1917243003845215 0.4908352196216583 6933851 4 -1
-1.1404304504394531 5.1917243003845215 0.4908352196216583 7589974 4 -1
-1.5224579572677612 5.14970064163208 0.0823046863079071 4456788 4 -1
-1.0560182332992554 5.194425582885742 0.8641992211341858 4456788 4 -1
-1.22744619846344 5.196683406829834 0.5761328339576721 4456788 4 -1
-4.528990268707275 2.800516366958618 -0.6995898485183716 4456788 0 -1
-1.1510472297668457 5.24005651473999 0.2469140589237213 2328718 4 -1
-1.1517242193222046 5.243138790130615 0.1646093726158142 2134668 4 -1
-1.1481653451919556 5.2269368171691895 0.45267578959465027 2006409 4 -1
-0.8481948971748352 5.202517509460449 1.02880859375 4505456 4 -1
-1.01540207862854 5.202517509460449 0.8641992211341858 11197490 4 -1
-1.00344717502594 5.141264915466309 1.3248560428619385 4456788 4 -1
-0.9482063055038452 5.296114444732666 0.49682101607322693 4456788 4 -1
-4.569075584411621 2.825303316116333 -0.5796245336532593 4456788 0 -1
-1.1558408737182617 5.2618794441223145 0.41401752829551697 2006409 4 -1
-1.2820972204208374 5.243021488189697 0.24841050803661346 6343264 4 -1
-1.3200989961624146 5.2194647789001465 0.7497208714485168 4456788 4 -1
-1.0133942365646362 5.192230224609375 1.2495348453521729 4456788 4 -1
-0.8479732871055603 5.201158046722412 1.3328371047973633 4456788 0 -1
-3.943532705307007 3.3069450855255127 1.749348759651184 4456788 0 -1
-4.616623401641846 2.8547046184539795 0.2915581166744232 4456788 0 -1
-0.7929311394691467 5.113033294677734 1.666046380996704 4726897 0 -1
-1.1212750673294067 5.302529335021973 0.416511595249176 2006409 4 -1
-2.0705406665802 4.992033004760742 0.5831162333488464 11918891 0 -1
-1.624393105506897 5.0447916984558105 1.207883596420288 11918891 0 -1
-0.8188162446022034 5.279947280883789 0.9996278285980225 11918891 4 -1
-1.4225685596466064 5.271883010864258 0.2933039665222168 4456788 4 -1
-1.2047632932662964 5.286174297332764 0.7123096585273743 4456788 4 -1
-0.9412715435028076 5.257380962371826 1.1732158660888672 4456788 4 -1
-0.20811443030834198 5.428088665008545 0.6285085082054138 4456788 0 -1
-1.2475345134735107 5.281731605529785 0.670409083366394 4456788 4 -1
-4.646045207977295 2.8728976249694824 0.25140342116355896 4456788 0 -1
-3.6323776245117188 4.061511993408203 -0.4609062373638153 5424489 0 -1
-1.036353588104248 5.309864521026611 0.7961108088493347 5424489 4 -1
-1.2131283283233643 5.322877407073975 0.6743996143341064 4456788 4 -1
-0.8614457845687866 5.2837934494018555 1.264499306678772 4456788 4 -1
-1.3011139631271362 5.320788383483887 0.5057997107505798 4456788 4 -1
-0.04170089215040207 5.442097187042236 0.8008495569229126 4456788 0 -1
3.489928960800171 4.149703025817871 -0.9272994995117188 4456788 0 -1
-4.676449298858643 2.891698122024536 0.1685999035835266 4456788 0 -1
-4.553389549255371 2.815603494644165 -1.3991796970367432 4456788 0 -1
-4.3925933837890625 4.045236587524414 -0.4589109718799591 4456788 0 -1
-4.405545234680176 4.057164669036865 0 4456788 0 -1
-4.587897300720215 3.84729266166687 -0.1376732885837555 4456788 0 -1
-4.383634090423584 4.036985874176025 -0.5965842604637146 4523353 0 -1
-4.423941612243652 3.8906421661376953 1.2457937002182007 4456788 0 -1
-4.356125831604004 3.831001043319702 1.6149177551269531 4456788 0 -1
-4.336698055267334 4.176708221435547 0.09228101372718811 4456788 0 -1
-4.521238803863525 3.976209878921509 -0.09228101372718811 4456788 0 -1
-4.515260696411133 3.9709525108337402 -0.3229835331439972 4456788 0 -1
-4.315636157989502 4.156423091888428 -0.5998265743255615 4456788 0 -1
-4.566702842712402 3.922553062438965 -0.13842152059078217 4456788 0 -1
-4.521238803863525 3.976209878921509 0.09228101372718811 4523353 0 -1
-4.521238803863525 3.976209878921509 -0.09228101372718811 4657508 0 -1
-4.334023475646973 4.174131870269775 -0.23070253431797028 4726897 0 -1
-5.4838151931762695 2.469207763671875 0.6958487033843994 4456788 0 -1
-4.729548454284668 3.774965286254883 0.18555966019630432 4456788 0 -1
-4.67863655090332 3.828619956970215 0.32472941279411316 4456788 0 -1
-5.936339855194092 1.1806446313858032 -0.13916973769664764 4456788 0 -1
-5.391650199890137 2.6644556522369385 0.6958487033843994 4456788 0 -1
-4.286282062530518 4.128152370452881 1.1133579015731812 4456788 0 -1
-4.587745189666748 3.940627098083496 0.2783394753932953 4456788 0 -1
-4.591387748718262 3.943755865097046 -0.13916973769664764 4456788 0 -1
-4.347831726074219 4.1874308586120605 -0.4638991355895996 4456788 0 -1
-4.530034065246582 3.98394513130188 -0.5102890729904175 4456788 0 -1
-4.335488796234131 4.175543308258057 -0.6494588255882263 4456788 0 -1
-4.541404724121094 3.9939448833465576 -0.2783394753932953 4456788 0 -1
-4.592061996459961 3.9443349838256836 0.09277983009815216 4523353 0 -1
-4.592466831207275 3.9446825981140137 -0.04638991504907608 4657508 0 -1
-4.357450485229492 4.196694850921631 -0.2319495677947998 4657508 0 -1
-4.354374885559082 4.193732738494873 -0.32472941279411316 4726897 0 -1
-4.990261077880859 3.4847848415374756 -0.046639323234558105 4456788 0 -1
-3.1218340396881104 5.113908767700195 1.0727044343948364 4456788 0 -1
-4.990407466888428 3.48488712310791 0 4456788 0 -1
-4.659000873565674 3.9069180488586426 0.27983593940734863 4456788 0 -1
-5.969132423400879 1.187166452407837 -0.09327864646911621 4456788 0 -1
-4.663384437561035 3.9105944633483887 -0.09327864646911621 4456788 0 -1
-4.430605411529541 4.173267841339111 -0.046639323234558105 4456788 0 -1
-4.6626996994018555 3.910020112991333 -0.13991796970367432 4456788 0 -1
-4.422403335571289 4.165542125701904 -0.37311458587646484 4456788 0 -1
-4.411965847015381 4.155710697174072 -0.5596718788146973 4456788 0 -1
-4.608609676361084 3.9585485458374023 -0.37311458587646484 4456788 0 -1
-4.426050662994385 4.1689772605896 -0.27983593940734863 4456788 0 -1
-4.6639323234558105 3.9110536575317383 0 4523353 0 -1
-4.430605411529541 4.173267841339111 -0.046639323234558105 4523353 0 -1
-4.663795471191406 3.9109387397766113 -0.046639323234558105 4657508 0 -1
-4.428654193878174 4.171429634094238 -0.18655729293823242 4657508 0 -1
-4.238754749298096 3.9925601482391357 1.772294282913208 4726897 0 -1
-4.637075901031494 3.982999563217163 -0.2813323736190796 4456788 0 -1
-4.45233678817749 4.193736553192139 -0.18755492568016052 4456788 0 -1
-4.6407575607299805 3.986161947250366 -0.1406661868095398 4456788 0 -1
-4.4511590003967285 4.192627429962158 -0.23444364964962006 4456788 0 -1
-4.637075901031494 3.982999563217163 -0.2813323736190796 4456788 0 -1
-4.449719429016113 4.1912713050842285 -0.2813323736190796 4456788 0 -1
-4.639803409576416 3.985342264175415 -0.18755492568016052 4523353 0 -1
-4.453906536102295 4.195215225219727 -0.09377746284008026 4523353 0 -1
2.921191453933716 5.410768508911133 0.18855255842208862 2199437 5 -1
2.9204189777374268 5.409337043762207 0.23569069802761078 2134668 5 -1
2.9204189777374268 5.409337043762207 0.23569069802761078 2070155 5 -1
2.9194743633270264 5.40758752822876 0.28282883763313293 2070922 5 -1
2.9204189777374268 5.409337043762207 0.23569069802761078 2006409 5 -1
2.9194743633270264 5.40758752822876 0.28282883763313293 2072968 5 -1
2.9183576107025146 5.405519008636475 0.3299669623374939 2139270 5 -1
2.935870885848999 5.437958240509033 0.2369377315044403 2264205 5 -1
2.935870885848999 5.437958240509033 0.2369377315044403 2199437 5 -1
2.9349212646484375 5.436199188232422 0.2843252718448639 2070155 5 -1
2.9349212646484375 5.436199188232422 0.2843252718448639 2070922 5 -1
2.9349212646484375 5.436199188232422 0.2843252718448639 2006409 5 -1
2.9337985515594482 5.434119701385498 0.33171284198760986 2072968 5 -1
2.9337985515594482 5.434119701385498 0.33171284198760986 2139270 5 -1
2.9337985515594482 5.434119701385498 0.33171284198760986 2271109 5 -1
2.9325027465820312 5.4317193031311035 0.37910038232803345 2666112 5 -1
2.9503681659698486 5.464810848236084 0.28582173585891724 2264205 5 -1
2.9503681659698486 5.464810848236084 0.28582173585891724 2199437 5 -1
