VERSION .7
FIELDS x y z rgb label object
SIZE 4 4 4 4 4 4
TYPE F F F I I I
COUNT 1 1 1 1 1 1
WIDTH 694
HEIGHT 1
POINTS 694
VIEWPOINT 0 0 0 1 0 0 0
DATA ascii
2.8425698280334473 3.663785219192505 0.6823806762695312 4456788 5 -1
3.421808958053589 3.1512198448181152 0.5746363401412964 4456788 0 -1
2.3692612648010254 4.0416741371154785 0.1436590850353241 4590430 0 -1
3.361686944961548 3.2376670837402344 0.4309772551059723 4590430 0 -1
2.7122340202331543 3.862361431121826 -0.03616417944431305 4456788 5 -1
2.748154878616333 3.836374521255493 -0.0723283588886261 4456788 5 -1
2.7483971118927 3.83671236038208 0.03616417944431305 4456788 5 -1
2.7122340202331543 3.862361431121826 0.03616417944431305 4456788 5 -1
2.711596727371216 3.8614540100097656 0.10849253833293915 4456788 5 -1
2.747751474380493 3.835811138153076 0.10849253833293915 4456788 5 -1
2.7483971118927 3.83671236038208 0.03616417944431305 4456788 5 -1
2.747751474380493 3.835811138153076 0.10849253833293915 4456788 5 -1
2.7471864223480225 3.835022449493408 0.1446567177772522 4456788 5 -1
2.747751474380493 3.835811138153076 0.10849253833293915 4456788 5 -1
2.7471864223480225 3.835022449493408 0.1446567177772522 4456788 5 -1
2.7464599609375 3.834007978439331 0.18082089722156525 4456788 5 -1
2.7464599609375 3.834007978439331 0.18082089722156525 4456788 5 -1
2.66283917427063 3.86828351020813 0.47013434767723083 4456788 5 -1
2.77801251411438 3.8015873432159424 0.32547762989997864 4456788 5 -1
2.7764551639556885 3.7994561195373535 0.3616417944431305 4456788 5 -1
2.768573045730591 3.788670063018799 0.5062985420227051 4456788 5 -1
2.772698163986206 3.719432830810547 0.8679403066635132 4456788 5 -1
2.6305909156799316 3.898345470428467 0.39780598878860474 4456788 5 -1
2.8107683658599854 3.7705023288726807 0.39780598878860474 4456788 5 -1
2.6607065200805664 3.865185260772705 0.5062985420227051 4456788 5 -1
2.658414125442505 3.8618550300598145 0.5424627065658569 4590430 5 -1
2.767432689666748 3.863285779953003 0 4456788 5 -1
2.767432689666748 3.863285779953003 0 4456788 5 -1
2.767432689666748 3.863285779953003 0 4456788 5 -1
2.7673513889312744 3.8631725311279297 0.036413587629795074 4456788 5 -1
2.7673513889312744 3.8631725311279297 0.036413587629795074 4456788 5 -1
2.7673513889312744 3.8631725311279297 0.036413587629795074 4456788 5 -1
2.7671077251434326 3.8628320693969727 0.07282717525959015 4456788 5 -1
2.7673513889312744 3.8631725311279297 0.036413587629795074 4456788 5 -1
2.7667014598846436 3.862265110015869 0.10924076288938522 4456788 5 -1
2.7667014598846436 3.862265110015869 0.10924076288938522 4456788 5 -1
2.7667014598846436 3.862265110015869 0.10924076288938522 4456788 5 -1
2.7667014598846436 3.862265110015869 0.10924076288938522 4456788 5 -1
2.7645065784454346 3.859200954437256 0.21848152577877045 4456788 5 -1
2.7938690185546875 3.823286294937134 0.4005494713783264 4456788 5 -1
2.7514631748199463 3.8409926891326904 0.5097902417182922 4456788 5 -1
2.79196834564209 3.820685386657715 0.4369630515575409 4456788 5 -1
2.7899010181427 3.817856550216675 0.47337666153907776 4456788 5 -1
2.830152988433838 3.7965056896209717 0.4005494713783264 4456788 5 -1
2.8067097663879395 3.7650580406188965 0.7282717823982239 4456788 5 -1
2.6688528060913086 3.877019166946411 0.6554446220397949 4456788 5 -1
2.8238701820373535 3.7880775928497314 0.5097902417182922 4456788 5 -1
2.7863876819610596 3.88974666595459 0 4456788 5 -1
2.7863876819610596 3.88974666595459 0 4456788 5 -1
2.7863059043884277 3.8896324634552 0.0366629958152771 4456788 5 -1
2.7863059043884277 3.8896324634552 0.0366629958152771 4456788 5 -1
2.7863059043884277 3.8896324634552 0.0366629958152771 4456788 5 -1
2.7863059043884277 3.8896324634552 0.0366629958152771 4456788 5 -1
2.7863059043884277 3.8896324634552 0.0366629958152771 4456788 5 -1
2.785078763961792 3.8879191875457764 0.1466519832611084 4456788 5 -1
2.7477059364318848 3.9128754138946533 0.1833149790763855 4456788 5 -1
2.785651445388794 3.888718843460083 0.1099889874458313 4456788 5 -1
2.8163299560546875 3.854022979736328 0.3299669623374939 4456788 5 -1
2.811091423034668 3.8468544483184814 0.4399559497833252 4456788 5 -1
2.8090100288391113 3.844006061553955 0.4766189455986023 4456788 5 -1
2.8796632289886475 3.7865772247314453 0.5132819414138794 4456788 5 -1
2.8841068744659424 3.7924203872680664 0.4399559497833252 4456788 5 -1
2.977633476257324 3.686769962310791 0.6599339246749878 4657508 5 -1
2.977633476257324 3.686769962310791 0.6599339246749878 4724328 5 -1
3.0070834159851074 3.6488168239593506 0.733259916305542 4664956 5 -1
3.043313503265381 3.618654489517212 0.733259916305542 4600703 5 -1
3.046879529953003 3.622894525527954 0.6965969204902649 4536450 5 -1
3.0502586364746094 3.6269125938415527 0.6599339246749878 4471684 5 -1
3.0502586364746094 3.6269125938415527 0.6599339246749878 4341894 5 -1
2.805013418197632 3.91574764251709 -0.07382480800151825 4456788 5 -1
2.805013418197632 3.91574764251709 0.07382480800151825 4456788 5 -1
2.805260419845581 3.91609263420105 0.036912404000759125 4456788 5 -1
2.805260419845581 3.91609263420105 0.036912404000759125 4456788 5 -1
2.805013418197632 3.91574764251709 0.07382480800151825 4456788 5 -1
2.7676987648010254 3.9413461685180664 0.11073721200227737 4456788 5 -1
2.76712965965271 3.9405357837677 0.1476496160030365 4456788 5 -1
2.7663979530334473 3.9394936561584473 0.18456202745437622 4456788 5 -1
2.8415040969848633 3.88847279548645 0.11073721200227737 4456788 5 -1
2.841921329498291 3.8890438079833984 -0.07382480800151825 4456788 5 -1
2.79709529876709 3.904694080352783 -0.36912405490875244 4456788 5 -1
2.8338990211486816 3.878065586090088 -0.36912405490875244 4456788 5 -1
2.997889518737793 3.7118499279022217 0.6644232869148254 4590430 5 -1
2.997889518737793 3.7118499279022217 0.6644232869148254 4657508 5 -1
2.997889518737793 3.7118499279022217 0.6644232869148254 4724328 5 -1
3.0310873985290527 3.677943468093872 0.7013356685638428 4600703 5 -1
3.0310873985290527 3.677943468093872 0.7013356685638428 4536450 5 -1
3.0275399684906006 3.6736388206481934 0.7382481098175049 4471684 5 -1
3.0310873985290527 3.677943468093872 0.7013356685638428 4341894 5 -1
3.0344491004943848 3.6820225715637207 0.6644232869148254 4212104 5 -1
3.0198848247528076 3.6643502712249756 0.8120729327201843 4147337 5 -1
3.0198848247528076 3.6643502712249756 0.8120729327201843 4017546 5 -1
2.810250759124756 3.9230592250823975 -0.48310357332229614 4456788 5 -1
2.70890736579895 4.014404773712158 0.26013270020484924 4456788 5 -1
2.670618772506714 4.037413120269775 0.2972944974899292 4456788 5 -1
2.6335268020629883 4.061704635620117 0.2972944974899292 4456788 5 -1
2.8213114738464355 3.9384994506835938 0.2229708731174469 4456788 5 -1
2.784188985824585 3.9648289680480957 0.2229708731174469 4456788 5 -1
2.7496511936187744 3.994394302368164 0.0743236243724823 4456788 5 -1
2.7870540618896484 3.96890926361084 -0.03716181218624115 4456788 5 -1
2.861375570297241 3.915666103363037 -0.03716181218624115 4456788 5 -1
2.8202321529388428 3.936992883682251 -0.26013270020484924 4456788 5 -1
2.854647397994995 3.906458854675293 -0.33445632457733154 4456788 5 -1
2.98445987701416 3.7703027725219727 0.6317508220672607 4456788 5 -1
3.0181455612182617 3.7369301319122314 0.6689126491546631 4657508 5 -1
3.051567792892456 3.702794313430786 0.7060744762420654 4600703 5 -1
3.0479962825775146 3.698460578918457 0.743236243724823 4536450 5 -1
3.0479962825775146 3.698460578918457 0.743236243724823 4471684 5 -1
3.0402896404266357 3.6891093254089355 0.8175598978996277 4147337 5 -1
3.0126047134399414 3.6555163860321045 1.040530800819397 4017546 0 -1
2.8972597122192383 3.886525869369507 0.1486472487449646 3107982 5 -1
3.0402896404266357 3.6891093254089355 -0.8175598978996277 3107982 0 -1
2.8160793781280518 3.9311957359313965 -0.6734020113945007 4456788 5 -1
2.784675121307373 3.9655215740203857 -0.5985795259475708 4456788 5 -1
2.6419267654418945 3.8379039764404297 -1.4590376615524292 4456788 0 -1
2.729736089706421 4.045271396636963 0.1496448814868927 4456788 5 -1
2.76712965965271 4.019785404205322 0.1496448814868927 4456788 5 -1
2.805100202560425 3.99460768699646 0.11223366111516953 4456788 5 -1
2.7676987648010254 4.020611763000488 0.11223366111516953 4456788 5 -1
2.7681052684783936 4.021202564239502 0.07482244074344635 4456788 5 -1
2.914989709854126 3.9103097915649414 0.22446732223033905 4456788 5 -1
2.8399312496185303 3.8096227645874023 -1.1223366260528564 4456788 0 -1
2.84116530418396 3.966215133666992 0.18705610930919647 4456788 5 -1
2.841917037963867 3.9672646522521973 -0.1496448814868927 4456788 5 -1
2.964294195175171 3.820675849914551 0.6734020113945007 4456788 5 -1
3.007449150085449 3.7993454933166504 0.5985795259475708 4456788 5 -1
3.0684525966644287 3.7232825756073 0.7482244372367859 4147337 5 -1
3.0103414058685303 3.6527700424194336 1.1971590518951416 4017546 0 -1
2.955486536026001 3.886280059814453 0 3107982 5 -1
2.9183342456817627 3.686765670776367 -1.4311039447784424 4456788 0 -1
2.8215606212615967 4.018048286437988 0.2259637713432312 4456788 5 -1
2.747934341430664 4.072239875793457 0.1506425142288208 4456788 5 -1
2.7855772972106934 4.046583652496338 0.1506425142288208 4456788 5 -1
2.852022886276245 3.981372117996216 0.4142669141292572 4456788 5 -1
2.8500826358795166 3.978663682937622 0.4519275426864624 4456788 5 -1
2.8614516258239746 3.9945342540740967 -0.1129818856716156 4456788 5 -1
2.9901223182678223 3.8539657592773438 0.6025700569152832 4456788 5 -1
2.9901223182678223 3.8539657592773438 0.6025700569152832 4456788 5 -1
2.98717999458313 3.850173234939575 0.6402307152748108 4456788 5 -1
2.98717999458313 3.850173234939575 0.6402307152748108 4456788 5 -1
2.984056234359741 3.846147060394287 0.6778913140296936 4664956 5 -1
3.018009662628174 3.8126864433288574 0.7155519723892212 4600703 5 -1
2.9467554092407227 3.8747994899749756 0.6778913140296936 3107982 5 -1
2.5772013664245605 4.221740245819092 0.11373011022806168 4456788 5 -1
2.6145637035369873 4.197505950927734 0.1516401469707489 4456788 5 -1
3.137282371520996 3.8068013191223145 -0.37910038232803345 4456788 5 -1
2.7667014598846436 4.100051403045654 0.11373011022806168 4456788 5 -1
2.8234076499938965 3.9414255619049072 0.985660970211029 4456788 5 -1
3.032001495361328 3.9079439640045166 -0.11373011022806168 4456788 5 -1
3.0153021812438965 3.8864200115203857 -0.53074049949646 4456788 5 -1
2.9776108264923096 3.915372371673584 -0.53074049949646 4456788 5 -1
2.880824565887451 4.021578788757324 -0.07582007348537445 4456788 5 -1
2.880824565887451 4.021578788757324 -0.07582007348537445 4456788 5 -1
2.918301582336426 3.9935667514801025 0.11373011022806168 4456788 5 -1
2.918301582336426 3.9935667514801025 0.11373011022806168 4456788 5 -1
2.9941015243530273 3.937056541442871 -0.11373011022806168 4456788 5 -1
2.8190274238586426 4.014441013336182 0.6444706320762634 4456788 5 -1
2.843618154525757 3.969639301300049 -0.7961108088493347 4456788 5 -1
3.000490188598633 3.8673288822174072 0.7202907204627991 4456788 5 -1
2.3764538764953613 4.311331748962402 -0.4928304851055145 4536450 0 -1
3.1308834552764893 3.799036741256714 0.4928304851055145 4536450 5 -1
2.5339255332946777 4.235658645629883 -0.3411903381347656 7589974 5 -1
2.729442596435547 4.126342296600342 0.037910036742687225 7589974 5 -1
3.0778210163116455 3.888247013092041 -0.457913339138031 4456788 5 -1
3.043780565261841 3.923125982284546 0.3815944492816925 4456788 5 -1
3.319871664047241 3.7120862007141113 0 4456788 0 -1
2.6302175521850586 4.222637176513672 0.2289566695690155 4456788 5 -1
3.012382984161377 3.9610955715179443 0.19079722464084625 4456788 5 -1
3.2007791996002197 3.805889368057251 -0.26711612939834595 4456788 5 -1
3.3579325675964355 3.6774942874908447 -0.03815944492816925 4456788 0 -1
2.9510767459869385 3.9587185382843018 -0.6487105488777161 4456788 5 -1
2.9756503105163574 3.991683006286621 -0.11447833478450775 4456788 5 -1
2.9742515087127686 3.989806652069092 -0.19079722464084625 4456788 5 -1
3.012382984161377 3.9610955715179443 -0.19079722464084625 4456788 5 -1
3.0131800174713135 3.9621434211730957 -0.152637779712677 4456788 5 -1
2.9764368534088135 3.9927380084991455 0 4456788 5 -1
2.9756503105163574 3.991683006286621 0.11447833478450775 4456788 5 -1
2.9750382900238037 3.9908621311187744 -0.152637779712677 4456788 5 -1
2.7423131465911865 4.1458001136779785 0.305275559425354 4456788 5 -1
2.899777412414551 4.048036575317383 0.0763188898563385 4456788 5 -1
2.83146595954895 4.032154083251953 -0.725029468536377 4456788 5 -1
2.740939140319824 4.1437225341796875 0.34343501925468445 5949540 5 -1
2.5178580284118652 4.295162200927734 -0.11447833478450775 8180304 5 -1
2.401503086090088 4.356775760650635 -0.2289566695690155 13164576 0 -1
2.66731595993042 4.197047233581543 0.26711612939834595 13164576 5 -1
3.580242395401001 3.4481594562530518 0.305275559425354 13164576 0 -1
2.978602886199951 3.9956436157226562 -0.537723958492279 4456788 5 -1
2.66802978515625 4.1149187088012695 -1.037039041519165 4456788 0 -1
3.0214452743530273 3.9730119705200195 -0.4609062373638153 4456788 5 -1
2.9915781021118164 4.013049125671387 -0.2688619792461395 4456788 5 -1
3.0328738689422607 3.98803973197937 -0.1536354124546051 4456788 5 -1
2.9950990676879883 4.017772197723389 -0.11522655934095383 4456788 5 -1
2.9950990676879883 4.017772197723389 -0.11522655934095383 4456788 5 -1
2.995802640914917 4.018716335296631 -0.038408853113651276 4456788 5 -1
2.9950990676879883 4.017772197723389 -0.11522655934095383 4456788 5 -1
2.9958906173706055 4.018834114074707 0 4456788 5 -1
3.0334975719451904 3.9888598918914795 -0.11522655934095383 4456788 5 -1
2.99448299407959 4.016946315765381 -0.1536354124546051 4456788 5 -1
2.99448299407959 4.016946315765381 -0.1536354124546051 4456788 5 -1
2.3756797313690186 4.400345802307129 -0.3456796705722809 8705099 0 -1
2.6502108573913574 4.254734992980957 0 8705099 5 -1
2.6502108573913574 4.254734992980957 0 8705099 5 -1
3.015255928039551 4.044811725616455 0.0386582612991333 4456788 5 -1
2.983217716217041 4.001834392547607 -0.7345069646835327 4456788 5 -1
2.7021830081939697 4.25191068649292 0.2706078290939331 4456788 5 -1
2.700989246368408 4.250032424926758 0.3092660903930664 4456788 5 -1
2.923295259475708 3.9214515686035156 -1.2370643615722656 4456788 0 -1
2.703217029571533 4.253537654876709 0.2319495677947998 4456788 5 -1
2.8137564659118652 4.169783592224121 0.386582612991333 4456788 5 -1
3.053913116455078 4.015705108642578 -0.0386582612991333 4456788 5 -1
3.0496065616607666 4.010042190551758 -0.2706078290939331 4456788 5 -1
3.01454758644104 4.0438618659973145 -0.1159747838973999 4456788 5 -1
3.015255928039551 4.044811725616455 -0.0386582612991333 4456788 5 -1
3.0149903297424316 4.044455528259277 -0.0773165225982666 4456788 5 -1
3.01454758644104 4.0438618659973145 -0.1159747838973999 4456788 5 -1
3.015255928039551 4.044811725616455 -0.0386582612991333 4456788 5 -1
3.01454758644104 4.0438618659973145 -0.1159747838973999 4456788 5 -1
2.9766862392425537 4.073463439941406 0 4456788 5 -1
3.015255928039551 4.044811725616455 -0.0386582612991333 4456788 5 -1
3.01454758644104 4.0438618659973145 -0.1159747838973999 4456788 5 -1
3.002570629119873 4.027795314788818 0.4638991355895996 4456788 5 -1
3.1268117427825928 3.9501373767852783 0.2706078290939331 4456788 5 -1
3.1676502227783203 3.922039747238159 0.1932913064956665 4456788 5 -1
2.971088171005249 4.065803050994873 0.3092660903930664 2006409 5 -1
2.97329044342041 4.068816661834717 -0.6225227117538452 4456788 5 -1
3.0197043418884277 4.050779342651367 -0.5057997107505798 4456788 5 -1
2.9739632606506348 3.98941969871521 -1.0115994215011597 4456788 0 -1
2.6826581954956055 4.306827068328857 0.19453835487365723 4456788 5 -1
2.4889209270477295 4.423156261444092 -0.1556306779384613 4456788 5 -1
2.9444563388824463 4.11040735244751 0.4668920338153839 4456788 5 -1
2.717052936553955 4.275308609008789 0.35016903281211853 4456788 5 -1
2.717052936553955 4.275308609008789 0.35016903281211853 4456788 5 -1
2.759523630142212 4.256030082702637 0.23344601690769196 4456788 5 -1
2.8261334896087646 4.1881256103515625 0.5057997107505798 4456788 5 -1
2.9955387115478516 4.099262714385986 0.07781533896923065 4456788 5 -1
3.0344419479370117 4.070549011230469 -0.07781533896923065 4456788 5 -1
3.0347983837127686 4.071026802062988 0 4456788 5 -1
2.9562015533447266 4.126803874969482 0.11672300845384598 4456788 5 -1
3.1125221252441406 4.0117268562316895 -0.038907669484615326 4456788 5 -1
2.983199119567871 4.082376003265381 0.4668920338153839 4456788 5 -1
3.014686107635498 4.044047832489014 0.5836150646209717 4456788 5 -1
3.148188829421997 3.9771435260772705 0.23344601690769196 4456788 5 -1
3.10520339012146 4.002293586730957 0.35016903281211853 4456788 5 -1
3.1440184116363525 3.971874952316284 0.35016903281211853 4456788 5 -1
3.145594596862793 3.9738659858703613 0.3112613558769226 4456788 5 -1
3.145594596862793 3.9738659858703613 0.3112613558769226 4456788 5 -1
3.145594596862793 3.9738659858703613 0.3112613558769226 4456788 5 -1
3.025062084197998 4.057966709136963 -0.7048274278640747 4456788 5 -1
2.7344698905944824 4.302714824676514 0.35241371393203735 4456788 5 -1
3.0142982006073 4.124934196472168 -0.11747123301029205 4456788 5 -1
2.697949171066284 4.331375598907471 0.27409955859184265 4456788 5 -1
2.698981523513794 4.333033084869385 0.2349424660205841 4456788 5 -1
2.7344698905944824 4.302714824676514 0.35241371393203735 4456788 5 -1
2.7344698905944824 4.302714824676514 0.35241371393203735 4456788 5 -1
2.9505820274353027 4.118958950042725 0.6656703352928162 4456788 5 -1
3.119295835494995 4.0204572677612305 0.4698849320411682 4456788 5 -1
3.131094455718994 4.0356645584106445 0.1566283106803894 4456788 5 -1
3.1683695316314697 4.00263786315918 0.2349424660205841 4456788 5 -1
3.1671576499938965 4.0011067390441895 0.27409955859184265 4456788 5 -1
3.1657586097717285 3.9993395805358887 0.3132566213607788 4456788 5 -1
3.1657586097717285 3.9993395805358887 0.3132566213607788 4456788 5 -1
3.16239857673645 3.9950947761535645 0.3915707767009735 4456788 5 -1
3.0114097595214844 4.120981216430664 -0.63050377368927 4456788 5 -1
2.7125742435455322 4.354855537414551 0.3546583652496338 4456788 5 -1
2.7151334285736084 4.358963966369629 0.27584540843963623 4456788 5 -1
2.7151334285736084 4.358963966369629 0.27584540843963623 4456788 5 -1
2.7532665729522705 4.332291126251221 0.315251886844635 4456788 5 -1
2.7532665729522705 4.332291126251221 0.315251886844635 4456788 5 -1
2.902825355529785 3.9723880290985107 -1.4974465370178223 4456788 0 -1
3.102034568786621 4.078981876373291 0.43347135186195374 4456788 5 -1
3.1479809284210205 4.057429313659668 0.27584540843963623 4456788 5 -1
3.1432507038116455 4.051332473754883 0.39406487345695496 4456788 5 -1
3.1479809284210205 4.057429313659668 0.27584540843963623 4456788 5 -1
3.1825413703918457 4.020541191101074 0.39406487345695496 4456788 5 -1
3.1450138092041016 4.053605079650879 0.3546583652496338 4456788 5 -1
3.187330722808838 4.026591777801514 0.27584540843963623 4456788 5 -1
3.2236390113830566 3.9913628101348877 0.3546583652496338 4456788 5 -1
2.733363389968872 4.388230800628662 0.2379353642463684 4456788 5 -1
2.6915297508239746 4.409022808074951 0.3172471523284912 4456788 5 -1
2.7323179244995117 4.386552333831787 0.2775912582874298 4456788 5 -1
2.772977352142334 4.363306522369385 0.2379353642463684 4456788 5 -1
2.8148245811462402 4.341320991516113 0.1189676821231842 4456788 5 -1
2.8102736473083496 4.3343024253845215 0.3172471523284912 4456788 5 -1
2.7969093322753906 4.313690662384033 0.5948384404182434 4456788 5 -1
2.860685110092163 4.239328384399414 0.793117880821228 4456788 5 -1
3.0917065143585205 4.147366523742676 0.1586235761642456 4456788 5 -1
3.123605251312256 4.107346057891846 0.396558940410614 4456788 5 -1
2.9488511085510254 4.199316501617432 0.6741502285003662 4456788 5 -1
3.161182403564453 4.074444770812988 0.4362148344516754 4456788 5 -1
2.746910810470581 4.409980297088623 0.35914772748947144 4456788 5 -1
2.7084574699401855 4.4367523193359375 0.3192424178123474 4456788 5 -1
2.749502182006836 4.414140701293945 0.2793371081352234 4456788 5 -1
2.746910810470581 4.409980297088623 0.35914772748947144 4456788 5 -1
2.7930431365966797 4.394880294799805 0.07981060445308685 4456788 5 -1
2.9575445652008057 4.211696624755859 0.7981060743331909 4456788 5 -1
3.1152803897857666 4.096399307250977 0.7981060743331909 4456788 5 -1
3.0127041339874268 4.2056803703308105 0.5985795259475708 4456788 5 -1
2.7253854274749756 4.464482307434082 0.3212376832962036 4456788 5 -1
2.8078575134277344 4.418190956115723 0.2409282624721527 4456788 5 -1
2.724019765853882 4.462244987487793 0.36139240860939026 4456788 5 -1
2.985943555831909 4.252138137817383 0.6826300621032715 4456788 5 -1
2.7838709354400635 4.469317436218262 0.28282883763313293 4456788 5 -1
2.7838709354400635 4.469317436218262 0.28282883763313293 4456788 5 -1
2.740939140319824 4.48996114730835 0.3636370599269867 4456788 5 -1
2.740939140319824 4.48996114730835 0.3636370599269867 4456788 5 -1
2.740939140319824 4.48996114730835 0.3636370599269867 4456788 5 -1
2.7796878814697266 4.462601661682129 0.40404120087623596 4456788 5 -1
2.8470518589019775 4.391025543212891 0.6464658975601196 4456788 5 -1
2.796846389770508 4.490148544311523 0.406535267829895 4456788 5 -1
2.801055431365967 4.49690580368042 0.2845746874809265 4456788 5 -1
2.756312608718872 4.515144348144531 0.406535267829895 4456788 5 -1
2.835620403289795 4.461875915527344 0.4471887946128845 4456788 5 -1
2.798415184020996 4.492667198181152 0.3658817410469055 4456788 5 -1
2.907655954360962 4.395763397216797 0.6098029017448425 4456788 5 -1
2.9228403568267822 4.4187188148498535 0.2845746874809265 4456788 5 -1
2.904973268508911 4.391707420349121 0.650456428527832 4456788 5 -1
3.0601396560668945 4.271899223327637 0.731763482093811 4456788 5 -1
-4.593308925628662 2.654045581817627 0.081307053565979 4456788 0 -1
-3.3693854808807373 4.088436603546143 -0.2845746874809265 4523353 0 -1
4.826446533203125 2.0634541511535645 0.7724170088768005 4724328 0 -1
2.8169949054718018 4.522495746612549 0.3272234797477722 4456788 5 -1
2.8155834674835205 4.520229816436768 0.36812642216682434 4456788 5 -1
2.857820987701416 4.4968085289001465 0.3272234797477722 4456788 5 -1
2.856389045715332 4.494555473327637 0.36812642216682434 4456788 5 -1
2.932535409927368 4.433375835418701 0.4908352196216583 4456788 5 -1
2.9428491592407227 4.448967933654785 0.20451468229293823 4456788 5 -1
2.938000202178955 4.4416375160217285 0.36812642216682434 4456788 5 -1
3.088021755218506 4.310822486877441 0.6135440468788147 4456788 5 -1
2.9432449340820312 4.1087164878845215 -1.7179232835769653 4456788 0 -1
-3.513932943344116 4.010928630828857 -0.24541760981082916 4456788 0 -1
-3.596815586090088 3.9391109943389893 -0.20451468229293823 4456788 0 -1
-3.267524480819702 4.2115092277526855 0.2863205373287201 4456788 0 -1
-3.716809034347534 3.820844888687134 -0.2863205373287201 4456788 0 -1
-3.267524480819702 4.2115092277526855 0.2863205373287201 4456788 0 -1
-4.018843173980713 3.4519708156585693 0.6544469594955444 4456788 0 -1
-3.5500833988189697 3.9694955348968506 -0.36812642216682434 4456788 0 -1
-4.620810508728027 2.669935941696167 0.12270880490541458 4456788 0 -1
-3.5206410884857178 3.9365744590759277 0.7771557569503784 4456788 0 -1
-3.384962558746338 4.107337951660156 -0.40902936458587646 4456788 0 -1
-3.3524649143218994 4.150868892669678 0.1636117398738861 4590430 0 -1
-4.452002048492432 2.9314165115356445 -0.2863205373287201 4724328 0 -1
-3.5150699615478516 4.012226581573486 -0.20451468229293823 4724328 0 -1
-3.839341163635254 3.697699785232544 -0.2863205373287201 4728182 0 -1
5.010375022888184 1.5035498142242432 -1.063476324081421 4728182 0 -1
-3.5581374168395996 3.9785008430480957 -0.08180586993694305 4664956 0 -1
-2.6586127281188965 4.628780364990234 -0.04090293496847153 4664956 0 -1
-3.4763412475585938 4.050168514251709 -0.08180586993694305 4536450 0 -1
-3.1790759563446045 4.264567852020264 0.4499322772026062 4536450 0 -1
-2.4950058460235596 4.718980312347412 0.04090293496847153 4536450 0 -1
2.223087787628174 4.7837395668029785 -0.8180587291717529 4536450 0 -1
3.0446419715881348 4.084231853485107 -1.5952144861221313 4536450 0 -1
2.87219500541687 4.519426345825195 0.4115234315395355 4456788 5 -1
2.914860486984253 4.495606899261475 0.37037110328674316 4456788 5 -1
2.7822113037109375 4.55756950378418 0.5761328339576721 4456788 5 -1
2.952425241470337 4.463444709777832 0.45267578959465027 4456788 5 -1
2.9163217544555664 4.497860908508301 0.3292187452316284 4456788 5 -1
2.911419153213501 4.490299701690674 0.45267578959465027 4456788 5 -1
2.9163217544555664 4.497860908508301 0.3292187452316284 4456788 5 -1
-3.5735208988189697 3.995701789855957 -0.3292187452316284 4456788 0 -1
-4.646800518035889 2.684953451156616 0.20576171576976776 4456788 0 -1
-3.4907429218292236 3.903144359588623 1.1934179067611694 4456788 0 -1
2.846555233001709 4.569952964782715 0.45541927218437195 4456788 5 -1
2.8912229537963867 4.5493669509887695 0.3726157546043396 4456788 5 -1
2.9290642738342285 4.517513751983643 0.45541927218437195 4456788 5 -1
2.930882215499878 4.520317554473877 0.41401752829551697 4456788 5 -1
-4.7175822257995605 2.6290199756622314 0.1656070053577423 4456788 0 -1
-3.542841911315918 4.04392671585083 -0.5382227897644043 4456788 0 -1
2.908640146255493 4.576772689819336 0.3748604357242584 4456788 5 -1
2.908640146255493 4.576772689819336 0.3748604357242584 4456788 5 -1
2.9529755115509033 4.554392337799072 0.2915581166744232 4456788 5 -1
2.8159351348876953 4.6128129959106445 0.5831162333488464 4456788 5 -1
2.9882121086120605 4.517547130584717 0.45816275477409363 4456788 5 -1
2.9516711235046387 4.552380561828613 0.3332092761993408 4456788 5 -1
-3.8725342750549316 3.812534809112549 -0.12495347857475281 4456788 0 -1
2.9260571002960205 4.6041789054870605 0.37710511684417725 4456788 5 -1
2.9260571002960205 4.6041789054870605 0.37710511684417725 4456788 5 -1
2.9244167804718018 4.601597785949707 0.41900569200515747 4456788 5 -1
2.8350677490234375 4.644154071807861 0.5447073578834534 4456788 5 -1
3.0529892444610596 4.524309158325195 0.335204541683197 4456788 5 -1
-4.476388931274414 2.857917308807373 -1.4330991506576538 4456788 0 -1
-4.5123677253723145 2.880887746810913 -1.3991796970367432 4456788 0 -1
-3.8128397464752197 4.533660411834717 0.04539228230714798 4523353 0 -1
-4.013519763946533 4.395471096038818 -0.22820845246315002 4456788 0 -1
-3.831087112426758 4.555357456207275 0.22820845246315002 4456788 0 -1
-3.833451747894287 4.558168888092041 -0.09128338098526001 4456788 0 -1
-3.7878153324127197 4.596162796020508 -0.09128338098526001 4456788 0 -1
-3.788149118423462 4.596567630767822 -0.045641690492630005 4523353 0 -1
-3.5562875270843506 4.770577907562256 0.27385014295578003 4590430 0 -1
-3.4969308376312256 4.785395622253418 0.5933419466018677 4657508 0 -1
-3.7186193466186523 4.604224681854248 0.9178219437599182 4456788 0 -1
-3.57572078704834 4.796646595001221 -0.275346577167511 4456788 0 -1
-3.8089611530303955 4.62182092666626 0 4456788 0 -1
-3.762075662612915 4.6580305099487305 -0.1376732885837555 4456788 0 -1
-3.803478240966797 4.61516809463501 0.3212376832962036 4523353 0 -1
-3.57572078704834 4.796646595001221 -0.275346577167511 4523353 0 -1
-3.5794005393981934 4.801583290100098 0.04589109867811203 4590430 0 -1
-3.5768775939941406 4.798198699951172 0.22945548593997955 4657508 0 -1
-3.5252020359039307 4.82408332824707 0.41301989555358887 4724328 0 -1
-3.7817440032958984 4.682382583618164 -0.18456202745437622 4456788 0 -1
-3.592191457748413 4.818741321563721 -0.36912405490875244 4456788 0 -1
-3.7835214138031006 4.68458366394043 0 4523353 0 -1
-3.595154047012329 4.8227152824401855 0.27684304118156433 4523353 0 -1
-3.206878900527954 5.699066638946533 -0.20052415132522583 4456788 0 -1
-2.750643014907837 5.918956756591797 0.4511793255805969 4456788 0 -1
-4.657256603240967 4.585099220275879 -0.30078622698783875 4456788 0 -1
-3.9962117671966553 5.1507134437561035 -0.5514414310455322 4456788 0 -1
-3.458127498626709 5.551790714263916 -0.15039311349391937 4456788 0 -1
-4.698463439941406 4.525126934051514 -0.5013103485107422 4456788 0 -1
-3.940654754638672 5.18171501159668 -0.6517034769058228 4456788 0 -1
-4.002941131591797 5.15938663482666 0.40104830265045166 4456788 0 -1
-3.9374985694885254 5.177565097808838 0.701834499835968 4456788 0 -1
-3.9266085624694824 5.16324520111084 0.8522276282310486 4456788 0 -1
-3.9341061115264893 5.1731038093566895 0.7519655227661133 4523353 0 -1
-4.30316162109375 4.911782264709473 0.40104830265045166 4657508 0 -1
-3.1022791862487793 5.746187210083008 0.40104830265045166 4657508 0 -1
-4.206554412841797 5.00180721282959 0.30078622698783875 4724328 0 -1
-3.9631943702697754 5.211353302001953 0.6045653223991394 4456788 0 -1
-3.946143865585327 5.1889328956604 0.8564675450325012 4456788 0 -1
-4.000030994415283 5.155636310577393 0.8060871362686157 4456788 0 -1
-4.003725051879883 5.160397529602051 0.7557066679000854 4523353 0 -1
-3.9960951805114746 5.1505632400512695 0.8564675450325012 4590430 0 -1
-4.061823844909668 5.131349563598633 0.9113373756408691 4456788 0 -1
-3.8690896034240723 5.294678211212158 0.8100776672363281 4456788 0 -1
-3.896667003631592 5.332417011260986 0.20251941680908203 4456788 0 -1
-4.052575588226318 5.119665622711182 1.0125970840454102 4523353 0 -1
-3.820349931716919 5.227980136871338 1.3163762092590332 4523353 0 -1
-4.111408710479736 5.193990230560303 0.457913339138031 4456788 0 -1
-3.901106595993042 5.338491916656494 0.610551118850708 4456788 0 -1
-4.038606643676758 5.1020188331604 1.322860836982727 4456788 0 -1
-4.113470077514648 5.19659423828125 -0.40703409910202026 4456788 0 -1
-3.9148268699645996 5.357267379760742 0.25439631938934326 4456788 0 -1
-3.9822797775268555 5.132756233215332 1.3737400770187378 4523353 0 -1
-4.037881374359131 5.101102352142334 1.4827314615249634 4456788 0 -1
-4.037881374359131 5.101102352142334 1.4827314615249634 4523353 0 -1
-4.014532566070557 5.174327373504639 1.4385861158370972 4523353 0 -1
-4.560543537139893 5.646656513214111 -0.05561801418662071 4456788 0 -1
-4.578976631164551 5.669479846954346 -0.22346968948841095 4456788 0 -1
-6.533427715301514 2.9418187141418457 1.515154480934143 4456788 0 -1
-6.237377643585205 3.475973606109619 -1.6273881196975708 4456788 0 -1
-4.489346504211426 5.786314487457275 0 4456788 0 -1
-4.734625339508057 5.6297101974487305 0.05636623874306679 4456788 0 -1
-4.509166717529297 5.81186056137085 0.05636623874306679 4456788 0 -1
-4.7876129150390625 5.577887058258057 -0.28183120489120483 4657508 0 -1
-5.011291027069092 5.374576568603516 -0.3381974399089813 4724328 0 -1
-4.734625339508057 5.6297101974487305 0.05636623874306679 4724328 0 -1
-4.3186140060424805 5.90983247756958 0.7327611446380615 4724328 0 -1
-4.924259662628174 5.506019115447998 -0.16984695196151733 4456788 0 -1
-4.755574703216553 5.654620170593262 -0.05661564692854881 4456788 0 -1
-4.274273872375488 5.966808795928955 0.8492347002029419 4456788 0 -1
-3.3378708362579346 6.585735321044922 0.28307825326919556 4456788 0 -1
-4.75515604019165 5.654122352600098 0.11323129385709763 4456788 0 -1
-4.529252052307129 5.837748050689697 0 4456788 0 -1
-4.978519439697266 5.452305793762207 -0.28307825326919556 4724328 0 -1
-4.349026679992676 5.951450824737549 0.509540855884552 4724328 0 -1
-4.5794901847839355 5.785323143005371 0.7961108088493347 4456788 0 -1
-4.776524543762207 5.679530620574951 0.05686505511403084 4456788 0 -1
-4.489041328430176 5.902809143066406 -0.2843252718448639 4456788 0 -1
-3.8298680782318115 6.273746967315674 1.0235710144042969 4657508 0 -1
-4.776664733886719 5.679697036743164 0 4724328 0 -1
-4.435344219207764 5.949787616729736 0.05686505511403084 4724328 0 -1
-4.739247798919678 5.750637531280518 0.1713433861732483 4456788 0 -1
-4.507271766662598 5.926780700683594 -0.3426867723464966 4456788 0 -1
-4.281572341918945 6.097180366516113 0.22845785319805145 4590430 0 -1
-4.761061668395996 5.777106761932373 0.05736387148499489 4456788 0 -1
-4.471096992492676 5.997748374938965 -0.28681936860084534 4456788 0 -1
-4.491724491119385 6.025419235229492 -0.23045311868190765 4456788 0 -1
-3.061061382293701 7.046322345733643 2.138674736022949 4456788 0 -1
-4.396921157836914 6.138021945953369 -2.5664098262786865 4456788 0 -1
2.9870166778564453 7.373600006103516 0.5499449372291565 4456788 0 -1
-2.8495943546295166 7.3816633224487305 -1.2270880937576294 4456788 0 -1
-2.730585813522339 7.249785900115967 -2.02469539642334 4456788 0 -1
-3.8048272132873535 6.902667999267578 -1.4111512899398804 4456788 0 -1
-2.404980182647705 7.469018936157227 -1.5952144861221313 4456788 0 -1
-2.837128162384033 7.173161506652832 -2.147404193878174 4456788 0 -1
-1.087093472480774 7.806520462036133 1.4111512899398804 3107982 0 -1
-3.026702404022217 7.129331111907959 -2.1561334133148193 4456788 0 -1
-3.138472318649292 7.392602443695068 -0.3696228563785553 4456788 4 -1
-4.12900447845459 6.628838539123535 -1.9097181558609009 4456788 0 -1
-2.3712408542633057 7.572371482849121 -1.2936800718307495 4456788 0 -1
-4.031341075897217 6.738708019256592 -1.7249066829681396 4456788 0 -1
-2.435045003890991 7.562390327453613 -1.2320761680603027 4456788 0 -1
-2.9578490257263184 6.967148303985596 2.7105677127838135 4456788 0 -1
-4.3718156814575195 6.742678165435791 0.24641524255275726 3302798 0 -1
-2.6411759853363037 7.568480014801025 0.6160380840301514 3302798 0 -1
-1.476363182067871 7.8912353515625 0.4312266707420349 3302798 0 -1
-4.979220867156982 6.165043830871582 -1.3552838563919067 3238030 0 -1
-3.5826101303100586 7.068614482879639 -1.3552838563919067 3238030 0 -1
-3.1898276805877686 7.3427324295043945 -0.7392457127571106 3238030 4 -1
-1.9564509391784668 7.735500812530518 -0.985660970211029 3238030 0 -1
-3.0787434577941895 7.42279052734375 0.24641524255275726 3107982 4 -1
-2.7623069286346436 7.519818305969238 0.6776419281959534 3107982 0 -1
-4.434953689575195 6.704715251922607 0.12320762127637863 2912910 0 -1
-3.141425371170044 7.3995585441589355 -0.12320762127637863 2912910 4 -1
-2.699084997177124 7.536952972412109 0.7392457127571106 2912910 0 -1
-3.496541738510132 7.201729774475098 -0.7392457127571106 2134668 0 -1
-3.3262150287628174 7.318354606628418 -0.12320762127637863 5949540 4 -1
-2.986161947250366 7.199578285217285 1.971321940422058 12640037 0 -1
-3.002692461013794 7.0727763175964355 2.4741287231445312 4456788 0 -1
-3.154143810272217 7.429516315460205 -0.12370643764734268 4456788 4 -1
-3.1536805629730225 7.428425312042236 -0.18555966019630432 4456788 4 -1
-3.153032064437866 7.426898002624512 -0.24741287529468536 4456788 4 -1
-3.154143810272217 7.429516315460205 -0.12370643764734268 4456788 4 -1
-3.1470041275024414 7.412699222564697 -0.5566789507865906 4456788 4 -1
-3.1470041275024414 7.412699222564697 -0.5566789507865906 4456788 4 -1
-2.9667747020721436 7.500949382781982 -0.3092660903930664 3302798 4 -1
-2.6593761444091797 7.620633602142334 0.12370643764734268 3302798 0 -1
-4.205524921417236 6.8891143798828125 0.12370643764734268 3238030 0 -1
-3.686598539352417 7.121082782745361 0.9277982711791992 3238030 0 -1
-2.403691530227661 7.676000595092773 0.680385410785675 3238030 0 -1
-1.9483228921890259 7.70336389541626 1.4226239919662476 3238030 0 -1
-2.9067599773406982 7.5297465324401855 -0.12370643764734268 2523534 4 -1
-4.4513397216796875 6.729487419128418 -0.24741287529468536 2134668 0 -1
-3.0285825729370117 7.476207733154297 -0.3092660903930664 2134668 4 -1
-2.6558597087860107 7.610557556152344 0.4329725205898285 2134668 0 -1
-3.206911325454712 7.3820576667785645 -0.6185321807861328 3257723 4 -1
-3.228957414627075 7.432806015014648 -0.12420525401830673 4456788 4 -1
-2.980926036834717 7.536728382110596 0 4456788 4 -1
-3.0415990352630615 7.5083394050598145 -0.24841050803661346 4456788 4 -1
-3.100661516189575 7.475634574890137 -0.43471840023994446 4456788 4 -1
-3.103672504425049 7.482894420623779 -0.24841050803661346 4456788 4 -1
-3.1638848781585693 7.4524617195129395 -0.3726157546043396 4456788 4 -1
-3.1649086475372314 7.454873085021973 -0.31051313877105713 4456788 4 -1
-3.1663970947265625 7.458378791809082 -0.1863078773021698 4456788 4 -1
-3.165745973587036 7.456845283508301 -0.24841050803661346 4456788 4 -1
-3.159693717956543 7.442589282989502 -0.5589236617088318 4456788 4 -1
-3.1514813899993896 7.423245429992676 -0.8073341250419617 4456788 4 -1
-3.159693717956543 7.442589282989502 -0.5589236617088318 4456788 4 -1
-3.15596342086792 7.433803081512451 -0.6831288933753967 4456788 4 -1
-2.979525566101074 7.533187389373779 -0.24841050803661346 3302798 4 -1
-4.758119106292725 6.511275768280029 -0.8073341250419617 3238030 0 -1
-2.7945361137390137 7.607555866241455 0.062102627009153366 3238030 4 -1
-2.4117422103881836 7.701709270477295 0.7452315092086792 3238030 0 -1
-2.977774143218994 7.528759002685547 -0.3726157546043396 2523534 4 -1
-2.6070849895477295 7.670045375823975 0.24841050803661346 2523534 0 -1
-3.2836034297943115 7.388758182525635 -0.5589236617088318 2199437 4 -1
-3.0357842445373535 7.493985176086426 -0.5589236617088318 2134668 4 -1
-3.1167778968811035 7.514491081237793 -0.18705610930919647 4456788 4 -1
-3.1175103187561035 7.516256809234619 -0.06235203519463539 4456788 4 -1
-3.1175103187561035 7.516256809234619 -0.06235203519463539 4456788 4 -1
-3.1176018714904785 7.516477108001709 0 4456788 4 -1
-3.1175103187561035 7.516256809234619 0.06235203519463539 4456788 4 -1
-3.177619218826294 7.484812259674072 -0.31176018714904785 4456788 4 -1
-3.170604944229126 7.468290328979492 -0.6235203742980957 4456788 4 -1
-3.1798603534698486 7.490091800689697 -0.06235203519463539 4456788 4 -1
-3.1616039276123047 7.447088718414307 -0.8729285001754761 4456788 4 -1
-3.1559653282165527 7.433806896209717 -0.9976325631141663 4456788 4 -1
-3.1753761768341064 7.47952938079834 -0.43646425008773804 4456788 4 -1
-3.168637990951538 7.463657379150391 -0.6858723759651184 4456788 4 -1
-3.1495625972747803 7.418725490570068 -1.1223366260528564 4456788 0 -1
-3.1791136264801025 7.488332271575928 -0.18705610930919647 4456788 4 -1
-2.8668460845947266 7.611560821533203 -0.24940814077854156 4456788 4 -1
-2.8681094646453857 7.614915370941162 -0.06235203519463539 4456788 4 -1
-3.176591396331787 7.482391357421875 -0.37411221861839294 4456788 4 -1
-2.8668460845947266 7.611560821533203 -0.24940814077854156 4456788 4 -1
-3.152859687805176 7.426491737365723 -1.059984564781189 4456788 0 -1
-3.067380666732788 7.5719828605651855 -0.06260144710540771 4456788 4 -1
-3.1299803256988525 7.546321868896484 -0.06260144710540771 4456788 4 -1
-3.1299803256988525 7.546321868896484 0.06260144710540771 4456788 4 -1
-3.1300721168518066 7.546543121337891 0 4456788 4 -1
-3.1299803256988525 7.546321868896484 -0.06260144710540771 4456788 4 -1
-3.192298650741577 7.519389629364014 -0.12520289421081543 4456788 4 -1
-2.942267894744873 7.621727466583252 0 4456788 4 -1
-3.191173553466797 7.516739368438721 0.25040578842163086 4456788 4 -1
-3.1918299198150635 7.518285751342773 -0.18780432641506195 4456788 4 -1
-2.879581928253174 7.645374774932861 0.06260144710540771 4456788 4 -1
-3.1510696411132812 7.422275543212891 -1.3146302700042725 4456788 0 -1
-2.8783135414123535 7.642007350921631 -0.25040578842163086 4456788 4 -1
-2.879666328430176 7.645599365234375 0 4456788 4 -1
-2.94922137260437 7.456569194793701 1.5650360584259033 2912910 0 -1
-3.301374673843384 7.428747653961182 -0.8138187527656555 2458766 4 -1
-3.142542600631714 7.576609134674072 0 4456788 4 -1
-3.079601287841797 7.602149963378906 0.06285085529088974 4456788 4 -1
-3.079601287841797 7.602149963378906 0.06285085529088974 4456788 4 -1
-3.0788779258728027 7.6003642082214355 -0.18855255842208862 4456788 4 -1
-3.016840934753418 7.627532482147217 0 4456788 4 -1
-2.9539899826049805 7.652092933654785 0 4456788 4 -1
-2.891139268875122 7.676059722900391 0 4456788 4 -1
-2.891054391860962 7.675834655761719 0.06285085529088974 4456788 4 -1
-2.8907997608184814 7.675158500671387 0.12570171058177948 4456788 4 -1
-4.587573528289795 6.798451900482178 -0.12570171058177948 4657508 0 -1
-3.0918219089508057 7.632317543029785 -0.06310026347637177 4456788 4 -1
-3.028456687927246 7.6569013595581055 0.12620052695274353 4456788 4 -1
-3.0280120372772217 7.6557769775390625 0.1893007755279541 4456788 4 -1
-3.0273895263671875 7.654202461242676 0.25240105390548706 4456788 4 -1
-2.962576389312744 7.67433500289917 0.3786015510559082 4456788 4 -1
-2.9026119709014893 7.7065205574035645 0 4456788 4 -1
-2.838761329650879 7.727950096130371 0.1893007755279541 4456788 4 -1
-2.9026119709014893 7.7065205574035645 0 4456788 4 -1
-2.9018449783325195 7.704483985900879 0.1893007755279541 4456788 4 -1
-2.90252685546875 7.706294059753418 0.06310026347637177 4456788 4 -1
-2.90252685546875 7.706294059753418 0.06310026347637177 4456788 4 -1
-2.9012482166290283 7.702899932861328 0.25240105390548706 4456788 4 -1
-2.8391783237457275 7.7290849685668945 -0.12620052695274353 4456788 4 -1
-3.1040425300598145 7.662484645843506 -0.06334967166185379 4456788 4 -1
-3.0404269695281982 7.6871657371521 0.12669934332370758 4456788 4 -1
-3.0404269695281982 7.6871657371521 0.12669934332370758 4456788 4 -1
-3.039355516433716 7.6844563484191895 0.25339868664741516 4456788 4 -1
-3.03998064994812 7.686037063598633 0.19004900753498077 4456788 4 -1
-3.039355516433716 7.6844563484191895 0.25339868664741516 4456788 4 -1
-3.025660514831543 7.6498308181762695 0.8235456943511963 4456788 4 -1
-3.093087911605835 7.63544225692749 0.6968463659286499 4456788 4 -1
-2.971835136413574 7.698318958282471 0.5067973732948303 4456788 4 -1
-2.9731483459472656 7.70172119140625 0.44344767928123474 4456788 4 -1
-2.9137425422668457 7.736072540283203 0.12669934332370758 4456788 4 -1
-2.9760355949401855 7.709199905395508 0.25339868664741516 4456788 4 -1
-2.9133148193359375 7.734936714172363 0.19004900753498077 4456788 4 -1
-2.85040020942688 7.759634494781494 -0.12669934332370758 4456788 4 -1
-2.8507349491119385 7.76054573059082 0 4456788 4 -1
-2.850651264190674 7.760318279266357 0.06334967166185379 4456788 4 -1
-3.1148905754089355 7.689263343811035 0.25439631938934326 4456788 4 -1
-3.1140668392181396 7.687229633331299 0.3179953694343567 4456788 4 -1
-3.051321506500244 7.714710235595703 0.25439631938934326 4456788 4 -1
-3.0505144596099854 7.712669849395752 0.3179953694343567 4456788 4 -1
-3.049527645111084 7.710175037384033 0.3815944492816925 4456788 4 -1
-3.043780565261841 7.695644855499268 0.6359907388687134 4456788 4 -1
-3.1031529903411865 7.660288333892822 0.763188898563385 4456788 4 -1
-3.164138078689575 7.62867546081543 0.8267880082130432 4456788 4 -1
-2.92246413230896 7.759228229522705 0.3815944492816925 4456788 4 -1
-2.9234097003936768 7.7617387771606445 0.3179953694343567 4456788 4 -1
-2.986962080001831 7.737504005432129 0.3179953694343567 4456788 4 -1
-3.125267505645752 7.714879512786865 0.38309091329574585 4456788 4 -1
-3.1240720748901367 7.711928367614746 0.4469393789768219 4456788 4 -1
-3.0624771118164062 7.742915630340576 0.3192424178123474 4456788 4 -1
-3.0624771118164062 7.742915630340576 0.3192424178123474 4456788 4 -1
-3.063917398452759 7.746556758880615 0.19154545664787292 4456788 4 -1
-3.053821563720703 7.721031188964844 0.7023333311080933 4456788 4 -1
-3.051744222640991 7.715778827667236 0.7661818265914917 4456788 4 -1
-3.1174428462982178 7.695563793182373 0.7023333311080933 4456788 4 -1
-3.1174428462982178 7.695563793182373 0.7023333311080933 4456788 4 -1
-3.0603156089782715 7.737450122833252 0.4469393789768219 4456788 4 -1
-3.0574309825897217 7.730157375335693 0.5746363401412964 4456788 4 -1
-3.1789002418518066 7.664266586303711 0.7661818265914917 4456788 4 -1
-2.933924674987793 7.789656639099121 0.38309091329574585 4456788 4 -1
-2.9348740577697754 7.792177200317383 0.3192424178123474 4456788 4 -1
-3.125175714492798 7.7146525382995605 0.8332725763320923 4456788 4 -1
-3.13627552986145 7.742053031921387 0.44868525862693787 4456788 4 -1
-3.072269916534424 7.767674446105957 0.44868525862693787 4456788 4 -1
-4.433572292327881 7.117802143096924 -0.45043110847473145 4456788 0 -1
-4.513266086578369 7.101667404174805 -0.5167736411094666 4456788 0 -1
-4.458460330963135 7.157757759094238 -0.71330726146698 4456788 0 -1
-4.548117637634277 7.156506538391113 -0.520764172077179 4456788 0 -1
-4.4571404457092285 7.30128812789917 -0.3279716968536377 4456788 0 -1
-4.509174823760986 7.386526584625244 -0.26537024974823 4456788 0 -1
-4.436593055725098 7.416118621826172 -0.53074049949646 4456788 0 -1
-4.443777561187744 7.428128242492676 -0.19902770221233368 4523353 0 -1
-4.527057647705078 7.415820598602295 -0.19977591931819916 4456788 0 -1
-4.455239772796631 7.447288513183594 -0.46614381670951843 4456788 0 -1
-4.458386421203613 7.452548503875732 -0.3329598605632782 4523353 0 -1
6.283090114593506 6.05129337310791 0 4456788 6 -1
-4.545080661773682 7.445343971252441 -0.06684137880802155 4456788 0 -1
-4.473637104034424 7.478041172027588 -0.40104830265045166 4456788 0 -1
-4.477189064025879 7.483978748321533 -0.20052415132522583 4523353 0 -1
6.4359869956970215 5.927043437957764 -0.33545395731925964 4456788 6 -1
6.172171592712402 6.210000038146973 0.06709078699350357 10016830 6 -1
6.113368988037109 6.284486293792725 -0.6060617566108704 2458766 6 -1
6.127778053283691 6.299298286437988 -0.0673401951789856 10016830 6 -1
6.124598026275635 6.296029567718506 -0.8110752701759338 4523353 6 -1
6.136011123657227 6.307762145996094 -0.6083064675331116 2199437 6 -1
6.149931907653809 6.3220720291137695 -0.13517920672893524 10016830 6 -1
6.389795780181885 6.018664360046387 -1.1532632112503052 4456788 6 -1
6.151382923126221 6.323563575744629 -0.7462291717529297 4523353 6 -1
6.083785057067871 6.388624668121338 -0.7462291717529297 4471684 6 -1
6.161740779876709 6.334211826324463 -0.5427120923995972 3887499 6 -1
6.100428581237793 6.271183490753174 1.3567802906036377 2072968 0 -1
6.100428581237793 6.271183490753174 1.3567802906036377 2072968 0 -1
5.901301383972168 6.598489284515381 0.1356780230998993 13164576 6 -1
6.407517433166504 6.035356521606445 0.9497461915016174 13164576 6 -1
6.480795860290527 5.968308925628662 -1.1575031280517578 4456788 6 -1
6.097479820251465 6.403005599975586 -0.8851494789123535 4471684 6 -1
6.097479820251465 6.403005599975586 -0.8851494789123535 4471684 6 -1
6.018709182739258 6.18717622756958 -2.110741138458252 2912910 0 -1
6.4003119468688965 6.164190769195557 0 2458766 6 -1
5.987381935119629 6.557178497314453 -0.34044212102890015 2199437 6 -1
6.165229797363281 6.337798118591309 0.8851494789123535 2072968 6 -1
-7.678014755249023 4.278813362121582 -2.1493992805480957 4456788 0 -1
-4.452254772186279 8.246676445007324 0.21548862755298615 4456788 0 -1
-4.466795444488525 8.273609161376953 -0.2883158028125763 4456788 0 -1
-4.471174716949463 8.281720161437988 -0.723283588886261 4456788 0 -1
-4.4142279624938965 8.3489408493042 -0.7257776856422424 4456788 0 -1
-4.437760353088379 8.393449783325195 -0.4369630515575409 4456788 0 -1
-4.8243889808654785 8.75234317779541 -1.3916974067687988 4456788 0 -1
-4.329503536224365 8.726973533630371 -2.6287617683410645 4456788 0 -1
-5.0319437980651855 8.411295890808105 -2.3968122005462646 4523353 0 -1
-5.238631248474121 8.079573631286621 -3.0153443813323975 4657508 0 -1
-4.815746784210205 8.558246612548828 -2.319495677947998 4657508 0 -1
-4.379003524780273 9.019311904907227 -1.3961868286132812 4456788 0 -1
-4.4200897216796875 9.103936195373535 -0.23269779980182648 4456788 0 -1
-5.133236408233643 8.408807754516602 -2.3269779682159424 4523353 0 -1
-4.681110382080078 8.853713989257812 -1.473752737045288 4523353 0 -1
-5.155990123748779 8.277594566345215 -2.7148075103759766 4590430 0 -1
-5.20683479309082 8.19300365447998 -2.8699395656585693 4657508 0 -1
-5.504367828369141 7.996147632598877 2.8699395656585693 4725613 0 -1
-4.416684627532959 9.096921920776367 -0.9337840676307678 4456788 0 -1
-4.432218074798584 9.128915786743164 -0.38907670974731445 4456788 0 -1
-5.15915060043335 8.451257705688477 -2.2566449642181396 4523353 0 -1
