VERSION .7
FIELDS x y z rgb label object
SIZE 4 4 4 4 4 4
TYPE F F F I I I
COUNT 1 1 1 1 1 1
WIDTH 687
HEIGHT 1
POINTS 687
VIEWPOINT 0 0 0 1 0 0 0
DATA ascii
-1.6588752269744873 2.3623239994049072 0.24417057633399963 4657508 0 -1
-1.6588752269744873 2.3623239994049072 0.24417057633399963 4657508 0 -1
-1.6146385669708252 2.392777681350708 -0.24417057633399963 4536450 0 -1
-1.7079391479492188 2.3372392654418945 -0.1109866201877594 4471684 0 -1
-1.5925202369689941 2.407555103302002 -0.24417057633399963 4471684 0 -1
-1.6865508556365967 2.3543944358825684 -0.06659197062253952 4341894 0 -1
-1.5793287754058838 2.3876125812530518 -0.4439464807510376 4341894 0 -1
-1.6867985725402832 2.3547401428222656 0.04439464956521988 3757452 0 -1
-1.5977851152420044 2.4155144691467285 0.06659197062253952 3757452 0 -1
-1.655754804611206 2.311403751373291 0.5549331307411194 2006409 0 -1
-1.569333553314209 2.4203929901123047 0.2663678824901581 2006409 0 -1
-1.4908337593078613 2.442150354385376 0.6285085082054138 4456788 0 -1
-1.4737834930419922 2.4635467529296875 0.5836150646209717 4456788 0 -1
-1.4981105327606201 2.4540703296661377 0.5611683130264282 4456788 0 -1
-1.468909740447998 2.455399751663208 0.6285085082054138 4456788 0 -1
-1.553873062133789 2.39654803276062 0.6509552597999573 4456788 0 -1
-1.5617705583572388 2.4087283611297607 0.5836150646209717 4456788 0 -1
-1.7283984422683716 2.36523699760437 0 4456788 0 -1
-1.6608631610870361 2.4127213954925537 -0.04489346593618393 4456788 0 -1
-1.6608631610870361 2.4127213954925537 -0.04489346593618393 4456788 0 -1
-1.6551474332809448 2.4044182300567627 0.2469140589237213 4523353 0 -1
-1.6602778434753418 2.4118711948394775 0.08978693187236786 4657508 0 -1
-1.6157376766204834 2.442655086517334 0.0673401951789856 4724328 0 -1
-1.6211529970169067 2.4024314880371094 -0.42648792266845703 4536450 0 -1
-1.7041478157043457 2.3789594173431396 -0.1346803903579712 4471684 0 -1
-1.6023945808410645 2.422482967376709 -0.3815944492816925 4471684 0 -1
-1.6987247467041016 2.3713889122009277 -0.2693607807159424 4341894 0 -1
-1.5989454984664917 2.417268753051758 -0.42648792266845703 4341894 0 -1
-1.7009363174438477 2.374476194381714 -0.22446732223033905 3757452 0 -1
-1.6785554885864258 2.390349864959717 -0.22446732223033905 3692940 0 -1
-1.652796745300293 2.40100359916687 -0.29180753231048584 3562893 0 -1
-1.5490096807479858 2.4373815059661865 0.6581881046295166 4456788 0 -1
-1.5124000310897827 2.477478265762329 0.5900996923446655 4456788 0 -1
-1.4826234579086304 2.478323459625244 0.6581881046295166 4456788 0 -1
-1.5321528911590576 2.459768295288086 0.6127958297729492 4456788 0 -1
-1.3941086530685425 2.5291738510131836 0.6581881046295166 4456788 0 -1
-1.5557799339294434 2.399488925933838 0.7716687917709351 4456788 0 -1
-1.6652045249938965 2.4190280437469482 -0.38583439588546753 4600703 0 -1
-1.6427017450332642 2.4343650341033936 -0.38583439588546753 4536450 0 -1
-1.6217948198318481 2.4518120288848877 -0.36313825845718384 4471684 0 -1
-1.5065343379974365 2.518292188644409 0.5965842604637146 4456788 0 -1
-1.4284940958023071 2.59155535697937 0.4589109718799591 4456788 0 -1
-1.8806509971618652 2.32853627204895 0.09178219735622406 4456788 0 -1
-1.756611943244934 2.40384578704834 0.3212376832962036 4456788 0 -1
-1.9044246673583984 2.310842752456665 0.022945549339056015 4456788 0 -1
-1.7136259078979492 2.4402918815612793 0.275346577167511 4456788 0 -1
-1.8577163219451904 2.346874475479126 0.09178219735622406 4456788 0 -1
-1.6895256042480469 2.4543590545654297 0.2982921302318573 4456788 0 -1
-1.7813009023666382 2.486663818359375 0.0703330934047699 4456788 0 -1
-1.66376793384552 2.566039562225342 -0.09377746284008026 4456788 0 -1
-1.758553385734558 2.454908609390259 0.49233168363571167 4456788 0 -1
-1.6819876432418823 2.5428109169006348 -0.2578880190849304 4456788 0 -1
-1.7714900970458984 2.4729678630828857 -0.3282211124897003 4456788 0 -1
-1.8047391176223755 2.469705820083618 -0.0703330934047699 4456788 0 -1
-1.7815625667572021 2.4870288372039795 -0.04688873142004013 4590430 0 -1
-1.7813009023666382 2.486663818359375 -0.0703330934047699 4724328 0 -1
-1.7636276483535767 2.5114970207214355 -0.37910038232803345 4456788 0 -1
-1.7636276483535767 2.5114970207214355 -0.37910038232803345 4456788 0 -1
-1.7095035314559937 2.4833810329437256 0.6871194243431091 4456788 0 -1
-1.765256404876709 2.5138163566589355 -0.35540661215782166 4456788 0 -1
-1.8955018520355225 2.443110466003418 0 4590430 0 -1
-1.9191392660140991 2.424470901489258 0.02369377389550209 4724328 0 -1
-1.8239384889602661 2.4959793090820312 -0.07108131796121597 4724328 0 -1
-1.8952792882919312 2.442823648452759 -0.04738754779100418 4725613 0 -1
-1.7868072986602783 2.544506072998047 -0.3112613558769226 4456788 0 -1
-1.7508429288864136 2.493290901184082 0.6943522691726685 4456788 0 -1
-1.7177079916000366 2.4952995777130127 0.7661818265914917 4456788 0 -1
-1.7443426847457886 2.4840340614318848 0.7422386407852173 4456788 0 -1
-1.9152295589447021 2.4685375690460205 -0.04788636416196823 4590430 0 -1
-1.9393408298492432 2.4499917030334473 -0.023943182080984116 4724328 0 -1
-1.891289234161377 2.4869272708892822 -0.04788636416196823 4725613 0 -1
-1.939170002937317 2.4497759342193604 -0.04788636416196823 4726897 0 -1
-1.8409711122512817 2.519287586212158 -0.1676022708415985 4726897 0 -1
-1.7715873718261719 2.5735695362091064 0.04788636416196823 4726897 0 -1
-1.7868072986602783 2.544506072998047 0.3112613558769226 2977934 0 -1
-1.8101246356964111 2.5777111053466797 0.21773330867290497 4456788 0 -1
-1.7135846614837646 2.6428720951080322 0.21773330867290497 4456788 0 -1
-1.6618543863296509 2.5630881786346436 -0.7983554601669312 4456788 0 -1
-1.6070929765701294 2.6863839626312256 0.4112740159034729 4456788 0 -1
-1.8067576885223389 2.5729165077209473 -0.2903110682964325 4456788 0 -1
-1.724670171737671 2.505413293838501 0.8467406630516052 4456788 0 -1
-1.7893993854522705 2.497969150543213 0.7257776856422424 4456788 0 -1
-1.7883586883544922 2.597933053970337 -0.14515553414821625 4456788 0 -1
-1.9595422744750977 2.4755125045776367 -0.02419259026646614 4724328 0 -1
-2.0079259872436523 2.436431884765625 -0.02419259026646614 4725613 0 -1
-1.9112145900726318 2.5131278038024902 0 4725613 0 -1
-1.7838810682296753 2.591428518295288 0.26611849665641785 4726897 0 -1
-1.9753884077072144 2.445835828781128 0.2903110682964325 4728182 0 -1
-1.9753884077072144 2.445835828781128 0.2903110682964325 4728182 0 -1
-1.9031181335449219 2.502481460571289 0.2903110682964325 4471684 0 -1
-2.026202917098999 2.4092583656311035 0.2419258952140808 4341894 0 -1
-1.7767465114593506 2.581064224243164 0.38708144426345825 4341894 0 -1
-1.8280270099639893 2.5518925189971924 0.33869627118110657 4147337 0 -1
-1.85207998752594 2.534489631652832 0.33869627118110657 4017546 0 -1
-1.8551002740859985 2.5386228561401367 0.537723958492279 4456788 0 -1
-1.9769519567489624 2.4975061416625977 0.17109398543834686 4590430 0 -1
-1.7724508047103882 2.5748238563537598 0.6354919672012329 4590430 0 -1
-1.9345265626907349 2.4934093952178955 0.46439796686172485 4726897 0 -1
-1.8297024965286255 2.6055908203125 0.19553598761558533 4726897 0 -1
-1.9971117973327637 2.4727327823638916 0.2688619792461395 4536450 0 -1
-1.9456346035003662 2.5077266693115234 0.31774598360061646 4471684 0 -1
-1.8468725681304932 2.578200578689575 0.3421879708766937 4147337 0 -1
-1.867836356163025 2.55605149269104 0.39107197523117065 4017546 0 -1
-1.865998387336731 2.5535364151000977 0.4155139625072479 3757452 0 -1
-1.880981683731079 2.574040412902832 0.46913671493530273 4456788 0 -1
-1.839582920074463 2.619661331176758 0.37037110328674316 4456788 0 -1
-1.9884628057479858 2.5120482444763184 0.3456796705722809 4341894 0 -1
-1.9884628057479858 2.5120482444763184 0.3456796705722809 4212104 0 -1
-1.9177708625793457 2.572591781616211 0.2962968647480011 4212104 0 -1
-1.963913917541504 2.5312867164611816 0.3456796705722809 4147337 0 -1
-2.1039767265319824 2.45127272605896 0.39905303716659546 4724328 0 -1
-2.132532835006714 2.4341492652893066 0.34917140007019043 4725613 0 -1
-2.1037683486938477 2.5014874935150146 0.3526630997657776 4657508 0 -1
-2.126979112625122 2.478071928024292 0.3778533339500427 4724328 0 -1
-2.153858184814453 2.4584908485412598 0.3526630997657776 4725613 0 -1
-2.7143921852111816 1.8414411544799805 0.693604052066803 4664956 0 -1
-2.873753070831299 1.7769948244094849 0.20750758051872253 4456788 0 -1
-2.74519681930542 1.8623390197753906 0.6743996143341064 4664956 0 -1
-2.8999314308166504 1.793182373046875 0.23569069802761078 4456788 0 -1
-2.950437068939209 1.76481032371521 0.29080989956855774 4456788 0 -1
-2.8714075088500977 1.89067542552948 0.29080989956855774 4456788 0 -1
-3.0326030254364014 1.9361430406570435 -1.0325497388839722 4456788 0 -1
-2.1144580841064453 3.0110976696014404 0.6883664727210999 4456788 0 -1
-1.2434059381484985 3.3849196434020996 1.003867745399475 4456788 0 -1
-2.0578548908233643 2.9894280433654785 1.041528344154358 4456788 0 -1
-3.2475762367248535 1.8764718770980835 -0.4339701533317566 4456788 0 -1
-2.079643964767456 3.021080732345581 0.8968716859817505 4456788 0 -1
3.4137983322143555 1.6128766536712646 0.02893134392797947 4456788 0 -1
-3.1365973949432373 1.9395254850387573 -0.8100776672363281 4456788 0 -1
3.2987565994262695 1.769896149635315 -0.4918328523635864 4456788 0 -1
-2.190958023071289 3.058537483215332 0.3182447850704193 4456788 0 -1
3.417421340942383 1.461052656173706 -0.6654209494590759 4456788 0 -1
3.4756057262420654 1.4045627117156982 -0.6711573004722595 4456788 0 -1
-2.0658113956451416 3.000986099243164 1.1088685989379883 4456788 0 -1
-2.0802721977233887 3.021993398666382 1.0213263034820557 4456788 0 -1
3.456059455871582 1.4775716066360474 -0.6127958297729492 4456788 0 -1
-3.142256021499634 2.1317036151885986 0.29180753231048584 4729209 0 -1
3.2911627292633057 1.8341032266616821 -0.5544342994689941 4729209 0 -1
3.2693300247192383 1.8890413045883179 -0.49607279896736145 4600703 0 -1
3.485598564147949 1.4902005195617676 -0.6180333495140076 4456788 0 -1
-1.3726730346679688 3.388511896133423 1.1772063970565796 4456788 0 -1
3.5853137969970703 1.2715963125228882 -0.5297428965568542 4456788 0 -1
-2.970541477203369 2.311371088027954 -0.7651841640472412 4456788 0 -1
-2.9751691818237305 2.314971685409546 -0.7357540130615234 4456788 0 -1
-2.9664173126220703 2.3676939010620117 -0.5886031985282898 4523353 0 -1
-2.930548667907715 2.4574828147888184 0.35316193103790283 4590430 0 -1
-3.176964044570923 2.15524959564209 0.11772064119577408 4729209 0 -1
-3.1619796752929688 2.0820024013519287 0.6474635601043701 4600703 0 -1
-3.0599279403686523 2.319720983505249 0.08829048275947571 4600703 0 -1
3.3113186359405518 1.845335602760315 -0.6180333495140076 4600703 0 -1
-3.0258936882019043 2.415166139602661 0.11871827393770218 4456788 0 -1
-3.079326629638672 2.3344271183013916 0.26711612939834595 4456788 0 -1
-2.9312820434570312 2.5178141593933105 0.26711612939834595 4456788 0 -1
-2.93612003326416 2.5219695568084717 0.14839784801006317 4456788 0 -1
-2.9750232696533203 2.4345197677612305 0.4748730957508087 4456788 0 -1
-3.0171597003936768 2.347644567489624 0.6232709288597107 4523353 0 -1
-2.898247718811035 2.548868179321289 0.32647526264190674 4523353 0 -1
-2.93612003326416 2.5219695568084717 0.14839784801006317 4590430 0 -1
-2.9064624309539795 2.5560925006866455 0.14839784801006317 4724328 0 -1
-3.0865845680236816 2.3399293422698975 0.029679568484425545 3887499 0 -1
-3.086312770843506 2.3397231101989746 0.05935913696885109 3107982 0 -1
-3.1747591495513916 2.1537537574768066 0.5342322587966919 2264205 0 -1
-3.092845916748047 2.282970428466797 0.4748730957508087 2264205 0 -1
-2.994466781616211 2.4504308700561523 0.17807741463184357 6933851 0 -1
-3.0566365718841553 2.378361463546753 0.05935913696885109 7589974 0 -1
-2.922602653503418 2.5702872276306152 0.3292187452316284 4456788 0 -1
-3.0812363624572754 2.3975024223327637 0.11971590667963028 4456788 0 -1
-3.106760025024414 2.355224370956421 0.23943181335926056 4456788 0 -1
-2.9542577266693115 2.537548780441284 0.2992897629737854 4456788 0 -1
-2.9857726097106934 2.5037920475006104 0.2693607807159424 4456788 0 -1
-3.000023365020752 2.4549779891967773 0.4788636267185211 4456788 0 -1
-3.053222894668579 2.3757052421569824 0.5387215614318848 4523353 0 -1
-2.92061448097229 2.5685386657714844 0.35914772748947144 4523353 0 -1
-2.9907004833221436 2.5079243183135986 0.1496448814868927 4590430 0 -1
-2.9607932567596436 2.5431625843048096 0.1496448814868927 4724328 0 -1
-3.1126136779785156 2.359661817550659 0 3887499 0 -1
-3.1125221252441406 2.3595924377441406 0.02992897666990757 3107982 0 -1
-3.0946521759033203 2.34604549407959 0.41900569200515747 2264205 0 -1
-2.9907004833221436 2.5079243183135986 0.1496448814868927 3651704 0 -1
-2.7623977661132812 2.7195982933044434 0.4788636267185211 3651704 0 -1
-3.1421735286712646 2.3193812370300293 0.05985795333981514 6933851 0 -1
-2.9907004833221436 2.5079243183135986 0.1496448814868927 6933851 0 -1
-2.8988654613494873 2.4899697303771973 0.8080824017524719 10672695 0 -1
-2.9322831630706787 2.578800678253174 0.5130325555801392 4456788 0 -1
-3.1060914993286133 2.416842222213745 0.15089192986488342 4456788 0 -1
-2.944952964782715 2.5899431705474854 0.36214062571525574 4456788 0 -1
-3.0628855228424072 2.4446916580200195 0.392318993806839 4456788 0 -1
-2.9728007316589355 2.553476333618164 0.392318993806839 4456788 0 -1
-2.995072841644287 2.5115911960601807 0.4828541576862335 4456788 0 -1
-3.0278172492980957 2.47772216796875 0.45267578959465027 4456788 0 -1
-3.054974317550659 2.4383771419525146 0.4828541576862335 4523353 0 -1
-2.975003480911255 2.555368423461914 0.36214062571525574 4657508 0 -1
-2.9833593368530273 2.5625457763671875 0.21124869585037231 4724328 0 -1
-3.072406530380249 2.4522910118103027 0.24142707884311676 3107982 0 -1
-2.6233315467834473 2.8135058879852295 0.8449947834014893 3107982 0 -1
-2.887077569961548 2.4210290908813477 1.1467785835266113 10672695 0 -1
-2.2392640113830566 3.1888275146484375 0.5733892917633057 10672695 0 -1
3.406243085861206 1.8275662660598755 -0.7544596195220947 10672695 0 -1
-3.088198661804199 2.464895725250244 0.3955613076686859 4456788 0 -1
-2.8961799144744873 2.667156219482422 0.5172724723815918 4456788 0 -1
-3.1487514972686768 2.3870577812194824 0.3955613076686859 4456788 0 -1
-2.9835619926452637 2.5627198219299316 0.5477002859115601 4456788 0 -1
-2.7936081886291504 2.6905460357666016 0.8519781827926636 4456788 0 -1
-2.9802567958831787 2.559880495071411 0.5781280994415283 4456788 0 -1
-3.0500237941741943 2.495894193649292 0.4868446886539459 4456788 0 -1
-2.8712501525878906 2.644197940826416 0.7302670478820801 4456788 0 -1
-3.1104202270507812 2.420210361480713 0.4868446886539459 4523353 0 -1
-3.1104202270507812 2.420210361480713 0.4868446886539459 4523353 0 -1
-2.7685627937316895 2.725667953491211 0.8215504288673401 4523353 0 -1
-3.1551871299743652 2.3919365406036377 0.3042779266834259 4657508 0 -1
-2.9866855144500732 2.5654025077819824 0.5172724723815918 4657508 0 -1
-2.8192803859710693 2.715271234512329 0.6694114804267883 4657508 0 -1
-2.9621620178222656 2.6050777435302734 0.45641690492630005 4724328 0 -1
-3.298835039138794 2.0398457050323486 0.8519781827926636 4726897 0 -1
-2.9621620178222656 2.6050777435302734 0.45641690492630005 4726897 0 -1
-3.0641720294952393 2.507472038269043 0.3042779266834259 3887499 0 -1
-2.6537880897521973 2.84617018699646 0.7911226153373718 3887499 0 -1
3.80246901512146 1.1410726308822632 -0.09128338098526001 3887499 0 -1
-3.270780086517334 2.2840416431427 -0.33744922280311584 4456788 0 -1
-3.0660793781280518 2.2632129192352295 -1.2270880937576294 4456788 0 -1
-2.9855687618255615 2.5036211013793945 0.9203160405158997 4456788 0 -1
-2.7840778827667236 2.6813673973083496 1.0430248975753784 4456788 0 -1
-3.2050857543945312 2.3658196926116943 0.39880362153053284 4456788 0 -1
-2.794757127761841 2.632432460784912 1.135056495666504 4456788 0 -1
-3.075709104537964 2.4549269676208496 0.7362528443336487 4456788 0 -1
-2.914590835571289 2.5632410049438477 0.9816704392433167 4456788 0 -1
-3.1564366817474365 2.3928840160369873 -0.5828668475151062 4523353 0 -1
-2.884850025177002 2.596668004989624 0.9816704392433167 4523353 0 -1
-3.023818254470825 2.535696268081665 0.6748984456062317 4657508 0 -1
-2.834476947784424 2.7299070358276367 0.7362528443336487 4657508 0 -1
-3.0604169368743896 2.5663869380950928 0.27609482407569885 4724328 0 -1
-2.304124116897583 3.281191825866699 0.4638991355895996 4456788 0 -1
-2.7511751651763916 2.9506173133850098 -0.12370643764734268 4456788 0 -1
-2.009993553161621 3.4995014667510986 0.06185321882367134 4456788 0 -1
-2.3435122966766357 3.2715003490448 0.3092660903930664 4456788 0 -1
-2.9954941272735596 2.5729687213897705 0.8350184559822083 4456788 0 -1
-3.2148563861846924 2.437171697616577 0.12370643764734268 4456788 0 -1
-3.2782206535339355 2.354501962661743 0 4456788 0 -1
-3.3075926303863525 2.309748411178589 0.12370643764734268 4523353 0 -1
-3.3075926303863525 2.309748411178589 0.12370643764734268 4523353 0 -1
-2.921828031539917 2.5096936225891113 1.206137776374817 4523353 0 -1
-2.3743479251861572 3.249190092086792 0.3092660903930664 4724328 0 -1
-2.363736629486084 3.2997334003448486 0.2805841565132141 4456788 0 -1
-3.1479456424713135 2.5760257244110107 0.09352805465459824 4456788 0 -1
-3.271944046020508 2.415170669555664 -0.12470407038927078 4456788 0 -1
-3.3980860710144043 2.23746657371521 -0.031176017597317696 4523353 0 -1
-3.1428563594818115 2.5718607902526855 -0.24940814077854156 4523353 0 -1
-2.5346519947052 3.1382904052734375 0.5299922823905945 4724328 0 -1
-2.3886139392852783 3.2687127590179443 0.4052882194519043 4724328 0 -1
-2.548917531967163 3.1559534072875977 -0.31176018714904785 4725613 0 -1
-2.3709330558776855 3.180485725402832 0.9041045308113098 4725613 0 -1
-2.315854787826538 3.2978971004486084 0.5611683130264282 4725613 0 -1
-2.4922502040863037 3.21225905418396 0.15588009357452393 4664956 0 -1
-2.4152071475982666 3.3051044940948486 0.25140342116355896 4456788 0 -1
-2.310070276260376 3.355818748474121 0.47138139605522156 4456788 0 -1
-3.1739680767059326 2.597320079803467 0 4456788 0 -1
-3.0280649662017822 2.725576400756836 0.47138139605522156 4456788 0 -1
-3.1993653774261475 2.5536253452301025 -0.25140342116355896 4456788 0 -1
-2.9972198009490967 2.63590931892395 0.9427627921104431 4456788 0 -1
-2.3366611003875732 3.261936664581299 0.8484864830970764 4456788 0 -1
-3.3263001441955566 2.389033794403076 -0.2199779748916626 4456788 0 -1
-3.423762083053589 2.2543728351593018 -0.12570171058177948 4523353 0 -1
-2.4288978576660156 3.1938488483428955 0.8484864830970764 4523353 0 -1
-2.383841037750244 3.32779860496521 0.25140342116355896 4590430 0 -1
-2.557445764541626 3.1665124893188477 0.5028068423271179 4724328 0 -1
-2.385128974914551 3.2639434337615967 0.6913593411445618 4724328 0 -1
-2.521134376525879 3.121553659439087 0.8484864830970764 4725613 0 -1
-2.3784894943237305 3.2548577785491943 0.7542102336883545 4664956 0 -1
-3.197655200958252 2.616703987121582 0.12669934332370758 4456788 0 -1
-2.3215363025665283 3.3724756240844727 0.5701470375061035 4456788 0 -1
-3.316079616546631 2.447749376296997 -0.31674835085868835 4456788 0 -1
-3.3476614952087402 2.4043760299682617 -0.31674835085868835 4456788 0 -1
-3.132492780685425 2.690643310546875 0.19004900753498077 4523353 0 -1
-2.4440417289733887 3.2137622833251953 0.8868953585624695 4523353 0 -1
-2.3933961391448975 3.341137647628784 0.44344767928123474 4590430 0 -1
-2.514871120452881 3.241415023803711 0.5067973732948303 4725613 0 -1
-2.4040584564208984 3.2898478507995605 0.6968463659286499 4664956 0 -1
-2.34673810005188 3.409085750579834 0.4788636267185211 4456788 0 -1
-3.2197070121765137 2.634749174118042 0.22346968948841095 4456788 0 -1
-2.3285858631134033 3.382716417312622 0.7023333311080933 4456788 0 -1
-3.4861228466033936 2.0852320194244385 -0.925803005695343 4523353 0 -1
-3.107842206954956 2.733196258544922 0.4788636267185211 4523353 0 -1
-2.434924364089966 3.2017734050750732 1.0854241847991943 4523353 0 -1
-3.125267505645752 2.748521089553833 -0.19154545664787292 4590430 0 -1
-3.2950751781463623 2.497985363006592 0.510787844657898 4725613 0 -1
-3.171267509460449 2.6593434810638428 0.4788636267185211 4725613 0 -1
-3.2551088333129883 2.9299397468566895 0.9981313943862915 4456788 0 -1
-3.3433234691619873 2.8036251068115234 1.0669680833816528 4523353 0 -1
-3.327333927154541 2.858001232147217 1.1093673706054688 4523353 0 -1
-3.2159438133239746 3.902249574661255 -1.4949524402618408 4456788 0 -1
-3.3817026615142822 3.8599965572357178 -1.2121235132217407 4456788 0 -1
-3.3817026615142822 3.8599965572357178 -1.2121235132217407 4456788 0 -1
-3.1805670261383057 4.182247161865234 -0.44444531202316284 4456788 0 -1
-4.388524055480957 2.535719394683838 -1.4545482397079468 4456788 0 -1
-4.915118217468262 1.326340913772583 1.3737400770187378 4729209 0 -1
-4.112924098968506 3.0359365940093994 1.2929317951202393 4729209 0 -1
-4.262030601501465 2.891357660293579 1.1313153505325317 4664956 0 -1
-3.8557848930358887 3.2333621978759766 1.5757606029510498 4664956 0 -1
4.629939556121826 2.484121322631836 0.44444531202316284 4664956 0 -1
-5.003660678863525 0.9951494336128235 1.3333358764648438 4664956 0 -1
-3.8464677333831787 3.382781505584717 -1.382219910621643 4456788 0 -1
-4.883942127227783 1.7321783304214478 -1.138298749923706 4456788 0 -1
-4.68455696105957 2.4149794578552246 -0.6098029017448425 4456788 0 -1
-3.950164794921875 3.392979621887207 -1.0163382291793823 4456788 0 -1
-3.7522571086883545 3.6941211223602295 -0.650456428527832 4456788 0 -1
-3.181260585784912 3.938891649246216 -1.5854876041412354 4456788 0 -1
-3.2055888175964355 4.215149402618408 -0.325228214263916 4456788 0 -1
-4.593308925628662 2.654045581817627 0.081307053565979 4456788 0 -1
-4.965975284576416 1.3400646448135376 1.300912857055664 4729209 0 -1
-4.146447658538818 3.0606818199157715 1.2602593898773193 4729209 0 -1
-3.7615807056427 3.3081276416778564 1.7481017112731934 4729209 0 -1
4.888751983642578 1.8572152853012085 0.894377589225769 4729209 0 -1
-4.984708309173584 1.1794955730438232 1.382219910621643 4664956 0 -1
-4.060373306274414 3.2408528327941895 -1.2270880937576294 4456788 0 -1
-3.8564658164978027 3.6324751377105713 -0.6544469594955444 4456788 0 -1
-2.9873745441436768 4.339733123779297 -0.8589616417884827 4456788 0 -1
-4.4987945556640625 2.8722221851348877 -0.08180586993694305 4456788 0 -1
-3.176913261413574 4.261667251586914 0.4908352196216583 4456788 0 -1
-2.234752655029297 4.808840751647949 0.6135440468788147 4456788 0 -1
-3.5977671146392822 3.940153121948242 -0.1636117398738861 4456788 0 -1
-3.308368444442749 4.179500102996826 0.2863205373287201 4456788 0 -1
-3.9562528133392334 3.479332208633423 -0.8589616417884827 4456788 0 -1
-3.9562528133392334 3.479332208633423 -0.8589616417884827 4456788 0 -1
-3.350494146347046 4.148428916931152 0.24541760981082916 4456788 0 -1
-4.692639350891113 2.5177619457244873 -0.36812642216682434 4456788 0 -1
-3.9006590843200684 3.5922036170959473 -0.6135440468788147 4456788 0 -1
-3.716809034347534 3.820844888687134 -0.2863205373287201 4456788 0 -1
-2.889664649963379 4.456747531890869 -0.5317381620407104 4456788 0 -1
-3.2236390113830566 4.238883972167969 -0.36812642216682434 4456788 0 -1
-4.62148904800415 2.670328140258789 0.08180586993694305 4456788 0 -1
-3.384962558746338 4.107337951660156 -0.40902936458587646 4456788 0 -1
-5.045995712280273 1.1939976215362549 1.2679909467697144 4729209 0 -1
4.9774580001831055 1.7653453350067139 0.7771557569503784 4729209 0 -1
4.930209159851074 1.748587727546692 1.063476324081421 4664956 0 -1
-3.18808650970459 4.276655197143555 0.20451468229293823 2977934 0 -1
-3.953627347946167 3.5586798191070557 -0.7407422065734863 4456788 0 -1
-3.3681461811065674 4.170284748077393 0.3292187452316284 4456788 0 -1
-3.7394726276397705 3.8441426753997803 -0.28806641697883606 4456788 0 -1
-2.8311636447906494 4.545242786407471 -0.4115234315395355 4456788 0 -1
-2.5507709980010986 4.724658012390137 0.12345702946186066 4456788 0 -1
-3.4310638904571533 3.9163389205932617 -1.3168749809265137 4456788 0 -1
-4.646800518035889 2.684953451156616 0.20576171576976776 4456788 0 -1
-3.4566197395324707 3.864989757537842 1.3991796970367432 4456788 0 -1
-3.401174783706665 4.127010345458984 -0.4938281178474426 4456788 0 -1
-3.237262725830078 4.256798267364502 -0.4938281178474426 4456788 0 -1
-3.620980978012085 3.965575933456421 -0.0823046863079071 4523353 0 -1
-3.804933547973633 3.828253746032715 -0.24841050803661346 4456788 0 -1
-3.1308834552764893 4.370656490325928 0.5382227897644043 4456788 0 -1
-3.8366615772247314 3.7772178649902344 0.45541927218437195 4456788 0 -1
-3.6429262161254883 3.989609718322754 -0.08280350267887115 4456788 0 -1
-4.674962997436523 2.701225757598877 0.20700876414775848 4456788 0 -1
-3.8907363414764404 3.7471988201141357 0.12420525401830673 4456788 0 -1
-3.8899362087249756 3.7464282512664795 0.1656070053577423 4523353 0 -1
-3.6837821006774902 3.9508323669433594 -0.12420525401830673 4523353 0 -1
-3.763575553894043 3.86892032623291 -0.24841050803661346 4657508 0 -1
-3.5810532569885254 4.0875420570373535 0.12495347857475281 4456788 0 -1
-3.9150941371917725 3.770658016204834 -0.0416511595249176 4456788 0 -1
-3.739680051803589 3.9270637035369873 -0.3748604357242584 4523353 0 -1
-4.455899715423584 2.9339826107025146 1.0412789583206177 4729209 0 -1
-3.3304059505462646 4.041138648986816 1.4577906131744385 4729209 0 -1
4.803654193878174 2.4763762950897217 0.5831162333488464 4729209 0 -1
-4.592661380767822 2.9321506023406982 0.4609062373638153 4456788 0 -1
-2.960763454437256 4.566403388977051 0.8008495569229126 4456788 0 -1
-3.4105379581451416 4.308572292327881 -0.2528998553752899 4456788 0 -1
-3.059192657470703 4.533502578735352 0.5900996923446655 4456788 0 -1
-4.130212783813477 3.632321357727051 -0.0842999517917633 4456788 0 -1
-4.512335300445557 2.8808670043945312 -1.264499306678772 4456788 0 -1
-4.168435096740723 3.5804622173309326 -0.2528998553752899 4456788 0 -1
-4.213883876800537 3.5336546897888184 -0.12644992768764496 4523353 0 -1
-4.002366542816162 3.7699015140533447 -0.1685999035835266 4523353 0 -1
-3.012974977493286 4.554983615875244 0.8903870582580566 4456788 0 -1
-3.4339468479156494 4.338144779205322 -0.08479876816272736 4456788 0 -1
-3.020230293273926 4.565951824188232 0.8055883049964905 4456788 0 -1
-4.112619400024414 3.701789379119873 0.04239938408136368 4456788 0 -1
-4.480452060699463 2.9501490592956543 -1.3567802906036377 4456788 0 -1
-4.239938259124756 3.5555033683776855 0 4523353 0 -1
-4.027468681335449 3.793545722961426 0.08479876816272736 4523353 0 -1
-3.6410980224609375 4.1560797691345215 0.29679569602012634 4523353 0 -1
-3.4594576358795166 4.283342361450195 0.5511919856071472 4523353 0 -1
-3.453639268875122 4.363022804260254 0.1279463768005371 4456788 0 -1
-3.1350953578948975 4.554325580596924 0.6397318840026855 4456788 0 -1
-3.1350953578948975 4.554325580596924 0.6397318840026855 4456788 0 -1
-2.025995969772339 5.001272678375244 1.3647613525390625 4456788 0 -1
-4.648172378540039 3.060584545135498 -0.0852975845336914 4456788 0 -1
-3.875453233718872 3.9839296340942383 0.2985415458679199 4456788 0 -1
-2.071406841278076 4.99412202835083 1.3221125602722168 4456788 0 -1
-3.9143476486206055 3.9383385181427 0.38383913040161133 4523353 0 -1
-3.706521511077881 4.144415378570557 0.2558927536010742 4523353 0 -1
-3.495558023452759 4.32804012298584 0.1705951690673828 4523353 0 -1
-4.820408821105957 2.686323404312134 -0.9437603950500488 4456788 0 -1
-2.025009870529175 4.998837947845459 1.5014370679855347 4456788 0 -1
4.918477535247803 2.4306223392486572 -1.1153532266616821 4456788 0 -1
-3.460034132003784 4.371101379394531 0.5147783756256104 4657508 0 -1
4.904977321624756 2.5286104679107666 -0.9437603950500488 4657508 0 -1
-3.1422622203826904 4.750438690185547 0.6145416498184204 4456788 0 -1
-3.0137484073638916 4.838370323181152 0.570645809173584 4456788 0 -1
-4.320530414581299 3.978872537612915 -0.7716687917709351 4456788 0 -1
-4.08482551574707 4.289503574371338 -0.09078456461429596 4456788 0 -1
-5.108116149902344 3.0554308891296387 -0.22820845246315002 4456788 0 -1
-4.5620245933532715 3.825596570968628 -0.18256676197052002 4456788 0 -1
-4.170078277587891 4.286801338195801 -0.3212376832962036 4456788 0 -1
-4.190131664276123 4.215812683105469 -0.7342575788497925 4456788 0 -1
-4.586953639984131 3.846501588821411 -0.18356439471244812 4456788 0 -1
-3.5336146354675293 4.835595607757568 0 4523353 0 -1
-3.4376044273376465 4.895326614379883 -0.692107617855072 4456788 0 -1
-4.4001336097717285 4.052180767059326 -0.692107617855072 4456788 0 -1
-3.3102948665618896 5.0044684410095215 -0.5075455904006958 4456788 0 -1
-5.122798919677734 3.7813711166381836 -1.5039310455322266 4456788 0 -1
-5.002738952636719 3.9930169582366943 -1.3535380363464355 4456788 0 -1
-4.730886936187744 4.456108093261719 -0.7519655227661133 4456788 0 -1
-3.594144105911255 5.43358850479126 -0.6015724539756775 4456788 0 -1
-1.904755711555481 6.25823450088501 0.10026207566261292 4456788 0 -1
-4.810901165008545 4.330316066741943 -0.9524896740913391 4456788 0 -1
-3.6384482383728027 5.3919172286987305 -0.701834499835968 4456788 0 -1
-3.356313467025757 5.610345363616943 -0.2506551742553711 4456788 0 -1
-2.9521689414978027 5.824732303619385 0.40104830265045166 4456788 0 -1
-3.2219812870025635 5.725905418395996 -0.2519022226333618 4456788 0 -1
-3.373011589050293 5.6382575035095215 -0.2519022226333618 4456788 0 -1
-4.497582912445068 4.823627948760986 -0.40503883361816406 4456788 0 -1
-4.091254711151123 5.168529510498047 0.45566868782043457 4456788 0 -1
-4.170139312744141 5.163276195526123 0.20351704955101013 4456788 0 -1
-3.7401137351989746 5.433230400085449 0.763188898563385 4456788 0 -1
2.8775134086608887 6.474976062774658 0.3805968165397644 4456788 5 -1
2.9463818073272705 6.4826436042785645 0.32772231101989746 4456788 5 -1
2.8361713886260986 6.528643608093262 0.382342666387558 4456788 5 -1
2.8894362449645996 6.501804351806641 0.4369630515575409 4456788 5 -1
2.886369466781616 6.494903564453125 0.5462038516998291 4456788 5 -1
2.942478895187378 6.474056243896484 0.4915834367275238 4456788 5 -1
2.942478895187378 6.474056243896484 0.4915834367275238 4456788 5 -1
2.940829277038574 6.4704270362854 0.5462038516998291 4456788 5 -1
2.939005136489868 6.4664130210876465 0.600824236869812 4456788 0 -1
2.902630090713501 6.531493186950684 0.4389583170413971 4456788 5 -1
2.9039127826690674 6.534379482269287 0.38408854603767395 4456788 5 -1
2.9011754989624023 6.528220176696777 0.4938281178474426 4456788 5 -1
2.9573967456817627 6.50687837600708 0.4389583170413971 4456788 5 -1
2.9011754989624023 6.528220176696777 0.4938281178474426 4456788 5 -1
2.9011754989624023 6.528220176696777 0.4938281178474426 4456788 5 -1
2.9542577266693115 6.499972343444824 0.5486978888511658 4456788 5 -1
2.9542577266693115 6.499972343444824 0.5486978888511658 4456788 5 -1
2.9542577266693115 6.499972343444824 0.5486978888511658 4456788 5 -1
2.9482321739196777 6.4867143630981445 0.71330726146698 4456788 0 -1
2.9158236980438232 6.561181545257568 0.4409535825252533 4456788 5 -1
3.0226433277130127 6.50425910949707 0.5511919856071472 4456788 5 -1
2.862072467803955 6.588265895843506 0.38583439588546753 4456788 5 -1
2.917112350463867 6.564081192016602 0.38583439588546753 4456788 5 -1
2.914362668991089 6.557893753051758 0.49607279896736145 4456788 5 -1
2.914362668991089 6.557893753051758 0.49607279896736145 4456788 5 -1
2.9158236980438232 6.561181545257568 0.4409535825252533 4456788 5 -1
2.914362668991089 6.557893753051758 0.49607279896736145 4456788 5 -1
2.9089419841766357 6.545696258544922 0.6614304184913635 4456788 0 -1
2.9089419841766357 6.545696258544922 0.6614304184913635 4456788 0 -1
2.875023126602173 6.618076801300049 0.3875802457332611 4456788 5 -1
3.098365545272827 6.522147178649902 0.27684304118156433 4456788 5 -1
2.9290175437927246 6.590870380401611 0.4429488480091095 4456788 5 -1
2.875023126602173 6.618076801300049 0.3875802457332611 4456788 5 -1
2.9275498390197754 6.5875678062438965 0.4983174800872803 4456788 5 -1
2.9275498390197754 6.5875678062438965 0.4983174800872803 4456788 5 -1
2.875023126602173 6.618076801300049 0.3875802457332611 4456788 5 -1
2.9290175437927246 6.590870380401611 0.4429488480091095 4456788 5 -1
2.9446380138397217 6.62601900100708 0.33370810747146606 4456788 5 -1
2.940737009048462 6.617241382598877 0.5005621314048767 4456788 5 -1
2.833519458770752 6.674293041229248 0.33370810747146606 4456788 5 -1
-4.505059242248535 5.691293716430664 0 4456788 0 -1
3.011167526245117 6.625185489654541 0.4469393789768219 4456788 5 -1
2.9554052352905273 6.650247573852539 0.4469393789768219 4456788 5 -1
2.9567110538482666 6.653186321258545 0.39107197523117065 4456788 5 -1
2.9539241790771484 6.646914958953857 0.5028068423271179 4456788 5 -1
2.902973175048828 6.682415962219238 0.2793371081352234 4456788 5 -1
2.7920589447021484 6.731599807739258 0.22346968948841095 4456788 5 -1
2.791320323944092 6.729819297790527 0.2793371081352234 4456788 5 -1
2.909496307373047 6.697431564331055 0.5611683130264282 4456788 5 -1
2.972794771194458 6.689377784729004 0.22446732223033905 4456788 5 -1
2.803781509399414 6.759862899780273 0.2805841565132141 4456788 5 -1
2.801802635192871 6.755091667175293 0.39281782507896423 4456788 5 -1
2.801802635192871 6.755091667175293 0.39281782507896423 4456788 5 -1
2.8589322566986084 6.734152317047119 0.33670100569725037 4456788 5 -1
2.851774215698242 6.717291831970215 0.6172851324081421 4456788 5 -1
-4.488819122314453 5.785634994506836 0.11223366111516953 4456788 0 -1
2.9425039291381836 6.621216773986816 -1.0662198066711426 4456788 0 -1
2.9767801761627197 6.69834566116333 0.6200286149978638 4456788 5 -1
2.930269956588745 6.745251178741455 -0.16909871995449066 4456788 5 -1
2.8175673484802246 6.793099880218506 -0.16909871995449066 4456788 5 -1
2.874593734741211 6.771042823791504 -0.05636623874306679 4456788 5 -1
2.7619457244873047 6.8180012702941895 0 4456788 5 -1
2.76186466217041 6.817800998687744 0.05636623874306679 4456788 5 -1
2.817981004714966 6.794097423553467 0.11273247748613358 4456788 5 -1
2.816987991333008 6.791703224182129 0.22546495497226715 4456788 5 -1
2.872567653656006 6.766270160675049 0.28183120489120483 4456788 5 -1
2.8175673484802246 6.793099880218506 0.16909871995449066 4456788 5 -1
2.8153319358825684 6.787710666656494 0.3381974399089813 4456788 5 -1
2.869272232055664 6.75850772857666 0.4509299099445343 4456788 5 -1
2.8170528411865234 6.6355061531066895 1.465522289276123 4456788 0 -1
-4.504530906677246 5.8058857917785645 0.3381974399089813 4456788 0 -1
2.7734336853027344 6.846359729766846 -0.16984695196151733 4456788 5 -1
2.8300344944000244 6.823157787322998 -0.16984695196151733 4456788 5 -1
3.057155132293701 6.726367950439453 -0.05661564692854881 4456788 5 -1
2.8294525146484375 6.8217549324035645 -0.22646258771419525 4456788 5 -1
2.8300344944000244 6.823157787322998 0.16984695196151733 4456788 5 -1
2.884345054626465 6.794011116027832 0.33969390392303467 4456788 5 -1
2.9984264373779297 6.747053623199463 0.28307825326919556 4456788 5 -1
3.0550005435943604 6.7216267585754395 0.28307825326919556 4456788 5 -1
2.790271282196045 6.727290153503418 1.2455443143844604 4456788 0 -1
2.996309995651245 6.742291450500488 -0.3963095247745514 4456788 5 -1
2.9384772777557373 6.764143466949463 -0.4529251754283905 4456788 5 -1
-4.52911901473999 5.837576866149902 0.05661564692854881 4456788 0 -1
2.842918872833252 6.854222297668457 -0.11373011022806168 4456788 5 -1
2.8993515968322754 6.82935905456543 -0.1705951690673828 4456788 5 -1
2.900117874145508 6.8311638832092285 0 4456788 5 -1
2.7863876819610596 6.878337860107422 0 4456788 5 -1
2.8993515968322754 6.82935905456543 0.1705951690673828 4456788 5 -1
3.0649383068084717 6.743492126464844 0.4549204409122467 4456788 5 -1
3.1216964721679688 6.717406272888184 0.4549204409122467 4456788 5 -1
3.0106611251831055 6.7745842933654785 0.3411903381347656 4456788 5 -1
2.9555935859680176 6.803544044494629 0.22746022045612335 4456788 5 -1
2.82684588432312 6.815470218658447 0.7961108088493347 4456788 0 -1
2.9000327587127686 6.830963611602783 0.05686505511403084 4456788 5 -1
2.952726364135742 6.796943664550781 -0.39805540442466736 4456788 5 -1
2.948289632797241 6.786730766296387 -0.5686505436897278 4456788 5 -1
2.8915915489196777 6.8110809326171875 -0.5686505436897278 4456788 5 -1
2.946460723876953 6.782520771026611 -0.6255156397819519 4456788 5 -1
2.883382797241211 6.791744709014893 -0.7961108088493347 4456788 5 -1
-4.548002243041992 5.8619160652160645 -0.1705951690673828 4456788 0 -1
2.908644676208496 6.851248741149902 -0.39980125427246094 4456788 5 -1
2.9073598384857178 6.848222255706787 -0.4569157063961029 4456788 5 -1
2.912752151489258 6.860923767089844 -0.05711446329951286 4456788 5 -1
2.8556394577026367 6.884891033172607 0.05711446329951286 4456788 5 -1
3.1412034034729004 6.7593817710876465 -0.05711446329951286 4456788 5 -1
2.6305692195892334 6.814294815063477 1.484976053237915 4456788 0 -1
2.9128377437591553 6.861125469207764 0 4456788 5 -1
3.135388135910034 6.74686861038208 0.4569157063961029 4456788 5 -1
2.9528141021728516 6.797145843505859 -0.7996025085449219 4456788 5 -1
2.893533945083618 6.815655708312988 -0.8567169904708862 4456788 5 -1
2.9042739868164062 6.840953826904297 -0.5711446404457092 4456788 5 -1
2.896029233932495 6.821533203125 -0.7996025085449219 4456788 5 -1
-4.509922981262207 5.930266857147217 -0.22845785319805145 4456788 0 -1
3.1549203395843506 6.788898944854736 0.05736387148499489 4456788 5 -1
3.0975582599639893 6.815262317657471 -0.05736387148499489 4456788 5 -1
3.0943737030029297 6.808256149291992 0.3441832363605499 4456788 5 -1
2.982133150100708 6.864635944366455 0.17209161818027496 4456788 5 -1
3.097285270690918 6.814662456512451 0.11472774296998978 4456788 5 -1
3.326225519180298 6.704667568206787 0.17209161818027496 4456788 5 -1
3.32466197013855 6.701516151428223 0.28681936860084534 4456788 5 -1
2.9252140522003174 6.89027738571167 0.11472774296998978 4456788 5 -1
2.9241831302642822 6.887848854064941 0.22945548593997955 4456788 5 -1
2.9828338623046875 6.866248607635498 -0.05736387148499489 4456788 5 -1
3.0345678329467773 6.828379154205322 0.4589109718799591 4456788 5 -1
2.913163900375366 6.861893653869629 -0.6883664727210999 4456788 5 -1
2.972306728363037 6.842016220092773 -0.6310026049613953 4456788 5 -1
2.9006309509277344 6.832372665405273 -0.9751858115196228 4456788 5 -1
2.9034879207611084 6.839102268218994 -0.9178219437599182 4456788 5 -1
-4.471096992492676 5.997748374938965 -0.28681936860084534 4456788 0 -1
3.16863751411438 6.818415641784668 -0.05761327967047691 4456788 5 -1
3.111117124557495 6.845095157623291 0 4456788 5 -1
3.053145408630371 6.870182037353516 -0.11522655934095383 4456788 5 -1
3.1078274250030518 6.837857246398926 -0.3456796705722809 4456788 5 -1
2.938277244567871 6.921047687530518 0 4456788 5 -1
3.3414721488952637 6.735400676727295 0.05761327967047691 4456788 5 -1
2.9375009536743164 6.919219017028809 0.17283983528614044 4456788 5 -1
2.9958906173706055 6.896304607391357 0 4456788 5 -1
2.8838627338409424 6.792875289916992 -1.440332055091858 4456788 0 -1
3.01743483543396 6.7898268699646 -1.1522656679153442 4456788 0 -1
2.798997640609741 6.909465312957764 -0.9794257879257202 4456788 5 -1
3.0705759525299072 6.755896091461182 -1.209878921508789 4456788 0 -1
2.8684606552124023 6.915802955627441 -0.6913593411445618 4456788 5 -1
3.08138370513916 6.779675483703613 -1.037039041519165 4456788 5 -1
2.9258298873901367 6.891728401184082 -0.6913593411445618 4456788 5 -1
3.0663623809814453 6.899923324584961 0.11572537571191788 4456788 5 -1
3.180952787399292 6.844916343688965 -0.23145075142383575 4456788 5 -1
3.1790828704833984 6.840892791748047 -0.34717613458633423 4456788 5 -1
3.124218225479126 6.87391996383667 0.11572537571191788 4456788 5 -1
3.122291088104248 6.869680404663086 -0.2893134355545044 4456788 5 -1
3.008859872817993 6.926158428192139 0 4456788 5 -1
3.0087714195251465 6.925955295562744 -0.05786268785595894 4456788 5 -1
3.008859872817993 6.926158428192139 0 4456788 5 -1
3.004528522491455 6.9161882400512695 -0.40503883361816406 4456788 5 -1
2.8345224857330322 6.997160911560059 -0.17358806729316711 4456788 5 -1
3.113466501235962 6.850264072418213 -0.6364895701408386 4456788 5 -1
3.0374133586883545 6.834782123565674 -1.041528344154358 4456788 5 -1
2.9801037311553955 6.859964370727539 -1.041528344154358 4456788 5 -1
2.9801037311553955 6.859964370727539 -1.041528344154358 4456788 5 -1
2.9339683055877686 6.910898208618164 -0.8100776672363281 4456788 5 -1
2.9339683055877686 6.910898208618164 -0.8100776672363281 4456788 5 -1
2.986161947250366 6.873909950256348 -0.925803005695343 4456788 5 -1
2.8828394412994385 6.950469493865967 -0.6364895701408386 4456788 5 -1
2.9227941036224365 6.88457727432251 -1.041528344154358 4456788 5 -1
1.793743371963501 7.335352420806885 0 13164576 0 -1
3.021740436553955 6.955808639526367 0.058112096041440964 4456788 5 -1
3.3624775409698486 6.777740955352783 -0.5230088829994202 4456788 5 -1
3.1867687702178955 6.857431411743164 -0.5811209678649902 4456788 5 -1
3.079127311706543 6.928646564483643 0.1743362843990326 4456788 5 -1
3.1946637630462646 6.874420166015625 0.23244838416576385 4456788 5 -1
3.2541818618774414 6.850144863128662 -0.058112096041440964 4456788 5 -1
3.1953208446502686 6.875833988189697 0.1743362843990326 4456788 5 -1
2.963629961013794 6.980765342712402 -0.058112096041440964 4456788 5 -1
2.963629961013794 6.980765342712402 -0.058112096041440964 4456788 5 -1
3.079127311706543 6.928646564483643 -0.1743362843990326 4456788 5 -1
2.905263662338257 7.0045342445373535 0.11622419208288193 4456788 5 -1
2.9034717082977295 7.000213623046875 0.2905604839324951 4456788 5 -1
2.9034717082977295 7.000213623046875 0.2905604839324951 4456788 5 -1
2.9466147422790527 6.9406867027282715 -0.8135693669319153 4456788 5 -1
3.0505056381225586 6.8642425537109375 -1.0460177659988403 4456788 5 -1
2.9466147422790527 6.9406867027282715 -0.8135693669319153 4456788 5 -1
2.938465118408203 6.92149019241333 -0.9879056215286255 4456788 5 -1
3.0923423767089844 6.958383560180664 0.17508451640605927 4456788 5 -1
3.1515212059020996 6.933992385864258 0 4456788 5 -1
3.150688409805298 6.932159900665283 -0.17508451640605927 4456788 5 -1
3.188610315322876 6.86139440536499 -0.8754225969314575 4456788 5 -1
3.0977730751037598 6.815735340118408 -1.4006761312484741 4456788 0 -1
3.0977730751037598 6.815735340118408 -1.4006761312484741 4456788 0 -1
3.209505796432495 6.906358242034912 0.11672300845384598 4456788 5 -1
2.9760873317718506 7.01010799407959 -0.11672300845384598 4456788 5 -1
3.209505796432495 6.906358242034912 -0.11672300845384598 4456788 5 -1
3.2090346813201904 6.905344009399414 -0.17508451640605927 4456788 5 -1
3.151151180267334 6.933177947998047 -0.11672300845384598 4456788 5 -1
3.092796564102173 6.959405422210693 -0.11672300845384598 4456788 5 -1
3.0923423767089844 6.958383560180664 -0.17508451640605927 4456788 5 -1
3.149207592010498 6.928901672363281 -0.29180753231048584 4456788 5 -1
3.0347092151641846 6.98566198348999 -0.05836150422692299 4456788 5 -1
3.142256021499634 6.913606643676758 -0.5836150646209717 4456788 5 -1
2.9658453464508057 6.985983371734619 0.641976535320282 4456788 5 -1
2.8555972576141357 7.049184799194336 0.4085305333137512 4456788 5 -1
2.9858553409576416 6.718766689300537 -2.1099929809570312 4456788 0 -1
3.0231916904449463 6.802780628204346 -1.7583273649215698 4456788 0 -1
3.1649892330169678 6.963624954223633 0 4456788 5 -1
3.1646175384521484 6.9628071784973145 -0.11722182482481003 4456788 5 -1
3.2806692123413086 6.9059014320373535 -0.23444364964962006 4456788 5 -1
3.2235054969787598 6.936483383178711 -0.058610912412405014 4456788 5 -1
3.1062872409820557 6.989761829376221 -0.058610912412405014 4456788 5 -1
3.1063783168792725 6.989967346191406 0 4456788 5 -1
3.1063783168792725 6.989967346191406 0 4456788 5 -1
3.1062872409820557 6.989761829376221 -0.058610912412405014 4456788 5 -1
3.340723991394043 6.880795955657959 0.058610912412405014 4456788 5 -1
3.1646175384521484 6.9628071784973145 -0.11722182482481003 4456788 5 -1
2.978519916534424 7.015838146209717 0.6447200179100037 4456788 5 -1
2.8665337562561035 7.0761823654174805 0.4688872992992401 4456788 5 -1
3.118131399154663 7.016413688659668 0.23544128239154816 4456788 5 -1
3.1287081241607666 6.883798599243164 -1.3537874221801758 4456788 0 -1
3.2296106815338135 6.949620723724365 -0.5297428965568542 4456788 5 -1
3.234941005706787 6.961090564727783 0.2943015992641449 4456788 5 -1
3.1187727451324463 7.017856597900391 -0.17658096551895142 4456788 5 -1
3.293757915496826 6.9334540367126465 -0.2943015992641449 4456788 5 -1
3.237222671508789 6.966000556945801 -0.05886032059788704 4456788 5 -1
3.3549399375915527 6.910076141357422 -0.05886032059788704 4456788 5 -1
3.236462354660034 6.964364051818848 -0.17658096551895142 4456788 5 -1
3.053450107574463 7.028801918029785 0.5297428965568542 4456788 5 -1
2.8800039291381836 7.109434127807617 0.41202226281166077 4456788 5 -1
3.1885502338409424 7.015463829040527 -0.3546583652496338 4456788 5 -1
3.1503312587738037 6.9313740730285645 -1.2413042783737183 4456788 0 -1
3.0297183990478516 6.974173545837402 -1.3004140853881836 4456788 0 -1
3.185922622680664 7.009682655334473 -0.4728778302669525 4456788 5 -1
3.129503011703491 7.042002201080322 -0.3546583652496338 4456788 5 -1
3.191925287246704 7.022889614105225 0 4456788 5 -1
3.191082000732422 7.021033763885498 -0.1773291826248169 4456788 5 -1
3.1319878101348877 7.047593593597412 -0.1773291826248169 4456788 5 -1
3.191082000732422 7.021033763885498 -0.1773291826248169 4456788 5 -1
3.073615789413452 7.075221538543701 -0.059109728783369064 4456788 5 -1
3.1915504932403564 7.022065162658691 -0.11821945756673813 4456788 5 -1
3.309270143508911 6.966107368469238 -0.1773291826248169 4456788 5 -1
3.191082000732422 7.021033763885498 -0.1773291826248169 4456788 5 -1
3.191082000732422 7.021033763885498 -0.1773291826248169 4456788 5 -1
3.1319878101348877 7.047593593597412 0.1773291826248169 4456788 5 -1
3.0852251052856445 7.101945400238037 -0.23743654787540436 4456788 5 -1
3.141505479812622 7.069010257720947 -0.4155139625072479 4456788 5 -1
3.140117883682251 7.065887928009033 -0.4748730957508087 4456788 5 -1
3.258612871170044 7.01202917098999 -0.4748730957508087 4456788 5 -1
3.3178603649139404 6.984190464019775 -0.4748730957508087 4456788 5 -1
3.264369249343872 7.024415493011475 -0.11871827393770218 4456788 5 -1
3.145664930343628 7.078369617462158 -0.11871827393770218 4456788 5 -1
3.2045464515686035 7.050658702850342 -0.17807741463184357 4456788 5 -1
3.085859537124634 7.103405952453613 -0.17807741463184357 4456788 5 -1
3.085859537124634 7.103405952453613 -0.17807741463184357 4456788 5 -1
-2.371854782104492 7.366143703460693 0.35615482926368713 2271109 4 -1
-2.551243782043457 7.31077241897583 0.23743654787540436 2468738 4 -1
-2.433438777923584 7.353699684143066 0.11871827393770218 3257723 4 -1
-2.489495038986206 7.324095726013184 0.4155139625072479 3651704 4 -1
-2.4930105209350586 7.334438800811768 0.05935913696885109 5949540 4 -1
2.937774658203125 7.0829176902771 -1.3113880157470703 4456788 0 -1
3.095182418823242 7.124866485595703 -0.4172598123550415 4456788 5 -1
3.3214762210845947 6.991801738739014 -0.774911105632782 4456788 5 -1
3.2184834480285645 7.081323146820068 -0.11921709030866623 4456788 5 -1
3.2723045349121094 7.041491508483887 -0.4768683612346649 4456788 5 -1
3.2737507820129395 7.04460334777832 -0.4172598123550415 4456788 5 -1
-2.3842718601226807 7.4047064781188965 -0.059608545154333115 2328718 4 -1
-2.622699022293091 7.323652267456055 -0.059608545154333115 2134668 4 -1
-2.5034854412078857 7.365255832672119 -0.059608545154333115 2072968 4 -1
-2.502382755279541 7.362011432647705 0.23843418061733246 2468738 4 -1
-2.502897262573242 7.363525390625 0.17882563173770905 3257723 4 -1
