VERSION .7
FIELDS x y z rgb label object
SIZE 4 4 4 4 4 4
TYPE F F F I I I
COUNT 1 1 1 1 1 1
WIDTH 692
HEIGHT 1
POINTS 692
VIEWPOINT 0 0 0 1 0 0 0
DATA ascii
-3.8298966884613037 0.7617062330245972 -0.08978693187236786 4456788 0 -1
-2.858891725540161 2.632816791534424 0.38907670974731445 4456788 0 -1
-2.6476693153381348 2.7803356647491455 0.7182954549789429 4456788 0 -1
-3.514054536819458 1.6602433919906616 0.38907670974731445 4456788 0 -1
-3.0818700790405273 2.3979954719543457 0.08978693187236786 4456788 0 -1
-2.8610100746154785 2.634767770767212 0.35914772748947144 4456788 0 -1
-2.5809543132781982 2.8265738487243652 0.7781534194946289 4456788 0 -1
3.7991943359375 0.8989760279655457 -0.11971590667963028 4456788 0 -1
-3.5736145973205566 1.5278301239013672 0.38907670974731445 4456788 0 -1
-2.856602191925049 2.6307082176208496 0.41900569200515747 4456788 0 -1
-2.610283374786377 2.799511671066284 0.7781534194946289 4456788 0 -1
-3.8304591178894043 0.7618180513381958 -0.05985795333981514 4456788 0 -1
-2.680907964706421 2.755948305130005 0.6883664727210999 4456788 0 -1
-3.6759650707244873 1.3037474155426025 0.20950284600257874 4456788 0 -1
-3.018475294113159 2.4700775146484375 0.20950284600257874 4456788 0 -1
-2.7864365577697754 2.6836390495300293 0.5387215614318848 4456788 0 -1
-3.770054578781128 1.0173463821411133 0.08978693187236786 4456788 0 -1
-2.8541407585144043 2.628441572189331 0.4489346444606781 4456788 0 -1
-2.2341811656951904 3.057378053665161 0.9577272534370422 4456788 0 -1
-3.4119033813476562 1.901389718055725 0 4456788 0 -1
-3.2276766300201416 2.189652919769287 0.20950284600257874 4456788 0 -1
-3.2276766300201416 2.189652919769287 0.20950284600257874 4456788 0 -1
-2.6318163871765137 2.8822762966156006 0.1496448814868927 4456788 0 -1
-2.235809564590454 3.1211495399475098 0.7182954549789429 4456788 0 -1
-3.3435089588165283 1.8632746934890747 0.7781534194946289 4456788 0 -1
-3.018475294113159 2.4700775146484375 0.20950284600257874 4456788 0 -1
-2.975513219833374 2.4349207878112793 0.6883664727210999 4456788 0 -1
-3.0077922344207764 2.4613354206085205 0.38907670974731445 4456788 0 -1
-3.0196304321289062 2.471022605895996 0.17957386374473572 4523353 0 -1
-3.2588090896606445 2.1457595825195312 -0.17957386374473572 4726897 0 -1
-2.3983235359191895 2.9101431369781494 1.017585277557373 4726897 0 -1
-3.021406412124634 2.472476005554199 0.11971590667963028 4728182 0 -1
-2.7734901905059814 2.7305190563201904 0.3292187452316284 2977934 0 -1
3.5974066257476807 1.4537849426269531 -0.4489346444606781 2328718 0 -1
-3.830796480178833 0.7618851661682129 -0.02992897666990757 2072968 0 -1
-2.534092426300049 2.8334736824035645 0.8978692889213562 2072968 0 -1
3.7991943359375 0.8989760279655457 -0.11971590667963028 2072968 0 -1
-1.9791109561920166 3.308241844177246 0.6285085082054138 7589974 0 -1
2.2952778339385986 2.899651050567627 1.2570170164108276 7589974 0 -1
-3.6428911685943604 1.4721661806106567 0.2716054618358612 4456788 0 -1
-3.6428911685943604 1.4721661806106567 0.2716054618358612 4456788 0 -1
-2.85040283203125 2.6848461627960205 0.42249739170074463 4456788 0 -1
-2.6024622917175293 2.850128650665283 0.784637987613678 4456788 0 -1
3.7984557151794434 1.0250104665756226 -0.18107031285762787 4456788 0 -1
-3.1069133281707764 2.4174816608428955 0.12071353942155838 4456788 0 -1
-2.6697330474853516 2.8035051822662354 0.7242812514305115 4456788 0 -1
-1.9518465995788574 3.3296151161193848 0.784637987613678 4456788 0 -1
-0.37439194321632385 3.7398264408111572 -1.1769570112228394 4456788 0 -1
1.404828429222107 3.639104127883911 -0.5432109236717224 4456788 0 -1
-3.77130126953125 1.1317195892333984 0.09053515642881393 4456788 0 -1
-3.2568726539611816 2.2094595432281494 -0.15089192986488342 4456788 0 -1
-2.914902448654175 2.62371826171875 0.36214062571525574 4456788 0 -1
-2.8814852237701416 2.5936391353607178 0.6941028833389282 4456788 0 -1
-2.232137441635132 3.116023302078247 0.9053515791893005 4456788 0 -1
3.4655184745788574 1.8593695163726807 -0.21124869585037231 4456788 0 -1
-3.468883752822876 1.8611751794815063 -0.12071353942155838 4456788 0 -1
-2.2576584815979004 3.1516501903533936 0.6941028833389282 4456788 0 -1
-3.0278172492980957 2.47772216796875 0.45267578959465027 4456788 0 -1
-3.030428409576416 2.479858875274658 0.42249739170074463 4456788 0 -1
-3.039055824279785 2.4869189262390137 0.30178385972976685 4523353 0 -1
-2.9820735454559326 2.440289258956909 0.814816415309906 4657508 0 -1
-3.5053117275238037 1.6561129093170166 -0.6941028833389282 4725613 0 -1
-3.3875579833984375 1.957354187965393 -0.45267578959465027 4725613 0 -1
-3.228708028793335 2.254662036895752 -0.06035676971077919 4725613 0 -1
-3.039055824279785 2.4869189262390137 0.30178385972976685 4725613 0 -1
-2.545370578765869 2.8460843563079834 0.965708315372467 4725613 0 -1
-3.28596568107605 2.1636409759521484 -0.18107031285762787 4726897 0 -1
-3.0422849655151367 2.4895613193511963 0.24142707884311676 4726897 0 -1
-3.197406053543091 2.2964587211608887 0.12071353942155838 4212104 0 -1
-3.069145441055298 2.449688196182251 0.30178385972976685 4212104 0 -1
-2.343942165374756 3.1442787647247314 0.36214062571525574 4212104 0 -1
-2.262315511703491 3.221654176712036 0.12071353942155838 2328718 0 -1
-3.2765402793884277 2.222801923751831 0.3042779266834259 4456788 0 -1
-2.304283380508423 3.216737747192383 0.33470574021339417 4456788 0 -1
-3.047022581100464 2.493438243865967 0.5172724723815918 4456788 0 -1
-3.274644136428833 2.090672254562378 -0.8215504288673401 4523353 0 -1
-3.0116021633148193 2.4644529819488525 0.7911226153373718 4657508 0 -1
-2.7967028617858887 2.634265184402466 1.0041171312332153 4657508 0 -1
-2.3599143028259277 3.0416910648345947 0.9736893773078918 4657508 0 -1
-3.12078595161438 2.4282758235931396 0.36513352394104004 4212104 0 -1
-2.4236629009246826 2.940890073776245 1.2270880937576294 4456788 0 -1
-3.862809419631958 0.9140288233757019 -0.5215124487876892 4456788 0 -1
-1.9930046796798706 3.3998258113861084 0.7055756449699402 4456788 0 -1
-3.08829927444458 2.4649760723114014 -0.6442212462425232 4456788 0 -1
-2.653553009033203 2.906081438064575 -0.7362528443336487 4523353 0 -1
-2.443533420562744 3.0254714488983154 0.9509932398796082 4725613 0 -1
-2.444903612136841 3.1512339115142822 0.6185321807861328 4456788 0 -1
-2.1523702144622803 3.386775255203247 0.4329725205898285 4456788 0 -1
-3.4914162158966064 1.7998924255371094 0.9277982711791992 4456788 0 -1
-2.7966253757476807 2.6341922283172607 -1.2370643615722656 4456788 0 -1
-2.5971806049346924 2.8443443775177 1.206137776374817 4456788 0 -1
-3.2778356075286865 2.3542253971099854 -0.06185321882367134 4456788 0 -1
-2.9990885257720947 2.6994946002960205 -0.09277983009815216 4523353 0 -1
-2.873133420944214 2.828618288040161 -0.18555966019630432 4523353 0 -1
-2.5657026767730713 3.1132421493530273 0.12370643764734268 4728182 0 -1
-1.9386860132217407 3.517138957977295 -0.40204593539237976 4728182 0 -1
-3.0904648303985596 2.5289878845214844 0.7794004678726196 4456788 0 -1
-2.436664581298828 3.20406174659729 0.592344343662262 4456788 0 -1
-3.065971612930298 2.63350510597229 -0.4676402509212494 4456788 0 -1
-2.4940083026885986 3.214524745941162 0.031176017597317696 4456788 0 -1
-3.2726168632507324 2.4156675338745117 -0.09352805465459824 4456788 0 -1
-3.1251380443573 2.431662082672119 -0.9352805018424988 4523353 0 -1
-3.053006649017334 2.6849710941314697 0.15588009357452393 4523353 0 -1
-3.019160032272339 2.6552047729492188 -0.6235203742980957 4590430 0 -1
-2.301563262939453 3.2129404544830322 -0.9664565324783325 4590430 0 -1
-2.3969504833221436 3.1518402099609375 -0.9352805018424988 4728182 0 -1
-3.1151885986328125 2.549219846725464 0.7856356501579285 4456788 0 -1
-2.456157922744751 3.229694366455078 0.5970830917358398 4456788 0 -1
-3.0975699424743652 2.5975425243377686 0.6913593411445618 4456788 0 -1
-2.512852907180786 3.238813638687134 0.12570171058177948 4456788 0 -1
-2.384894371032715 3.3292691707611084 0.2199779748916626 4456788 0 -1
-3.298797845840454 2.434992790222168 -0.09427627921104431 4456788 0 -1
-3.171934127807617 2.468074083328247 -0.8170610666275024 4523353 0 -1
-3.072359800338745 2.701991319656372 0.28282883763313293 4523353 0 -1
-2.5364015102386475 3.204265594482422 0.3456796705722809 4523353 0 -1
-2.331115961074829 3.1900291442871094 1.099889874458313 4523353 0 -1
-3.0705759525299072 2.6374599933624268 -0.6599339246749878 4590430 0 -1
-2.478055953979492 3.1939640045166016 -0.6913593411445618 4590430 0 -1
-2.289449691772461 3.2602949142456055 -0.9741882085800171 4590430 0 -1
-3.1595213413238525 2.5218231678009033 0.6913593411445618 4728182 0 -1
-2.6218338012695312 2.9315810203552246 1.162740707397461 4728182 0 -1
-2.4818198680877686 3.1353118419647217 0.9113373756408691 4728182 0 -1
-2.4926137924194336 3.2127275466918945 0.5342322587966919 4729209 0 -1
-3.0803327560424805 2.3967995643615723 1.3620178699493408 4456788 0 -1
-3.0518338680267334 2.621361494064331 0.9502450227737427 4456788 0 -1
-2.533689260482788 3.265669345855713 0.06334967166185379 4456788 0 -1
-3.356645107269287 2.4108285903930664 0.09502450376749039 4456788 0 -1
-2.349616765975952 3.2153468132019043 1.108619213104248 4523353 0 -1
-3.19266939163208 2.548280715942383 0.6334967017173767 4728182 0 -1
-2.4943246841430664 3.214932680130005 0.7285211682319641 4728182 0 -1
-3.19266939163208 2.548280715942383 0.6334967017173767 4729209 0 -1
-2.6819145679473877 2.9987597465515137 0.9502450227737427 4729209 0 -1
-2.506988525390625 3.231255054473877 0.6018218398094177 4729209 0 -1
-2.4241645336151123 3.1876251697540283 -1.1492726802825928 4523353 0 -1
0.4666726887226105 4.661624908447266 0.1436590850353241 4341894 6 -1
0.5028068423271179 4.660080909729004 0 4147337 6 -1
0.5387057662010193 4.655929088592529 -0.035914771258831024 3107982 6 -1
0.5742144584655762 4.648354530334473 -0.17957386374473572 2977934 6 -1
0.5743663907051086 4.6495842933654785 -0.1436590850353241 2912910 6 -1
0.47013434767723083 4.696203708648682 0 4725613 6 -1
0.5061647295951843 4.691202640533447 0.10849253833293915 4726897 6 -1
0.5784739851951599 4.682836055755615 0.10849253833293915 4728182 6 -1
0.6147188544273376 4.678915023803711 0.0723283588886261 4729209 6 -1
0.5062836408615112 4.692304611206055 0.03616417944431305 4147337 6 -1
0.5786268711090088 4.6840739250183105 0 3302798 6 -1
0.5424627065658569 4.688399314880371 0 3107982 6 -1
0.5424467921257019 4.688261985778809 -0.03616417944431305 2977934 6 -1
0.5786268711090088 4.6840739250183105 0 2912910 6 -1
0.5786268711090088 4.6840739250183105 0 2523534 6 -1
0.5786268711090088 4.6840739250183105 0 2458766 6 -1
0.6870387196540833 4.668843746185303 -0.0723283588886261 2271109 6 -1
0.6870387196540833 4.668843746185303 -0.0723283588886261 2468738 6 -1
0.6858272552490234 4.660611152648926 -0.2893134355545044 2666112 6 -1
0.687099277973175 4.669255256652832 0.03616417944431305 2994813 6 -1
0.7586447596549988 4.653249740600586 -0.2169850766658783 3257723 6 -1
0.47169217467308044 4.711764812469482 0.4005494713783264 4456788 6 -1
0.6511008739471436 4.67561674118042 0.5462038516998291 4456788 6 -1
0.5817787647247314 4.709588527679443 0.2548951208591461 4456788 6 -1
0.5095507502555847 4.7225847244262695 0.1456543505191803 4456788 6 -1
0.54517662525177 4.711855411529541 0.2913087010383606 4456788 6 -1
0.5094159841537476 4.721335411071777 0.18206794559955597 4726897 6 -1
0.582189679145813 4.712914943695068 0.18206794559955597 4728182 6 -1
0.582189679145813 4.712914943695068 0.18206794559955597 4729209 6 -1
0.5461878180503845 4.720594882965088 0.036413587629795074 3107982 6 -1
0.6918378472328186 4.7014570236206055 0.036413587629795074 3107982 6 -1
0.582548975944519 4.715823650360107 0.07282717525959015 2912910 6 -1
0.7282503843307495 4.695954322814941 0.036413587629795074 2912910 6 -1
0.5826002955436707 4.7162394523620605 0.036413587629795074 2588302 6 -1
0.7282503843307495 4.695954322814941 0.036413587629795074 2588302 6 -1
0.5826002955436707 4.7162394523620605 0.036413587629795074 2523534 6 -1
0.5826174020767212 4.7163777351379395 0 2458766 6 -1
0.6554253697395325 4.706671237945557 -0.036413587629795074 2139270 6 -1
0.6918378472328186 4.7014570236206055 -0.036413587629795074 2271109 6 -1
0.691858172416687 4.701594829559326 0 2468738 6 -1
0.6918378472328186 4.7014570236206055 0.036413587629795074 2994813 6 -1
0.8374142050743103 4.677295684814453 -0.07282717525959015 2994813 6 -1
0.8010989427566528 4.684218406677246 0 3257723 6 -1
0.6916753649711609 4.700352668762207 0.10924076288938522 3651704 6 -1
0.8738235235214233 4.67063045501709 -0.07282717525959015 3651704 6 -1
0.7644832730293274 4.689061164855957 -0.10924076288938522 5424489 6 -1
0.5491533279418945 4.746224880218506 0.2566409707069397 4456788 6 -1
0.4027124345302582 4.760887145996094 0.2566409707069397 4456788 6 -1
0.4383904039859772 4.747552394866943 0.4032929539680481 4456788 6 -1
0.5857635140419006 4.741846084594727 0.2566409707069397 4456788 6 -1
0.5861772894859314 4.745195388793945 0.1833149790763855 4728182 6 -1
0.622978150844574 4.741779804229736 0.1466519832611084 4729209 6 -1
0.6594494581222534 4.735568523406982 0.1833149790763855 3887499 6 -1
0.6964128613471985 4.732546806335449 0.1099889874458313 3107982 6 -1
0.732915461063385 4.7260355949401855 0.1466519832611084 2912910 6 -1
0.6232709288597107 4.744009017944336 0 2134668 6 -1
0.806207001209259 4.714086532592773 0.1466519832611084 2134668 6 -1
0.6599145531654358 4.738908767700195 -0.0366629958152771 2139270 6 -1
0.6599145531654358 4.738908767700195 -0.0366629958152771 2271109 6 -1
0.6965969204902649 4.733797550201416 0 2468738 6 -1
0.6965764760971069 4.733658313751221 0.0366629958152771 2994813 6 -1
0.8432241678237915 4.709746837615967 -0.0366629958152771 2994813 6 -1
0.8431499004364014 4.70933198928833 0.0733259916305542 3257723 6 -1
0.8798860907554626 4.703035354614258 -0.0366629958152771 3651704 6 -1
0.8432241678237915 4.709746837615967 0.0366629958152771 7589974 6 -1
0.8798860907554626 4.703035354614258 -0.0366629958152771 8180304 6 -1
0.5517157912254333 4.768372058868408 0.40603646636009216 4456788 6 -1
0.5158018469810486 4.780520439147949 0.295299232006073 4456788 6 -1
0.47815370559692383 4.776309490203857 0.40603646636009216 4456788 6 -1
0.5142034292221069 4.765706539154053 0.4798612594604492 4456788 6 -1
0.40431636571884155 4.779848575592041 0.4429488480091095 4456788 6 -1
0.4050697982311249 4.788755893707275 0.3322116434574127 4456788 6 -1
0.40401700139045715 4.776309490203857 0.4798612594604492 4456788 6 -1
0.4798049032688141 4.792803764343262 -0.07382480800151825 4456788 6 -1
0.4795089662075043 4.789847373962402 -0.18456202745437622 4456788 6 -1
0.40431636571884155 4.779848575592041 -0.4429488480091095 4456788 6 -1
0.40257689356803894 4.759284973144531 -0.6275109052658081 4523353 6 -1
0.5513405203819275 4.7651286125183105 -0.4429488480091095 4523353 6 -1
0.7000167965888977 4.757037162780762 0.295299232006073 4600703 6 -1
0.700820803642273 4.762501239776611 0.18456202745437622 3887499 6 -1
0.7382264137268066 4.760282516479492 0.036912404000759125 2782862 6 -1
0.738053023815155 4.759164333343506 0.11073721200227737 2718350 6 -1
0.5227687954902649 4.518188953399658 -1.5872334241867065 2271109 0 -1
0.6675815582275391 4.536620140075684 -1.4764962196350098 2994813 6 -1
0.8485864400863647 4.739697456359863 0.1476496160030365 3257723 6 -1
0.8858717083930969 4.7350287437438965 -0.036912404000759125 3651704 6 -1
0.8487609624862671 4.7406721115112305 0.11073721200227737 7589974 6 -1
0.5180613994598389 4.801462173461914 -0.4459417462348938 4456788 6 -1
0.3691553771495819 4.803570747375488 0.557427167892456 4456788 6 -1
0.5172631740570068 4.794064521789551 0.5202654004096985 4456788 6 -1
0.40607088804244995 4.800590991973877 0.557427167892456 4456788 6 -1
0.5202500820159912 4.821747779846191 0.03716181218624115 4456788 6 -1
0.5573617219924927 4.817168712615967 0.0743236243724823 4456788 6 -1
0.40877994894981384 4.832617282867432 0 4456788 6 -1
0.5574108362197876 4.817593097686768 -0.03716181218624115 4456788 6 -1
0.44582390785217285 4.828053951263428 -0.11148543655872345 4456788 6 -1
0.4458893835544586 4.828763008117676 -0.0743236243724823 4456788 6 -1
0.4073253273963928 4.815420627593994 -0.40877994894981384 4456788 6 -1
0.40569624304771423 4.796161651611328 -0.5945889949798584 4523353 6 -1
0.40757814049720764 4.8184099197387695 -0.3716181218624115 4724328 6 -1
0.4819534420967102 4.814265727996826 -0.33445632457733154 3692940 6 -1
0.4459286630153656 4.829188346862793 0.03716181218624115 3562893 6 -1
0.5202500820159912 4.821747779846191 -0.03716181218624115 3107982 6 -1
0.5200209617614746 4.819623947143555 -0.1486472487449646 2199437 6 -1
0.5263010263442993 4.548717498779297 -1.597957968711853 2271109 0 -1
0.7946252226829529 4.646365165710449 -1.2719814777374268 4456788 6 -1
0.5215383172035217 4.833686828613281 -0.4489346444606781 4456788 6 -1
0.5236955881118774 4.8536810874938965 -0.07482244074344635 4456788 6 -1
0.41031357645988464 4.850748062133789 0.37411221861839294 4456788 6 -1
0.36661282181739807 4.770486354827881 -0.9726917743682861 4456788 6 -1
0.6734020113945007 4.835762977600098 0 4456788 6 -1
0.48621734976768494 4.856858253479004 0.11223366111516953 4456788 6 -1
0.5233725905418396 4.850687026977539 0.18705610930919647 4456788 6 -1
0.44888192415237427 4.861170768737793 -0.07482244074344635 4456788 6 -1
0.44809040427207947 4.852598667144775 -0.2992897629737854 4456788 6 -1
0.41031357645988464 4.850748062133789 -0.37411221861839294 4456788 6 -1
0.40841904282569885 4.82835054397583 -0.5985795259475708 4523353 6 -1
0.40563416481018066 4.7954277992248535 -0.823046863079071 4726897 6 -1
0.6732240319252014 4.834485054016113 -0.11223366111516953 4726897 6 -1
0.4488160312175751 4.860456943511963 0.11223366111516953 3432845 6 -1
0.48633161187171936 4.857999324798584 -0.037411220371723175 3302798 6 -1
0.5237571001052856 4.854250907897949 0 3107982 6 -1
0.5237571001052856 4.854250907897949 0 2588302 6 -1
0.5237417221069336 4.8541083335876465 -0.037411220371723175 2199437 6 -1
0.5237571001052856 4.854250907897949 0 2134668 6 -1
0.5979465842247009 4.840469837188721 0.22446732223033905 2271109 6 -1
0.5611518621444702 4.849925994873047 -0.037411220371723175 2468738 6 -1
0.539395809173584 4.661892890930176 -1.3468040227890015 2666112 6 -1
0.5266913175582886 4.881445407867432 0.2259637713432312 4456788 6 -1
0.5268617272377014 4.883025169372559 0.188303142786026 4456788 6 -1
0.37443310022354126 4.872246265411377 0.5272487998008728 4456788 6 -1
0.6777122020721436 4.866714954376221 -0.1129818856716156 4456788 6 -1
0.6400614976882935 4.871809959411621 0.1129818856716156 4456788 6 -1
0.6400614976882935 4.871809959411621 0.1129818856716156 4456788 6 -1
0.40985316038131714 4.8453049659729 -0.7155519723892212 4523353 6 -1
0.40462008118629456 4.7834391593933105 -1.0544975996017456 4590430 6 -1
0.22301922738552094 4.845798015594482 -0.7908732295036316 4726897 6 -1
0.47647735476493835 4.759564399719238 -1.1298189163208008 4726897 6 -1
0.48957380652427673 4.890385627746582 0.0376606285572052 3562893 6 -1
0.4512770175933838 4.887108325958252 0.2636243999004364 3432845 6 -1
0.48957380652427673 4.890385627746582 -0.0376606285572052 3302798 6 -1
0.5299765467643738 4.911893367767334 0.26537024974823 4456788 6 -1
0.3779858350753784 4.91847562789917 0.37910038232803345 4456788 6 -1
0.5299765467643738 4.911893367767334 0.26537024974823 4456788 6 -1
0.6778584122657776 4.867765426635742 0.5686505436897278 4456788 6 -1
0.4545864462852478 4.922947883605957 0.18955019116401672 4456788 6 -1
0.6061152815818787 4.906596660614014 0.18955019116401672 4456788 6 -1
0.6443003416061401 4.904073238372803 0.11373011022806168 4456788 6 -1
0.5011045336723328 4.644303798675537 -1.6301316022872925 4456788 0 -1
0.5183814167976379 4.804428577423096 -1.06148099899292 4726897 6 -1
-0.22743351757526398 4.941712379455566 0.07582007348537445 3757452 0 -1
0.606489360332489 4.9096245765686035 -0.07582007348537445 3757452 6 -1
0.9045906662940979 4.835082530975342 0.53074049949646 3757452 0 -1
0.4544394314289093 4.921355724334717 -0.22746022045612335 3692940 6 -1
0.6822003722190857 4.898944854736328 0.11373011022806168 3562893 6 -1
0.6822003722190857 4.898944854736328 0.11373011022806168 3562893 6 -1
1.4405814409255981 4.733150959014893 0 3562893 0 -1
0.4372701942920685 4.735421180725098 -1.3647613525390625 3432845 6 -1
0.887093722820282 4.741560459136963 -1.0993911027908325 3432845 6 -1
0.45705220103263855 4.949650764465332 0.305275559425354 4456788 6 -1
0.5713152289390564 4.9377665519714355 0.305275559425354 4456788 6 -1
0.4576982259750366 4.95664644241333 -0.152637779712677 4456788 6 -1
0.43110349774360657 4.668638706207275 -1.6790156364440918 4456788 0 -1
0.8382993340492249 4.901738166809082 0.26711612939834595 3887499 6 -1
1.0225327014923096 4.835575103759766 0.610551118850708 3887499 0 -1
0.6104794144630432 4.941925048828125 -0.0763188898563385 3757452 6 -1
0.9112717509269714 4.870793342590332 0.49607279896736145 3757452 0 -1
0.4574291408061981 4.953732967376709 -0.2289566695690155 3692940 6 -1
0.5760651230812073 4.978818893432617 0.07681770622730255 4456788 6 -1
0.6143792867660522 4.973495006561279 -0.11522655934095383 4664956 6 -1
0.6528738141059875 4.969330310821533 0.07681770622730255 2523534 6 -1
0.2677246630191803 4.984233856201172 -0.7345069646835327 4456788 6 -1
0.2677246630191803 4.984233856201172 -0.7345069646835327 4456788 6 -1
0.7708921432495117 4.970920085906982 -0.386582612991333 4456788 6 -1
0.7337303161621094 4.986141204833984 -0.2319495677947998 4456788 6 -1
0.5769898891448975 4.98681116104126 -0.5025573968887329 4456788 6 -1
0.5774174332618713 4.990506172180176 -0.4638991355895996 4728182 6 -1
0.6178781390190125 5.001818656921387 -0.2319495677947998 4664956 6 -1
0.7239955067634583 4.919987678527832 -0.8504817485809326 2134668 6 -1
0.7366151809692383 5.0057454109191895 -0.427984356880188 4456788 6 -1
0.5004107356071472 4.998636245727539 0.7392457127571106 4456788 0 -1
0.6612555980682373 5.033127784729004 -0.11672300845384598 4456788 6 -1
0.5389038324356079 4.994633197784424 0.7392457127571106 4456788 0 -1
0.49982503056526184 4.992785930633545 0.7781534194946289 4456788 0 -1
0.5792124271392822 5.0060200691223145 -0.6225227117538452 4728182 6 -1
0.6220656633377075 5.035717487335205 -0.19453835487365723 4664956 6 -1
0.5419982075691223 5.023312091827393 -0.5057997107505798 3887499 6 -1
0.7343466281890869 4.990329742431641 -0.5836150646209717 3887499 6 -1
0.5827749371528625 5.036810398101807 -0.2723536789417267 7589974 6 -1
0.8064138889312744 4.9462480545043945 -0.8170610666275024 7589974 6 -1
0.5036184787750244 5.030678749084473 0.7439844608306885 4456788 0 -1
0.6709051728248596 4.817833423614502 -1.566283106803894 4456788 6 -1
0.5417236089706421 5.020766735076904 0.783141553401947 4456788 0 -1
0.6398432850837708 4.870148658752441 -1.4096548557281494 4664956 6 -1
0.6585779786109924 5.012747287750244 -0.7439844608306885 4212104 6 -1
0.8168491721153259 5.01025390625 -0.5873561501502991 7589974 6 -1
0.7180026173591614 4.8792619705200195 -1.4580399990081787 4456788 6 -1
0.7046160101890564 5.059913635253906 -0.5910972952842712 4456788 6 -1
0.6453697681427002 4.912213325500488 -1.3792270421981812 4726897 6 -1
0.5564897656440735 4.809632778167725 -1.733885407447815 4341894 0 -1
0.8577059507369995 5.0152130126953125 -0.7487232685089111 2271109 6 -1
0.8545359969139099 4.996677398681641 -0.8669427037239075 2468738 6 -1
0.5067344903945923 5.06180477142334 -0.9517414569854736 4456788 6 -1
0.640018105506897 4.871479511260986 -1.6258916854858398 4456788 6 -1
0.509437084197998 5.088801383972168 -0.793117880821228 4456788 6 -1
0.5360108613967896 4.967820167541504 -1.3483004570007324 4212104 6 -1
0.5360108613967896 4.967820167541504 -1.3483004570007324 4212104 6 -1
0.8587743639945984 5.02146053314209 -0.9120855927467346 2271109 6 -1
0.398760050535202 5.188796520233154 -0.19952651858329773 4456788 6 -1
0.4389583170413971 5.189387798309326 0 4456788 6 -1
0.4774557948112488 5.170611381530762 -0.39905303716659546 4456788 6 -1
0.4788495600223541 5.185705661773682 0.039905302226543427 4456788 6 -1
0.4737616181373596 5.130605220794678 -0.7582007646560669 4456788 6 -1
0.2349977195262909 5.1060686111450195 -0.9976325631141663 4456788 6 -1
0.2368808090686798 5.146984577178955 -0.7582007646560669 4724328 6 -1
0.5979465842247009 5.167935848236084 -0.23943181335926056 4724328 6 -1
0.5667352676391602 4.898182392120361 1.6760227680206299 4725613 0 -1
0.03883666545152664 5.0683064460754395 -1.1971590518951416 4341894 0 -1
0.31652238965034485 5.153836727142334 -0.6783901453018188 4341894 6 -1
0.4364253282546997 5.15944242477417 -0.5586742162704468 4212104 6 -1
0.5197998285293579 5.192315578460693 -0.4818565249443054 4456788 6 -1
0.4007919728755951 5.215236663818359 -0.3212376832962036 4456788 6 -1
0.4015471041202545 5.225062847137451 0 4456788 6 -1
0.4014410078525543 5.223681926727295 -0.12046413123607635 4456788 6 -1
0.4416888654232025 5.221668243408203 -0.04015471041202545 4456788 6 -1
0 5.048497676849365 -1.4054148197174072 4456788 0 -1
0.2766834497451782 5.151020050048828 -0.9235583543777466 4456788 6 -1
0.5608276128768921 5.1978254318237305 -0.36139240860939026 4456788 6 -1
0.2783966362476349 5.1829142570495605 -0.7227848172187805 4724328 6 -1
0.5204765200614929 5.199075222015381 -0.4015471041202545 4724328 6 -1
0.31881436705589294 5.191156387329102 -0.6424753665924072 4725613 6 -1
0.6082957983016968 4.924248218536377 1.6864978075027466 4726897 0 -1
0.35866615176200867 5.1885552406311035 -0.6424753665924072 4341894 6 -1
0.3985179662704468 5.1856465339660645 -0.6424753665924072 4212104 6 -1
1.1507313251495361 5.049096584320068 -0.803094208240509 4212104 0 -1
0.15764430165290833 5.141003608703613 -1.003867745399475 3432845 6 -1
0.5645939111709595 5.232731819152832 -0.3232329487800598 4456788 6 -1
0.38746312260627747 5.041797161102295 -1.4949524402618408 4456788 6 -1
0.40361395478248596 5.251957416534424 -0.24242471158504486 4456788 6 -1
0.40402933955192566 5.257362365722656 -0.04040411859750748 4456788 6 -1
0.40402933955192566 5.257362365722656 -0.04040411859750748 4456788 6 -1
0.40402933955192566 5.257362365722656 0.04040411859750748 4456788 6 -1
0.40404120087623596 5.257516384124756 0 4456788 6 -1
0.40402933955192566 5.257362365722656 -0.04040411859750748 4456788 6 -1
0.24010783433914185 5.217101573944092 -0.7272741198539734 4456788 6 -1
0.437488853931427 5.17201566696167 -0.929294764995575 4456788 6 -1
0.4030793011188507 5.244999885559082 -0.3636370599269867 4725613 6 -1
0.2427079975605011 5.273598670959473 -0.5284958481788635 4456788 0 -1
0.3859524726867676 5.0221405029296875 -1.6667946577072144 4456788 6 -1
0.406535267829895 5.289970397949219 0 4456788 6 -1
0.406535267829895 5.289970397949219 0 4456788 6 -1
0.406535267829895 5.289970397949219 0 4456788 6 -1
0.406535267829895 5.289970397949219 0 4456788 6 -1
0.406535267829895 5.289970397949219 0 4456788 6 -1
-3.5364415645599365 3.9542417526245117 0.081307053565979 4456788 0 -1
-3.7312204837799072 3.7540886402130127 -0.3658817410469055 4725613 0 -1
-3.371765375137329 4.091324806213379 0.2032676339149475 4725613 0 -1
-3.3515782356262207 4.149771213531494 0.20451468229293823 4456788 0 -1
-3.353154420852661 4.1517229080200195 0.12270880490541458 4456788 0 -1
-3.5581374168395996 3.9785008430480957 -0.08180586993694305 4456788 0 -1
-4.6198601722717285 2.669386863708496 0.1636117398738861 4456788 0 -1
-3.3144216537475586 4.103765487670898 -0.8180587291717529 4456788 0 -1
-3.5534329414367676 3.973240375518799 -0.2863205373287201 4523353 0 -1
-3.2968385219573975 4.081995010375977 -0.9816704392433167 4523353 0 -1
-3.353154420852661 4.1517229080200195 0.12270880490541458 4725613 0 -1
-3.554792642593384 3.9747607707977295 0.24541760981082916 4726897 0 -1
-3.5374388694763184 4.037759304046631 -0.1646093726158142 4456788 0 -1
-4.646800518035889 2.684953451156616 0.20576171576976776 4456788 0 -1
-3.52410888671875 4.022543907165527 -0.4938281178474426 4456788 0 -1
-3.3490359783172607 4.146623611450195 -0.6584374904632568 4456788 0 -1
-3.185668468475342 4.273411750793457 0.6584374904632568 4456788 0 -1
-3.5340070724487305 4.033842086791992 -0.28806641697883606 4523353 0 -1
-2.28913950920105 5.036575794219971 -0.8579639792442322 3238030 0 -1
-2.280244827270508 5.017005920410156 -0.9866586327552795 3107982 0 -1
-2.1195735931396484 5.110250949859619 -0.8579639792442322 3107982 0 -1
-0.48603370785713196 5.2635064125061035 1.8446226119995117 3107982 0 -1
-2.0750789642333984 5.122436046600342 -1.0786901712417603 3107982 0 -1
-2.3034722805023193 5.068110942840576 -1.041528344154358 3302798 0 -1
-2.0804483890533447 5.135690689086914 -1.1717194318771362 3302798 0 -1
-2.083827257156372 5.144032001495361 -1.1283224821090698 2782862 0 -1
-0.6481316089630127 5.601675510406494 1.0096042156219482 3432845 0 -1
-0.2611309587955475 5.673895835876465 0.7462291717529297 2782862 0 -1
-2.217292070388794 5.222782611846924 -0.7901250123977661 2718350 0 -1
-0.26085788011550903 5.667962551116943 0.7901250123977661 2718350 0 -1
-2.222069025039673 5.234035015106201 -0.9270500540733337 2782862 0 -1
-0.2623400390148163 5.700166702270508 0.794614315032959 2782862 0 -1
-2.2298903465270996 5.252457618713379 -0.794614315032959 2718350 0 -1
-2.2298903465270996 5.252457618713379 -0.794614315032959 2588302 0 -1
-3.8328888416290283 4.557499885559082 0.13692507147789001 4456788 0 -1
-3.6005032062530518 4.734436988830566 -0.31949183344841003 4456788 0 -1
-3.5147247314453125 4.621643543243408 -1.468515157699585 4456788 0 -1
-3.625396728515625 4.767170429229736 0 4456788 0 -1
-3.57098388671875 4.790292739868164 -0.41301989555358887 4456788 0 -1
-3.5785598754882812 4.800455093383789 -0.1376732885837555 4456788 0 -1
-3.445269823074341 4.7146992683410645 -1.3308418989181519 4523353 0 -1
-4.10638427734375 4.4040703773498535 -0.046140506863594055 4456788 0 -1
-3.089144229888916 5.163750648498535 -0.23070253431797028 4456788 0 -1
-3.713453531265259 4.5978288650512695 -1.1535125970840454 4456788 0 -1
-3.5210964679718018 4.723371505737305 -1.2457937002182007 4456788 0 -1
-3.268176794052124 5.040529251098633 -0.4152645468711853 4456788 0 -1
-3.522547960281372 4.820451259613037 -0.7843886017799377 4456788 0 -1
-3.544360876083374 4.850301265716553 -0.4152645468711853 4456788 0 -1
-3.4301321506500244 4.693984508514404 -1.5687772035598755 4523353 0 -1
-3.632128953933716 4.776022911071777 0.5075455904006958 4726897 0 -1
-3.513087749481201 4.9042067527771 -0.5102890729904175 4456788 0 -1
-3.515268325805664 4.907250881195068 -0.4638991355895996 4523353 0 -1
-3.9435746669769287 5.185554504394531 0.6015724539756775 4456788 0 -1
-3.958491325378418 5.205168724060059 0.20052415132522583 4456788 0 -1
-4.1281633377075195 5.111303329467773 0.2519022226333618 4456788 0 -1
-3.95003080368042 5.19404411315918 0.8060871362686157 4456788 0 -1
-3.9631943702697754 5.211353302001953 0.6045653223991394 4456788 0 -1
-3.9631943702697754 5.211353302001953 0.6045653223991394 4456788 0 -1
-3.9725704193115234 5.223681926727295 0.40304356813430786 4456788 0 -1
-4.534106731414795 4.76129674911499 -0.05038044601678848 4456788 0 -1
-3.979938268661499 5.233370304107666 -0.05038044601678848 4523353 0 -1
-3.684114694595337 5.351881504058838 -1.0076088905334473 4523353 0 -1
-3.97713303565979 5.229681491851807 0.2519022226333618 4726897 0 -1
-4.1607794761657715 5.048719882965088 0.6549457907676697 4728182 0 -1
-3.700028896331787 5.374999523162842 -0.8060871362686157 4728182 0 -1
-4.991121768951416 4.287105560302734 -0.6075582504272461 4456788 0 -1
-6.181357383728027 1.8549467325210571 -1.4176359176635742 4456788 0 -1
-4.773551940917969 4.49629545211792 -0.8100776672363281 4456788 0 -1
-4.452156066894531 4.875850677490234 -0.25314927101135254 4456788 0 -1
-4.452156066894531 4.875850677490234 -0.25314927101135254 4456788 0 -1
-3.965679168701172 5.214620590209961 0.8607075214385986 4456788 0 -1
-3.9732513427734375 5.2245774269104 0.7594478130340576 4456788 0 -1
-3.982814311981201 5.237152099609375 0.6075582504272461 4456788 0 -1
-3.982814311981201 5.237152099609375 0.6075582504272461 4456788 0 -1
-3.9902360439300537 5.246911525726318 0.45566868782043457 4456788 0 -1
-4.606775760650635 4.735722064971924 0.10125970840454102 4456788 0 -1
-3.9978792667388916 5.256961345672607 0.20251941680908203 4523353 0 -1
-3.9902360439300537 5.246911525726318 0.45566868782043457 4726897 0 -1
-4.7051191329956055 4.632220268249512 -0.25314927101135254 4728182 0 -1
-4.234890937805176 5.035500526428223 0.6075582504272461 4728182 0 -1
-5.7959771156311035 3.2299892902374268 -0.25439631938934326 4456788 0 -1
-4.035660266876221 5.201558589935303 0.8649474382400513 4456788 0 -1
-4.035660266876221 5.201558589935303 0.8649474382400513 4456788 0 -1
-4.002433776855469 5.262950897216797 0.610551118850708 4456788 0 -1
-4.000922203063965 5.156785011291504 1.221102237701416 4523353 0 -1
-3.673973321914673 5.444562911987305 -1.1759593486785889 4456788 0 -1
-2.3985283374786377 6.213210105895996 -0.40902936458587646 4456788 0 -1
-3.989711284637451 5.040248394012451 1.7895034551620483 4456788 0 -1
-3.562004327774048 5.174492359161377 2.249661445617676 4456788 0 -1
-3.7764062881469727 5.485952377319336 -0.40902936458587646 4456788 0 -1
-4.014997482299805 5.072192668914795 1.6361174583435059 4523353 0 -1
-3.839643716812134 5.467851161956787 -0.5651588439941406 4456788 0 -1
-4.0981621742248535 5.2821173667907715 -0.5137807726860046 4456788 0 -1
-3.7991864681243896 5.519044876098633 -0.2568903863430023 4456788 0 -1
-4.017914295196533 5.075877666473389 1.7468546628952026 4456788 0 -1
-3.7991864681243896 5.519044876098633 -0.2568903863430023 4456788 0 -1
-3.79292631149292 5.509951114654541 -0.46240270137786865 4456788 0 -1
-3.7965047359466553 5.5151495933532715 -0.3596465289592743 4523353 0 -1
-3.847808837890625 5.47947883605957 -0.3596465289592743 4590430 0 -1
-3.8556582927703857 5.490656852722168 0.6195298433303833 4456788 0 -1
-3.9523768424987793 5.408653259277344 -0.7227848172187805 4456788 0 -1
-4.491459369659424 5.0220866203308105 0.05162748694419861 4456788 0 -1
-4.026943683624268 5.401939392089844 0 4523353 0 -1
-3.814934492111206 5.541922092437744 -0.36139240860939026 4523353 0 -1
-4.67819881439209 4.809144020080566 -0.6195298433303833 4725613 0 -1
-5.804068565368652 3.4717164039611816 -0.3112613558769226 4456788 0 -1
-3.163654327392578 5.983642578125 0.1556306779384613 4456788 0 -1
-2.782787322998047 6.122702121734619 0.7781534194946289 4456788 0 -1
-4.46023416519165 5.091070652008057 0.1556306779384613 4456788 0 -1
-4.706918239593506 4.838667869567871 -0.5187689065933228 4456788 0 -1
-4.490842342376709 5.021397113800049 -0.6743996143341064 4456788 0 -1
-4.277246952056885 5.190042495727539 0.7781534194946289 4456788 0 -1
-4.096349239349365 5.386443138122559 0.20750758051872253 4456788 0 -1
-4.513289928436279 5.046496391296387 0 4456788 0 -1
-4.51116943359375 5.044125080108643 -0.20750758051872253 4523353 0 -1
-4.253780364990234 5.266836643218994 0.051876895129680634 4725613 0 -1
-4.732200622558594 4.864657878875732 -0.46913671493530273 4456788 0 -1
-4.512433052062988 5.045538425445557 -0.6776419281959534 4456788 0 -1
-4.53165864944458 5.06703519821167 -0.2606315016746521 4523353 0 -1
-4.5029425621032715 5.688619613647461 0.22247205674648285 4456788 0 -1
-4.5240654945373535 5.715304374694824 0.1676022708415985 4456788 0 -1
-4.488819122314453 5.785634994506836 -0.11223366111516953 4456788 0 -1
-4.508769512176514 5.811348915100098 -0.11273247748613358 4456788 0 -1
-4.529252052307129 5.837748050689697 0 4456788 0 -1
-4.435344219207764 6.705306053161621 -0.061603810638189316 4456788 0 -1
-4.43430233001709 6.703731060028076 -0.18481142818927765 4523353 0 -1
-4.453300952911377 6.732452869415283 0.06185321882367134 4456788 0 -1
-4.453431606292725 6.7326507568359375 0 4456788 0 -1
-4.453300952911377 6.732452869415283 0.06185321882367134 4456788 0 -1
-4.514754772186279 6.690539836883545 0.12370643764734268 4523353 0 -1
-4.470864295959473 6.759004592895508 0.12420525401830673 4456788 0 -1
-4.47125768661499 6.7596001625061035 0.062102627009153366 4456788 0 -1
-4.469288349151611 6.756622791290283 0.24841050803661346 4456788 0 -1
-4.533358573913574 6.718109607696533 0.062102627009153366 4523353 0 -1
-4.5240654945373535 6.8394341468811035 -0.18855255842208862 4456788 0 -1
-4.523135185241699 6.8380279541015625 -0.25140342116355896 4456788 0 -1
-4.523135185241699 6.8380279541015625 -0.25140342116355896 4456788 0 -1
-4.473403453826904 6.629260540008545 -1.8226747512817383 4523353 0 -1
-4.443562984466553 6.9919891357421875 -0.5087926387786865 4456788 0 -1
-4.468869209289551 7.031808376312256 0.1276969611644745 4456788 0 -1
-3.8777711391448975 7.334301948547363 2.238687515258789 4456788 0 -1
3.068288803100586 7.948175430297852 -1.1193437576293945 4456788 0 -1
-3.0489535331726074 7.52649450302124 2.9080989360809326 4456788 0 -1
7.403926849365234 4.428675174713135 0.7297682166099548 4456788 0 -1
-3.266284227371216 7.518729209899902 2.7863876819610596 4456788 0 -1
-1.816503882408142 7.970325946807861 2.8527302742004395 4456788 0 -1
-3.4355063438415527 7.558817386627197 2.4546749591827393 4456788 0 -1
-2.644259452819824 8.212136268615723 0.7297682166099548 4456788 0 -1
-4.639293193817139 6.7394609451293945 2.930046796798706 4456788 0 -1
-3.540344476699829 7.452525615692139 2.7302708625793457 4456788 0 -1
-3.520456552505493 7.575476169586182 2.397310972213745 4456788 0 -1
-3.080803871154785 7.605118274688721 2.863454818725586 4456788 0 -1
-2.7384846210479736 8.275528907775879 -0.3342069089412689 4456788 4 -1
-2.7397725582122803 8.279420852661133 -0.20052415132522583 4456788 4 -1
-2.8738420009613037 8.235200881958008 -0.1336827576160431 4456788 4 -1
-3.2093260288238525 7.559496879577637 2.9410207271575928 4456788 0 -1
-3.1147780418395996 8.068602561950684 -1.1363035440444946 3651704 0 -1
-2.8164894580841064 8.286113739013672 -0.2683631479740143 4456788 4 -1
-2.8835484981536865 8.263015747070312 -0.2683631479740143 4456788 4 -1
-3.019085645675659 8.218846321105957 0 4456788 4 -1
-2.7506415843963623 8.31226634979248 -0.06709078699350357 4456788 4 -1
-2.948873281478882 8.234464645385742 -0.4025447368621826 4456788 4 -1
-3.016869068145752 8.212811470031738 -0.33545395731925964 4456788 4 -1
-3.014739513397217 8.207015037536621 -0.4696355164051056 4456788 4 -1
-3.0182878971099854 8.216673851013184 -0.2012723684310913 4456788 4 -1
-2.9506077766418457 8.23930835723877 -0.2683631479740143 4456788 4 -1
-2.827540874481201 8.31862735748291 -0.20202060043811798 4456788 4 -1
-2.9628818035125732 8.273581504821777 -0.0673401951789856 4456788 4 -1
-2.9628818035125732 8.273581504821777 -0.0673401951789856 4456788 4 -1
-2.6916303634643555 8.359253883361816 -0.33670100569725037 4456788 4 -1
-2.894268035888672 8.293733596801758 -0.2693607807159424 4456788 4 -1
-2.8282883167266846 8.320825576782227 0 4456788 4 -1
-2.9607932567596436 8.26775074005127 -0.33670100569725037 4456788 4 -1
-2.9573967456817627 8.258265495300293 -0.5387215614318848 4456788 4 -1
-3.0299530029296875 8.248430252075195 -0.1346803903579712 4456788 4 -1
-3.0195257663726807 8.220044136047363 -0.7407422065734863 4456788 4 -1
-3.0174715518951416 8.214452743530273 -0.8080824017524719 4456788 4 -1
-2.8374297618865967 8.3477201461792 -0.2703584134578705 4456788 4 -1
-2.9062676429748535 8.328119277954102 0.06758960336446762 4456788 4 -1
-2.973942756652832 8.304468154907227 0 4456788 4 -1
-2.9060118198394775 8.327385902404785 0.13517920672893524 4456788 4 -1
-2.906352996826172 8.328363418579102 0 4456788 4 -1
-2.836679220199585 8.345512390136719 0.3379480242729187 4456788 4 -1
-2.9049875736236572 8.324451446533203 0.2703584134578705 4456788 4 -1
-2.9062676429748535 8.328119277954102 0.06758960336446762 4456788 4 -1
-3.0307090282440186 8.25048828125 -0.743485689163208 4456788 4 -1
-3.0286474227905273 8.24487590789795 -0.8110752701759338 4456788 4 -1
-2.9567816257476807 8.256547927856445 -0.9462544918060303 4456788 0 -1
-2.84714674949646 8.376307487487793 -0.3391950726509094 4456788 4 -1
-2.916306734085083 8.356886863708496 0.20351704955101013 4456788 4 -1
-2.916991949081421 8.358850479125977 -0.06783901154994965 4456788 4 -1
-2.9848289489746094 8.334867477416992 0.06783901154994965 4456788 4 -1
-2.9167351722717285 8.358114242553711 0.1356780230998993 4456788 4 -1
-2.916306734085083 8.356886863708496 0.20351704955101013 4456788 4 -1
-2.84714674949646 8.376307487487793 0.3391950726509094 4456788 4 -1
-2.8462257385253906 8.373598098754883 0.40703409910202026 4456788 4 -1
-2.914936065673828 8.352958679199219 0.3391950726509094 4456788 4 -1
-2.78009295463562 8.401266098022461 0.2713560461997986 4456788 4 -1
-2.712843656539917 8.42513370513916 0.20351704955101013 4456788 4 -1
-2.7134809494018555 8.42711353302002 0.06783901154994965 4456788 4 -1
-2.78009295463562 8.401266098022461 0.2713560461997986 4456788 4 -1
-2.7122857570648193 8.423401832580566 0.2713560461997986 4456788 4 -1
-3.0418925285339355 8.280933380126953 -0.7462291717529297 4456788 4 -1
-3.049527645111084 8.301718711853027 -0.40703409910202026 4456788 4 -1
-3.0418925285339355 8.280933380126953 -0.7462291717529297 4456788 4 -1
-3.2346928119659424 8.17833137512207 -1.017585277557373 8705099 0 -1
-2.9256527423858643 8.383667945861816 -0.34044212102890015 4456788 4 -1
-2.9270284175872803 8.38761043548584 -0.2042652666568756 4456788 4 -1
-2.9277162551879883 8.389581680297852 -0.06808841973543167 4456788 4 -1
-2.9887583255767822 8.345839500427246 -0.6127958297729492 4456788 4 -1
-2.856689929962158 8.404383659362793 0.4085305333137512 4456788 4 -1
-2.7886734008789062 8.427196502685547 0.4085305333137512 4456788 4 -1
-2.722257375717163 8.454370498657227 0.2723536789417267 4456788 4 -1
-2.7215373516082764 8.452134132385254 0.34044212102890015 4456788 4 -1
-2.723536968231201 8.458343505859375 0 4456788 4 -1
-3.0549709796905518 8.316536903381348 -0.6808842420578003 4456788 4 -1
-3.120922088623047 8.286140441894531 -0.7489726543426514 4456788 4 -1
-3.2620980739593506 8.247620582580566 -0.5447073578834534 4456788 4 -1
-2.913240432739258 8.348099708557129 -0.8851494789123535 4456788 0 -1
-3.0737576484680176 8.367679595947266 -0.2733513116836548 4456788 4 -1
-2.8017687797546387 8.466769218444824 -0.0683378279209137 4456788 4 -1
-3.0065114498138428 8.395414352416992 0.1366756558418274 4456788 4 -1
-2.8671538829803467 8.435169219970703 0.41002699732780457 4456788 4 -1
-2.9384405612945557 8.420312881469727 0.0683378279209137 4456788 4 -1
-2.7997939586639404 8.46080207824707 0.3416891396045685 4456788 4 -1
-2.8671538829803467 8.435169219970703 0.41002699732780457 4456788 4 -1
-2.732228994369507 8.48533821105957 0.2733513116836548 4456788 4 -1
-2.9342966079711914 8.408438682556152 0.47836482524871826 4456788 4 -1
-2.7334330081939697 8.4890775680542 0.0683378279209137 4456788 4 -1
-2.733192205429077 8.488329887390137 0.1366756558418274 4456788 4 -1
-2.7334330081939697 8.4890775680542 0.0683378279209137 4456788 4 -1
-3.0694191455841064 8.35586929321289 -0.5467026233673096 4456788 4 -1
-3.0621750354766846 8.336148262023926 -0.8200539946556091 4456788 4 -1
-3.458937883377075 8.147452354431152 -1.0934052467346191 4456788 0 -1
-3.458937883377075 8.147452354431152 -1.0934052467346191 4456788 0 -1
-2.6632187366485596 8.504779815673828 0.3416891396045685 4456788 4 -1
-3.0863351821899414 8.4019193649292 0.06858723610639572 4456788 4 -1
-3.08642578125 8.402165412902832 0 4456788 4 -1
-3.015622854232788 8.420856475830078 0.3429361879825592 4456788 4 -1
-3.0856101512908936 8.399945259094238 0.20576171576976776 4456788 4 -1
-3.0841598510742188 8.395997047424316 0.3429361879825592 4456788 4 -1
-3.017040967941284 8.424817085266113 0.20576171576976776 4456788 4 -1
-3.016420602798462 8.423084259033203 0.2743489444255829 4456788 4 -1
-2.806788444519043 8.481938362121582 0.5486978888511658 4456788 4 -1
-2.738330125808716 8.504286766052246 0.5486978888511658 4456788 4 -1
-2.811333656311035 8.495674133300781 0.20576171576976776 4456788 4 -1
-2.674823760986328 8.541839599609375 0.06858723610639572 4456788 4 -1
-2.7414753437042236 8.514054298400879 0.3429361879825592 4456788 4 -1
-2.674823760986328 8.541839599609375 0.06858723610639572 4456788 4 -1
-2.6736457347869873 8.538077354431152 0.2743489444255829 4456788 4 -1
-2.6749024391174316 8.54209041595459 0 4456788 4 -1
-3.095374822616577 8.426527976989746 0.3441832363605499 4456788 4 -1
-3.096193790435791 8.428757667541504 0.275346577167511 4456788 4 -1
-3.0280120372772217 8.455452919006348 0.20650994777679443 4456788 4 -1
-3.095374822616577 8.426527976989746 0.3441832363605499 4456788 4 -1
-3.095374822616577 8.426527976989746 0.3441832363605499 4456788 4 -1
-3.0231165885925293 8.441781997680664 0.550693154335022 4456788 4 -1
-2.8897809982299805 8.501736640930176 0.275346577167511 4456788 4 -1
-2.745370864868164 8.526152610778809 0.6883664727210999 4456788 4 -1
-2.8169949054718018 8.512782096862793 0.550693154335022 4456788 4 -1
-2.7482876777648926 8.535211563110352 0.550693154335022 4456788 4 -1
-2.683919906616211 8.570887565612793 0.20650994777679443 4456788 4 -1
-2.683367967605591 8.569125175476074 0.275346577167511 4456788 4 -1
-2.6845505237579346 8.572900772094727 0.06883664429187775 4456788 4 -1
-2.684629201889038 8.573152542114258 0 4456788 4 -1
-2.683919906616211 8.570887565612793 0.20650994777679443 4456788 4 -1
-3.1055850982666016 8.454323768615723 0.4145163297653198 4456788 4 -1
-3.1065900325775146 8.457058906555176 0.34543028473854065 4456788 4 -1
-3.0394294261932373 8.487334251403809 0.13817210495471954 4456788 4 -1
-3.038983106613159 8.486088752746582 0.2072581648826599 4456788 4 -1
-3.0375547409057617 8.482099533081055 0.34543028473854065 4456788 4 -1
-3.034069776535034 8.472368240356445 0.5526884198188782 4456788 4 -1
-3.1055850982666016 8.454323768615723 0.4145163297653198 4456788 4 -1
-2.965113639831543 8.496747016906738 0.5526884198188782 4456788 4 -1
-3.1043972969055176 8.451089859008789 0.483602374792099 4456788 4 -1
-2.8272013664245605 8.543625831604004 0.5526884198188782 4456788 4 -1
-2.761413335800171 8.575974464416504 0.34543028473854065 4456788 4 -1
-5.704242706298828 6.645821571350098 -2.141667604446411 4456788 0 -1
-5.318491458892822 7.134484767913818 -1.4508072137832642 4456788 0 -1
-3.1167967319488525 8.484844207763672 0.41601279377937317 4456788 4 -1
-3.1156044006347656 8.481598854064941 0.48534825444221497 4456788 4 -1
-3.0504021644592285 8.517974853515625 0.1386709213256836 4456788 4 -1
-3.050670862197876 8.518725395202637 -0.0693354606628418 4456788 4 -1
-3.0463688373565674 8.506711959838867 0.48534825444221497 4456788 4 -1
-5.744415283203125 6.556881427764893 -2.426741123199463 4456788 0 -1
-5.435646057128906 7.0059990882873535 -1.8027220964431763 4456788 0 -1
-3.7637572288513184 8.099020957946777 -1.4560446739196777 4456788 0 -1
-3.383045196533203 8.351216316223145 -0.8320255875587463 4456788 0 -1
-3.1290202140808105 8.518120765686035 0.3479243516921997 4456788 4 -1
-3.0584969520568848 8.540578842163086 0.4175092279911041 4456788 4 -1
-2.979743242263794 8.320666313171387 -2.0875461101531982 4456788 0 -1
-2.75679349899292 8.561627388000488 -1.2525277137756348 4456788 0 -1
-3.072347402572632 8.579255104064941 0.1396685540676117 4456788 4 -1
-2.7748591899871826 8.617733001708984 -1.0475142002105713 4456788 0 -1
-5.39529275894165 7.2375102043151855 -1.471757411956787 4456788 0 -1
-4.364270210266113 8.797053337097168 -2.319495677947998 4456788 0 -1
-4.40131139755249 8.87171745300293 -1.932913064956665 4590430 0 -1
-3.9389731884002686 9.278164863586426 -0.4638991355895996 4590430 0 -1
-4.387905597686768 9.037647247314453 -1.241054892539978 4456788 0 -1
-4.419180870056152 9.10206413269043 -0.3102637231349945 4456788 0 -1
-4.369032859802246 8.998775482177734 -1.551318645477295 4523353 0 -1
-3.429598331451416 9.105685234069824 -2.7923736572265625 4729209 0 -1
-4.490363597869873 9.05121898651123 -0.620527446269989 4664956 0 -1
-4.429089546203613 9.122472763061523 -0.5447073578834534 4456788 0 -1
