VERSION .7
FIELDS x y z rgb label object
SIZE 4 4 4 4 4 4
TYPE F F F I I I
COUNT 1 1 1 1 1 1
WIDTH 676
HEIGHT 1
POINTS 676
VIEWPOINT 0 0 0 1 0 0 0
DATA ascii
0.05481177195906639 0.32049763202667236 0.014964488334953785 3432845 0 -1
0.26407408714294434 0.17387932538986206 0.0773165225982666 3432845 0 -1
-0.5803976058959961 0.20584850013256073 0.05686505511403084 4456788 0 -1
-0.5435660481452942 0.35791054368019104 -0.014964488334953785 4456788 0 -1
0.5548399686813354 0.3205903470516205 -0.11472774296998978 4456788 0 -1
-0.6102901101112366 0.14440855383872986 -0.17458570003509521 4456788 0 -1
0.52914959192276 0.3484180271625519 -0.1496448814868927 4456788 0 -1
-0.6100035905838013 0.2163487821817398 0.06983427703380585 4456788 0 -1
-0.591731607913971 0.19419686496257782 -0.18955019116401672 4523353 0 -1
0.4874027967453003 0.42864710092544556 -0.04988162964582443 4657508 0 -1
0.2467508465051651 0.594911515712738 0.09477509558200836 4147337 0 -1
0.5628510117530823 0.32521918416023254 -0.034917138516902924 4147337 0 -1
0.6330759525299072 0.2558388411998749 -0.03142542764544487 4456788 0 -1
0.6599339246749878 0.178082674741745 0 4456788 0 -1
0.6432518362998962 0.21110497415065765 -0.09427627921104431 4456788 0 -1
-0.6245551705360413 0.22150976955890656 -0.1676022708415985 4456788 0 -1
-0.5810016393661499 0.347527414560318 -0.09427627921104431 4456788 0 -1
0.5537797212600708 0.3535565435886383 -0.18855255842208862 4456788 0 -1
0.6276893019676208 0.25366196036338806 -0.09427627921104431 4456788 0 -1
0.6105303764343262 0.24672769010066986 -0.1833149790763855 4456788 0 -1
0.606503427028656 0.21510739624500275 -0.23045311868190765 4456788 0 -1
-0.6457111239433289 0.21191206574440002 0.0733259916305542 4456788 0 -1
0.506834864616394 0.4562046229839325 0.047138139605522156 4657508 0 -1
-0.602320671081543 0.3231656849384308 0 4147337 0 -1
0.5611906051635742 0.3356774151325226 0.19902770221233368 4147337 0 -1
-0.5736921429634094 0.42346829175949097 -0.06584374606609344 4456788 0 -1
-0.10816910862922668 0.6975035071372986 0.12071353942155838 4456788 0 -1
-0.08766528964042664 0.709663987159729 0.038408853113651276 4456788 0 -1
0.6760569214820862 0.20287609100341797 -0.12071353942155838 4456788 0 -1
-0.25221574306488037 0.6696401834487915 -0.02743489481508732 4456788 0 -1
0.6353845596313477 0.22535060346126556 -0.24142707884311676 4456788 0 -1
-0.6066144108772278 0.3505059778690338 -0.14814843237400055 4456788 0 -1
0.6158055067062378 0.3174596130847931 -0.18107031285762787 4456788 0 -1
0.6370401382446289 0.27235424518585205 -0.18107031285762787 4456788 0 -1
0.6441890597343445 0.21141256392002106 -0.23045311868190765 4456788 0 -1
0.6441890597343445 0.21141256392002106 -0.23045311868190765 4456788 0 -1
-0.6752527952194214 0.22160717844963074 0.08779166638851166 4456788 0 -1
-0.6699007749557495 0.2010287046432495 0.1536354124546051 4657508 0 -1
0.5584830045700073 0.43455424904823303 0.10973957926034927 4657508 0 -1
-0.6699007749557495 0.2010287046432495 0.1536354124546051 4657508 0 -1
0.5638647675514221 0.4049820899963379 0.17558333277702332 4600703 0 -1
0.587043285369873 0.33919763565063477 0.23045311868190765 4600703 0 -1
0.5945884585380554 0.34355729818344116 0.20301823318004608 4147337 0 -1
0.5745037198066711 0.38974279165267944 0.17558333277702332 3562893 0 -1
0.600633442401886 0.32226046919822693 0.21947915852069855 3562893 0 -1
-0.6782003045082092 0.24053598940372467 0.20650994777679443 4590430 0 -1
0.5384442210197449 0.5185798406600952 0.04015471041202545 4657508 0 -1
0.5774868726730347 0.4609304964542389 0.12046413123607635 4657508 0 -1
0.6049468517303467 0.39832666516304016 0.1893007755279541 4657508 0 -1
-0.6711243987083435 0.2549571692943573 0.21224632859230042 4724328 0 -1
0.6137270331382751 0.3546156883239746 0.2409282624721527 4724328 0 -1
0.6920621991157532 0.2796763777732849 0.05736387148499489 4724328 0 -1
0.6920621991157532 0.2796763777732849 0.05736387148499489 4724328 0 -1
-0.6408830881118774 0.30279040336608887 -0.2409282624721527 4600703 0 -1
0.5925977826118469 0.41382119059562683 0.19503717124462128 4600703 0 -1
0.6161141991615295 0.3685300648212433 0.21224632859230042 4600703 0 -1
-0.07410735636949539 1.6102166175842285 -0.22446732223033905 4523353 0 -1
0.22277401387691498 1.5997611284255981 -0.19952651858329773 4523353 0 -1
0.024937884882092476 1.6270928382873535 0.024940814822912216 4590430 0 -1
0.2362411469221115 1.6054015159606934 -0.12470407038927078 4590430 0 -1
0.3634047210216522 1.5385596752166748 -0.386582612991333 4724328 0 -1
1.0158755779266357 1.232670783996582 -0.31176018714904785 4725613 0 -1
-0.126238614320755 1.6426582336425781 -0.20351704955101013 4523353 0 -1
-0.18781086802482605 1.6232126951217651 -0.2925557494163513 4590430 0 -1
-0.10125241428613663 1.6486619710922241 -0.16535760462284088 4590430 0 -1
0.18998895585536957 1.6420375108718872 -0.152637779712677 4590430 0 -1
-1.4827165603637695 0.5991958379745483 0.4451935291290283 4657508 0 -1
-0.126238614320755 1.6426582336425781 -0.20351704955101013 4657508 0 -1
1.2913917303085327 1.004828691482544 0.27983593940734863 4657508 0 -1
1.494579792022705 0.7061262726783752 0.152637779712677 4657508 0 -1
-0.12894384562969208 1.6778596639633179 0.18156912922859192 4456788 0 -1
0.1276622861623764 1.6611835956573486 -0.2982921302318573 4523353 0 -1
-0.1909356564283371 1.6502196788787842 -0.3242305815219879 4590430 0 -1
0.11400493234395981 1.6492241621017456 -0.36313825845718384 4590430 0 -1
0.20594219863414764 1.6671338081359863 -0.20750758051872253 4590430 0 -1
0.28502121567726135 1.6665877103805542 -0.07781533896923065 4590430 0 -1
-0.049380142241716385 1.6103562116622925 -0.5187689065933228 4724328 0 -1
0.08981730788946152 1.6721301078796387 -0.24641524255275726 4724328 0 -1
0.29604190587997437 1.6535134315490723 -0.20750758051872253 4726897 0 -1
-0.013238346204161644 1.7276456356048584 0.3232329487800598 4456788 0 -1
0.22625216841697693 1.7221118211746216 0.2693607807159424 4456788 0 -1
0.37364986538887024 1.6394742727279663 0.5117855072021484 4456788 0 -1
0.6472749710083008 1.5605673789978027 0.4848494231700897 4456788 0 -1
0.3243667781352997 1.6619266271591187 0.47138139605522156 4456788 0 -1
-0.306037038564682 1.635783314704895 0.5656576752662659 4523353 0 -1
-0.35704320669174194 1.6254125833511353 -0.5656576752662659 4724328 0 -1
-0.02704227715730667 1.7643955945968628 0.30178385972976685 4456788 0 -1
0.3796282112598419 1.6657055616378784 0.5349804759025574 4456788 0 -1
0.5895127058029175 1.646161437034607 0.38408854603767395 4456788 0 -1
0.6676220297813416 1.5725690126419067 0.5349804759025574 4456788 0 -1
0.9636973142623901 1.3999546766281128 0.562415361404419 4456788 0 -1
0.3303735554218292 1.6927030086517334 0.48011067509651184 4456788 0 -1
0.31852006912231445 1.7025058269500732 0.45267578959465027 4456788 0 -1
0.19040799140930176 1.7647268772125244 0.23319661617279053 4523353 0 -1
0.3303735554218292 1.6927030086517334 0.48011067509651184 4523353 0 -1
-0.3324674069881439 1.7034311294555664 -0.4389583170413971 4657508 0 -1
0.9876272678375244 1.4930843114852905 0.01371744740754366 4657508 0 -1
-0.36365512013435364 1.655512809753418 -0.5761328339576721 4724328 0 -1
0.06710336357355118 1.750205397605896 -0.37037110328674316 4724328 0 -1
1.0140854120254517 1.4441100358963013 0.30178385972976685 4724328 0 -1
1.0967798233032227 1.3855745792388916 -0.4469393789768219 4456788 0 -1
0.2631092369556427 1.787986397743225 0.23743654787540436 4456788 0 -1
0.696903645992279 1.5681713819503784 0.6145416498184204 4523353 0 -1
-1.600082516670227 0.6466257572174072 -0.5866079330444336 4724328 0 -1
-1.122323989868164 1.3896104097366333 0.36313825845718384 4724328 0 -1
-1.4099866151809692 2.218627452850342 -0.20202060043811798 4456788 0 -1
-1.4091119766235352 2.2172513008117676 -0.22222265601158142 4456788 0 -1
-1.1151251792907715 2.347370147705078 -0.44444531202316284 4456788 0 -1
-1.021526575088501 2.4061832427978516 -0.34343501925468445 4456788 0 -1
-0.7671146392822266 2.5204195976257324 0.10101030021905899 4456788 0 -1
0.5912939310073853 2.418043375015259 0.8686885833740234 4456788 0 -1
-1.6773816347122192 1.9146233797073364 -0.6868700385093689 4456788 0 -1
-1.4990113973617554 2.134669780731201 -0.38383913040161133 4456788 0 -1
-1.411484718322754 2.220984697341919 -0.1616164743900299 4456788 0 -1
-1.3521068096160889 2.2601542472839355 -0.12121235579252243 4456788 0 -1
-0.9841886758804321 2.429518938064575 -0.28282883763313293 4456788 0 -1
-0.28242170810699463 2.6175222396850586 0.14141441881656647 4456788 0 -1
-2.0422770977020264 1.5890908241271973 -0.5050514936447144 4456788 0 -1
-1.523774266242981 2.1271612644195557 -0.3232329487800598 4456788 0 -1
-1.3730946779251099 2.2492806911468506 -0.08080823719501495 4456788 0 -1
-0.7870472073554993 2.513373613357544 0.12121235579252243 4456788 0 -1
-1.4875171184539795 2.160903215408325 -0.2626267671585083 4456788 0 -1
-0.40402933955192566 2.6052896976470947 -0.02020205929875374 4456788 0 -1
-1.5687440633773804 2.062800407409668 -0.4848494231700897 4456788 0 -1
-1.431648850440979 2.208040714263916 -0.1616164743900299 4456788 0 -1
-2.0484862327575684 1.552950382232666 -0.5858597159385681 4456788 0 -1
-1.510699987411499 2.1513149738311768 -0.20202060043811798 4456788 0 -1
-1.292324423789978 2.2966389656066895 0.08080823719501495 4456788 0 -1
-0.34327366948127747 2.6128175258636475 0.08080823719501495 4456788 0 -1
-0.07918836921453476 2.582444667816162 0.5252535343170166 4456788 0 -1
-1.9829633235931396 1.7032591104507446 -0.34343501925468445 4456788 0 -1
-1.431648850440979 2.208040714263916 -0.1616164743900299 4456788 0 -1
-1.2507246732711792 2.3166511058807373 0.14141441881656647 4456788 0 -1
-0.30259469151496887 2.615266799926758 0.14141441881656647 4456788 0 -1
-1.447313904762268 2.1880338191986084 -0.2626267671585083 4456788 0 -1
-1.2925901412963867 2.2971112728118896 0.060606177896261215 4456788 0 -1
-1.4390509128570557 2.175541877746582 -0.38383913040161133 4456788 0 -1
-0.28199732303619385 2.61358904838562 0.20202060043811798 4456788 0 -1
-1.422125220298767 2.193352460861206 -0.34343501925468445 4523353 0 -1
-1.292893886566162 2.2976508140563965 0.02020205929875374 4523353 0 -1
-1.2868109941482544 2.240403652191162 -0.5252535343170166 4590430 0 -1
-0.09981713443994522 2.6034533977508545 0.40404120087623596 4657508 0 -1
-0.03971503674983978 2.591240167617798 0.4848494231700897 4657508 0 -1
-2.4482619762420654 0.9893922209739685 -0.3885778784751892 4456788 0 -1
-1.9142940044403076 1.8436715602874756 -0.24541760981082916 4456788 0 -1
-1.7995177507400513 1.970771074295044 -0.04090293496847153 4456788 0 -1
-1.409119963645935 2.262247085571289 -0.14316026866436005 4456788 0 -1
-1.6316124200820923 1.9798102378845215 -0.7362528443336487 4456788 0 -1
-1.5278031826019287 2.1327855587005615 -0.4908352196216583 4456788 0 -1
-2.0386812686920166 1.668292760848999 -0.42948082089424133 4456788 0 -1
-2.0386812686920166 1.668292760848999 -0.42948082089424133 4456788 0 -1
-1.4681766033172607 2.219573736190796 -0.20451468229293823 4456788 0 -1
-2.1297056674957275 1.4872099161148071 -0.6135440468788147 4456788 0 -1
-1.610508918762207 2.0757832527160645 -0.47038376331329346 4456788 0 -1
-1.4681766033172607 2.219573736190796 -0.20451468229293823 4456788 0 -1
-2.153536796569824 1.460957407951355 -0.5930925607681274 4456788 0 -1
-2.061408519744873 1.6453466415405273 -0.40902936458587646 4456788 0 -1
-1.6507716178894043 2.043910026550293 -0.47038376331329346 4456788 0 -1
-1.4690001010894775 2.2208187580108643 -0.18406321108341217 4456788 0 -1
-1.3497968912124634 2.302590847015381 0 4456788 0 -1
-1.9520114660263062 1.797650694847107 -0.2863205373287201 4456788 0 -1
-1.4843419790267944 2.1996874809265137 -0.2863205373287201 4456788 0 -1
-1.3293063640594482 2.314390182495117 -0.020451467484235764 4456788 0 -1
-1.5410683155059814 2.15130352973938 -0.3476749360561371 4456788 0 -1
-1.4690001010894775 2.2208187580108643 -0.18406321108341217 4456788 0 -1
-1.8201271295547485 1.9520745277404785 -0.020451467484235764 4456788 0 -1
-1.4843419790267944 2.1996874809265137 -0.2863205373287201 4456788 0 -1
-1.3291893005371094 2.3141863346099854 -0.04090293496847153 4456788 0 -1
-1.5542421340942383 2.1269116401672363 -0.42948082089424133 4456788 0 -1
-1.8196996450424194 1.9516159296035767 -0.06135440245270729 4523353 0 -1
-1.5487805604934692 2.16206955909729 -0.2249661386013031 4523353 0 -1
-1.5487805604934692 2.16206955909729 -0.2249661386013031 4523353 0 -1
-1.5501147508621216 2.1212635040283203 -0.47038376331329346 4590430 0 -1
-1.436583399772644 2.215651512145996 -0.3885778784751892 4724328 0 -1
-1.9926782846450806 1.7524638175964355 -0.2863205373287201 3757452 0 -1
-1.5058815479278564 2.1875810623168945 -0.2658690810203552 3757452 0 -1
-1.3497968912124634 2.302590847015381 0 3757452 0 -1
-0.8989130854606628 2.510134220123291 -0.12270880490541458 3757452 0 -1
0.28222304582595825 2.6156809329986572 0.4499322772026062 3757452 0 -1
-1.978865385055542 1.8223810195922852 -0.24841050803661346 4456788 0 -1
-1.4669982194900513 2.2625603675842285 -0.1656070053577423 4456788 0 -1
-1.9030823707580566 1.9147461652755737 -0.10350438207387924 4456788 0 -1
-1.4860811233520508 2.2466416358947754 -0.20700876414775848 4456788 0 -1
-1.2816067934036255 2.373852252960205 0.14490613341331482 4456788 0 -1
-1.1955645084381104 2.409897565841675 0.24841050803661346 4456788 0 -1
-1.5507516860961914 2.164821147918701 -0.45541927218437195 4456788 0 -1
-1.5360239744186401 2.187377691268921 -0.3933166265487671 4456788 0 -1
-2.0133819580078125 1.7706717252731323 -0.3312140107154846 4456788 0 -1
-1.6481740474700928 2.0821573734283447 -0.49682101607322693 4456788 0 -1
-1.4851592779159546 2.2452480792999268 -0.22770963609218597 4456788 0 -1
-1.386592149734497 2.3177993297576904 -0.062102627009153366 4456788 0 -1
-2.1515982151031494 1.502497911453247 -0.6417271494865417 4456788 0 -1
-1.6634445190429688 2.059601068496704 -0.5382227897644043 4456788 0 -1
-1.5047621726989746 2.2299487590789795 -0.24841050803661346 4456788 0 -1
-1.6505260467529297 2.0851287841796875 -0.47612014412879944 4456788 0 -1
-1.4860811233520508 2.2466416358947754 -0.20700876414775848 4456788 0 -1
-1.9928373098373413 1.7937628030776978 -0.3312140107154846 4456788 0 -1
-1.503648042678833 2.228297710418701 -0.26911139488220215 4456788 0 -1
-1.366097331047058 2.330397367477417 -0.04140175133943558 4456788 0 -1
-1.5819430351257324 2.1648192405700684 -0.3312140107154846 4456788 0 -1
-1.6550328731536865 2.0491862297058105 -0.6003254055976868 4456788 0 -1
-1.996397852897644 1.7969677448272705 -0.28981226682662964 4456788 0 -1
-1.862586498260498 1.9559149742126465 -0.062102627009153366 4456788 0 -1
-1.588295340538025 2.1735119819641113 -0.22770963609218597 4456788 0 -1
-1.502443790435791 2.226512908935547 -0.28981226682662964 4456788 0 -1
-1.3658968210220337 2.3300552368164062 -0.062102627009153366 4456788 0 -1
-1.57115638256073 2.1500580310821533 -0.45541927218437195 4456788 0 -1
-1.588295340538025 2.1735119819641113 -0.22770963609218597 4523353 0 -1
-1.566782832145691 2.144073009490967 -0.49682101607322693 4657508 0 -1
-1.586039662361145 2.1704251766204834 -0.26911139488220215 3757452 0 -1
-1.6053508520126343 2.153496265411377 -0.28981226682662964 3238030 0 -1
-2.0735621452331543 1.6968364715576172 -0.5447073578834534 4456788 0 -1
-1.9978985786437988 1.8399090766906738 -0.3142542541027069 4456788 0 -1
-1.4821770191192627 2.285970687866211 -0.23045311868190765 4456788 0 -1
-1.6749730110168457 2.0738751888275146 -0.6075582504272461 4456788 0 -1
-1.571473240852356 2.1937479972839355 -0.4399559497833252 4456788 0 -1
-1.571473240852356 2.1937479972839355 -0.4399559497833252 4456788 0 -1
-2.0798912048339844 1.70201575756073 -0.5028068423271179 4456788 0 -1
-1.6244217157363892 2.1360132694244385 -0.5237571001052856 4456788 0 -1
-1.4984239339828491 2.26530122756958 -0.3142542541027069 4456788 0 -1
-0.9619007110595703 2.5538747310638428 -0.1676022708415985 4456788 0 -1
-2.224720001220703 1.3756630420684814 -0.7961108088493347 4456788 0 -1
-2.0168473720550537 1.815374493598938 -0.335204541683197 4456788 0 -1
-1.5217642784118652 2.2551445960998535 -0.2723536789417267 4456788 0 -1
-1.4026384353637695 2.3446221351623535 -0.10475142300128937 4456788 0 -1
-2.173248767852783 1.517616868019104 -0.670409083366394 4456788 0 -1
-1.6629557609558105 2.1008312702178955 -0.5447073578834534 4456788 0 -1
-1.502030372619629 2.2707533836364746 -0.25140342116355896 4456788 0 -1
-1.649789571762085 2.1264121532440186 -0.4818565249443054 4456788 0 -1
-1.502030372619629 2.2707533836364746 -0.25140342116355896 4456788 0 -1
-1.6369938850402832 2.109919786453247 -0.5866079330444336 4456788 0 -1
-1.5178335905075073 2.249319553375244 -0.335204541683197 4456788 0 -1
-1.9996215105056763 1.8414957523345947 -0.2933039665222168 4456788 0 -1
-1.6313868761062622 2.145171880722046 -0.4609062373638153 4456788 0 -1
-1.502030372619629 2.2707533836364746 -0.25140342116355896 4456788 0 -1
-1.3823533058166504 2.358128309249878 -0.06285085529088974 4456788 0 -1
-1.6024811267852783 2.192924737930298 -0.3142542541027069 4456788 0 -1
-1.603863000869751 2.1948156356811523 -0.2933039665222168 4456788 0 -1
-1.6051485538482666 2.1965749263763428 -0.2723536789417267 4456788 0 -1
-1.5900859832763672 2.175962448120117 -0.4609062373638153 4456788 0 -1
-1.6051485538482666 2.1965749263763428 -0.2723536789417267 4523353 0 -1
-1.5959844589233398 2.1840341091156006 -0.39805540442466736 4590430 0 -1
-1.8004015684127808 2.0550427436828613 0.10475142300128937 4657508 0 -1
-1.6841715574264526 2.1276333332061768 0.335204541683197 4657508 0 -1
-1.58792245388031 2.173001766204834 0.4818565249443054 4724328 0 -1
-1.6024811267852783 2.192924737930298 -0.3142542541027069 3757452 0 -1
-1.944637656211853 1.9565562009811401 -0.211996927857399 4456788 0 -1
-1.8019208908081055 2.0993576049804688 -0.02119969204068184 4456788 0 -1
-1.398152470588684 2.3850796222686768 -0.1059984639286995 4456788 0 -1
-1.8231199979782104 2.0809743404388428 -0.02119969204068184 4456788 0 -1
-1.822691798210144 2.0804855823516846 -0.06359907984733582 4456788 0 -1
-1.9070758819580078 2.002633571624756 -0.08479876816272736 4456788 0 -1
-1.8229594230651855 2.0807912349700928 -0.04239938408136368 4456788 0 -1
-1.6664459705352783 2.191272497177124 0.2755959928035736 4456788 0 -1
-1.9034299850463867 1.9988049268722534 -0.19079722464084625 4456788 0 -1
-1.8205490112304688 2.0780398845672607 0.14839784801006317 4456788 0 -1
-1.8231735229492188 2.081035614013672 0 4456788 0 -1
-1.585958480834961 2.2139692306518555 -0.4875929057598114 4456788 0 -1
-1.8223170042037964 2.0800578594207764 0.08479876816272736 4523353 0 -1
-1.8212456703186035 2.0788350105285645 0.12719815969467163 4724328 0 -1
-2.531735897064209 1.0231257677078247 -0.4451935291290283 3887499 0 -1
-1.094067931175232 2.518458366394043 0.3391950726509094 3887499 0 -1
-0.8032199144363403 2.6390464305877686 0.211996927857399 3887499 0 -1
-1.8426721096038818 2.1032919883728027 -0.1286945939064026 4456788 0 -1
-1.8432682752609253 2.1039724349975586 -0.10724549740552902 4456788 0 -1
-1.6670764684677124 2.236297845840454 0.2359400987625122 4456788 0 -1
-1.8441351652145386 2.10496187210083 0.0643472969532013 4456788 0 -1
-1.844406008720398 2.105271100997925 -0.04289820045232773 4456788 0 -1
-1.8445684909820557 2.1054563522338867 0.021449100226163864 4523353 0 -1
-1.8432682752609253 2.1039724349975586 0.10724549740552902 4724328 0 -1
-1.8655786514282227 2.1294381618499756 -0.06509552150964737 4456788 0 -1
-1.8658525943756104 2.129750967025757 -0.04339701682329178 4456788 0 -1
-1.8660717010498047 2.1300010681152344 0 4523353 0 -1
-1.7561144828796387 2.218519687652588 -0.6215251088142395 4456788 0 -1
-1.9523496627807617 2.1830031871795654 0.0673401951789856 4456788 0 -1
-1.9059548377990723 2.2205638885498047 0.1346803903579712 4456788 0 -1
-1.8161447048187256 2.115929126739502 -0.8978692889213562 4456788 0 -1
-1.744614839553833 2.3403117656707764 0.2469140589237213 4523353 0 -1
-1.7100740671157837 2.2939770221710205 -0.6285085082054138 4724328 0 -1
-1.9967325925827026 2.186753988265991 0.06808841973543167 4456788 0 -1
-1.8810679912567139 2.282501459121704 -0.15887299180030823 4456788 0 -1
-1.8637090921401978 2.2614381313323975 -0.4312266707420349 4456788 0 -1
-1.8677293062210083 2.2663164138793945 0.38583439588546753 4456788 0 -1
-1.8015353679656982 2.2759006023406982 0.5900996923446655 4456788 0 -1
-1.8817877769470215 2.2833750247955322 0.13617683947086334 4456788 0 -1
-1.792784571647644 2.3573997020721436 0.04539228230714798 4523353 0 -1
-1.8112449645996094 2.242600917816162 0.6808842420578003 4590430 0 -1
-1.7924253940582275 2.2643918991088867 0.6581881046295166 4657508 0 -1
-1.8015353679656982 2.2759006023406982 0.5900996923446655 4724328 0 -1
-1.7963461875915527 2.3153088092803955 0.4312266707420349 4725613 0 -1
-1.8570165634155273 2.2992732524871826 -0.4818565249443054 4456788 0 -1
-1.830247163772583 2.359003782272339 0.22945548593997955 4456788 0 -1
-1.8153094053268433 2.2933013439178467 0.6424753665924072 4456788 0 -1
-1.798846960067749 2.3185319900512695 0.5965842604637146 4456788 0 -1
-1.884189486503601 2.2862892150878906 0.4359654188156128 4523353 0 -1
-1.8153094053268433 2.2933013439178467 0.6424753665924072 4657508 0 -1
-1.8241698741912842 2.304494857788086 0.5736387372016907 4724328 0 -1
-1.8343700170516968 2.317380905151367 0.4818565249443054 4725613 0 -1
-1.8520852327346802 2.2931673526763916 0.527747631072998 4729209 0 -1
-1.7989510297775269 2.3186662197113037 0.7422386407852173 4456788 0 -1
-1.812386155128479 2.3359827995300293 0.6494588255882263 4456788 0 -1
-1.8817219734191895 2.329862117767334 0.44070419669151306 4523353 0 -1
-1.8183995485305786 2.343733549118042 0.6030688881874084 4657508 0 -1
-1.8467493057250977 2.333019733428955 0.5566789507865906 4724328 0 -1
-1.8519043922424316 2.3395321369171143 0.5102890729904175 4725613 0 -1
-1.9040648937225342 2.3575263023376465 0.4219985902309418 4523353 0 -1
-1.8997294902801514 2.352158308029175 0.4688872992992401 4590430 0 -1
-1.9180350303649902 2.327357530593872 0.5157760381698608 4657508 0 -1
-1.828658103942871 2.3569557666778564 0.6798865795135498 4725613 0 -1
-1.7497950792312622 2.3472607135772705 0.9951384663581848 4590430 0 -1
-1.831634283065796 2.5065104961395264 0.733259916305542 4456788 0 -1
-1.831634283065796 2.5065104961395264 0.733259916305542 4456788 0 -1
-1.8503243923187256 2.5320870876312256 0.7407422065734863 4456788 0 -1
-1.874354600906372 2.5143508911132812 0.7407422065734863 4456788 0 -1
-1.7788912057876587 2.799102306365967 -0.152637779712677 4456788 0 -1
-1.8048876523971558 2.783689260482788 -0.12719815969467163 4456788 0 -1
-1.9205988645553589 2.6811211109161377 -0.3815944492816925 4456788 0 -1
-1.0939041376113892 3.1346609592437744 0 4456788 0 -1
-1.8019137382507324 2.7791025638580322 -0.2289566695690155 4456788 0 -1
-1.825135588645935 2.7592203617095947 -0.27983593940734863 4456788 0 -1
-1.9333256483078003 2.6456706523895264 -0.5342322587966919 4456788 0 -1
-1.8290166854858398 2.7650880813598633 -0.17807741463184357 4456788 0 -1
-1.8290166854858398 2.7650880813598633 -0.17807741463184357 4456788 0 -1
-1.8282088041305542 2.763866662979126 -0.20351704955101013 4523353 0 -1
-2.6830856800079346 1.8736447095870972 0.5596718788146973 4724328 0 -1
-1.9311531782150269 2.590543508529663 0.763188898563385 4724328 0 -1
-1.8850741386413574 2.6315293312072754 0.7377492785453796 4726897 0 -1
-2.075091600418091 2.5179312229156494 -0.7706711292266846 4456788 0 -1
-1.5624243021011353 2.9551234245300293 0.2568903863430023 4456788 0 -1
-1.8476550579071045 2.7932651042938232 -0.15413422882556915 4456788 0 -1
-2.651346445083618 1.957079529762268 -0.6165369153022766 4456788 0 -1
-2.4538819789886475 2.2598345279693604 -0.3339574933052063 4456788 0 -1
-2.111193895339966 2.510316848754883 -0.693604052066803 4456788 0 -1
-1.7460339069366455 2.860196352005005 -0.10275615751743317 4456788 0 -1
-1.8452074527740479 2.789564847946167 -0.23120135068893433 4456788 0 -1
-1.8461323976516724 2.7909634113311768 -0.20551231503486633 4456788 0 -1
-1.8452074527740479 2.789564847946167 -0.23120135068893433 4456788 0 -1
-1.9569809436798096 2.678041934967041 -0.48809173703193665 4456788 0 -1
-1.7450075149536133 2.8585150241851807 -0.15413422882556915 4456788 0 -1
-1.9569809436798096 2.678041934967041 -0.48809173703193665 4456788 0 -1
-1.7450075149536133 2.8585150241851807 -0.15413422882556915 4456788 0 -1
-2.651346445083618 1.957079529762268 -0.6165369153022766 4456788 0 -1
-2.484510898590088 2.236320734024048 -0.2568903863430023 4456788 0 -1
-1.8495564460754395 2.796139717102051 -0.02568903937935829 4456788 0 -1
-1.8452074527740479 2.789564847946167 -0.23120135068893433 4456788 0 -1
-1.8430290222167969 2.786271572113037 -0.2825794219970703 4456788 0 -1
-1.8487417697906494 2.794908046722412 -0.10275615751743317 4456788 0 -1
-1.8461323976516724 2.7909634113311768 -0.20551231503486633 4456788 0 -1
-1.8452074527740479 2.789564847946167 -0.23120135068893433 4456788 0 -1
-1.846948266029358 2.792196750640869 -0.17982326447963715 4523353 0 -1
-1.8452074527740479 2.789564847946167 -0.23120135068893433 4590430 0 -1
-2.672609567642212 1.9195365905761719 -0.642225980758667 4657508 0 -1
-2.5285391807556152 2.171879529953003 -0.3596465289592743 4657508 0 -1
-2.0283427238464355 2.6143288612365723 -0.539469838142395 4657508 0 -1
-1.867355465888977 2.7672858238220215 -0.3082684576511383 4657508 0 -1
-1.8487417697906494 2.794908046722412 -0.10275615751743317 4724328 0 -1
-2.8044772148132324 1.7904977798461914 0.41102463006973267 4725613 0 -1
-1.802540898323059 2.6712353229522705 0.9248054027557373 4725613 0 -1
-1.9470953941345215 2.6645140647888184 -0.590847909450531 4726897 0 -1
-1.8697865009307861 2.770888328552246 -0.2568903863430023 3757452 0 -1
-2.6770877838134766 1.976080298423767 -0.6225227117538452 4456788 0 -1
-2.109734535217285 2.559967279434204 -0.6743996143341064 4456788 0 -1
-1.737059473991394 2.9036333560943604 -0.10375379025936127 4456788 0 -1
-1.8631219863891602 2.816648006439209 -0.23344601690769196 4456788 0 -1
-1.8879398107528687 2.797790288925171 -0.2593844532966614 4456788 0 -1
-1.8631219863891602 2.816648006439209 -0.23344601690769196 4456788 0 -1
-1.952481746673584 2.7256290912628174 -0.4668920338153839 4456788 0 -1
-1.7619493007659912 2.88626766204834 -0.1556306779384613 4456788 0 -1
-1.9781723022460938 2.7070415019989014 -0.4668920338153839 4456788 0 -1
-1.7625194787979126 2.8872015476226807 -0.1296922266483307 4456788 0 -1
-2.6880462169647217 1.984169363975525 -0.5447073578834534 4456788 0 -1
-1.8921164274215698 2.8039796352386475 -0.1296922266483307 4456788 0 -1
-1.8879398107528687 2.797790288925171 -0.2593844532966614 4456788 0 -1
-1.8620775938034058 2.8150689601898193 -0.2593844532966614 4456788 0 -1
-1.8907809257507324 2.8020005226135254 -0.18156912922859192 4456788 0 -1
-1.8879398107528687 2.797790288925171 -0.2593844532966614 4456788 0 -1
-1.8889987468719482 2.7993595600128174 -0.23344601690769196 4456788 0 -1
-1.8899457454681396 2.800762891769409 -0.20750758051872253 4523353 0 -1
-1.8879398107528687 2.797790288925171 -0.2593844532966614 4590430 0 -1
-1.8907809257507324 2.8020005226135254 -0.18156912922859192 4724328 0 -1
-2.831705331802368 1.807881236076355 0.41501516103744507 4725613 0 -1
-1.8030768632888794 2.72587251663208 0.8819071650505066 4725613 0 -1
-1.9659992456436157 2.690383195877075 -0.5965842604637146 4726897 0 -1
-1.8899457454681396 2.800762891769409 -0.20750758051872253 3757452 0 -1
-1.9322038888931274 2.8068957328796387 -0.2618785500526428 4456788 0 -1
-1.8799822330474854 2.842137098312378 -0.2618785500526428 4456788 0 -1
-1.904910683631897 2.822939872741699 -0.28806641697883606 4456788 0 -1
-1.90361487865448 2.821019411087036 -0.3142542541027069 4456788 0 -1
-1.9510728120803833 2.778428554534912 -0.39281782507896423 4456788 0 -1
-2.7307937145233154 1.7980884313583374 -0.9951384663581848 4456788 0 -1
-1.975262999534607 2.7574312686920166 -0.41900569200515747 4456788 0 -1
-1.9322038888931274 2.8068957328796387 -0.2618785500526428 4456788 0 -1
-1.8799822330474854 2.842137098312378 -0.2618785500526428 4456788 0 -1
-2.8945376873016357 1.7898470163345337 0.3142542541027069 4456788 0 -1
-1.9081182479858398 2.827693223953247 -0.20950284600257874 4456788 0 -1
-1.881036639213562 2.843731164932251 -0.23569069802761078 4456788 0 -1
-1.8799822330474854 2.842137098312378 -0.2618785500526428 4456788 0 -1
-1.9071621894836426 2.8262765407562256 -0.23569069802761078 4523353 0 -1
-2.934363603591919 2.460681915283203 0.2943015992641449 4456788 0 -1
-2.901243209838867 2.4920122623443604 0.35316193103790283 4456788 0 -1
-2.9116599559783936 2.441643238067627 -0.559173047542572 4456788 0 -1
-2.9092440605163574 2.1474454402923584 1.2949271202087402 4523353 0 -1
-2.8942770957946777 2.4860289096832275 0.44145241379737854 4728182 0 -1
-2.912217140197754 2.5014381408691406 0.11772064119577408 4729209 0 -1
-2.9623754024505615 2.4841718673706055 0.23743654787540436 4456788 0 -1
-2.9455676078796387 2.4700772762298584 0.4748730957508087 4456788 0 -1
-2.8055357933044434 2.642585039138794 0.38583439588546753 4456788 0 -1
-2.957395553588867 2.4799959659576416 0.32647526264190674 4456788 0 -1
-2.9622273445129395 2.424048662185669 0.5935913920402527 4456788 0 -1
-2.9803385734558105 2.4388694763183594 0.4155139625072479 4456788 0 -1
-2.9465126991271973 2.411189079284668 0.7123096585273743 4523353 0 -1
-2.803288698196411 2.6404685974121094 0.4155139625072479 4726897 0 -1
-2.9482877254486084 2.472358226776123 0.4451935291290283 4728182 0 -1
-2.963684558868408 2.485269546508789 0.20775698125362396 4729209 0 -1
-2.9756271839141846 2.4952845573425293 0.41900569200515747 4456788 0 -1
-3.6033947467803955 1.456204891204834 0.38907670974731445 4456788 0 -1
-2.858891725540161 2.632816791534424 0.38907670974731445 4456788 0 -1
-2.534092426300049 2.8334736824035645 0.8978692889213562 4456788 0 -1
-3.0120701789855957 2.4648358821868896 0.3292187452316284 4456788 0 -1
-3.0077922344207764 2.4613354206085205 0.38907670974731445 4456788 0 -1
-2.9939370155334473 2.4499974250793457 0.5387215614318848 4456788 0 -1
-3.0053834915161133 2.459364175796509 0.41900569200515747 4456788 0 -1
-2.9871201515197754 2.4444189071655273 0.5985795259475708 4523353 0 -1
-3.606064796447754 1.457283854484558 0.35914772748947144 4726897 0 -1
-2.856602191925049 2.6307082176208496 0.41900569200515747 4726897 0 -1
-3.000023365020752 2.4549779891967773 0.4788636267185211 4728182 0 -1
-3.013939619064331 2.4663658142089844 0.2992897629737854 4729209 0 -1
-3.010021209716797 2.4631590843200684 0.35914772748947144 4017546 0 -1
-3.113719940185547 2.2363533973693848 0.7482244372367859 2070155 0 -1
-2.9805474281311035 2.5601303577423096 0.2716054618358612 4456788 0 -1
-3.0106539726257324 2.5246570110321045 0.2716054618358612 4456788 0 -1
-2.496469497680664 2.908552646636963 0.9053515791893005 4456788 0 -1
-3.035104513168335 2.4836854934692383 0.36214062571525574 4456788 0 -1
-3.002829074859619 2.5180952548980713 0.392318993806839 4456788 0 -1
-3.0004241466522217 2.516078472137451 0.42249739170074463 4456788 0 -1
-2.995072841644287 2.5115911960601807 0.4828541576862335 4456788 0 -1
-3.0278172492980957 2.47772216796875 0.45267578959465027 4456788 0 -1
-2.9921257495880127 2.5091195106506348 0.5130325555801392 4523353 0 -1
-2.9978389739990234 2.5139105319976807 0.45267578959465027 4590430 0 -1
-2.925713300704956 2.453428030014038 0.965708315372467 4726897 0 -1
-3.0220468044281006 2.4730000495910645 0.5130325555801392 4728182 0 -1
-3.0328571796417236 2.481846570968628 0.392318993806839 4729209 0 -1
-2.8961799144744873 2.667156219482422 0.5172724723815918 4456788 0 -1
-2.87534761428833 2.6479713916778564 0.6998392343521118 4456788 0 -1
-3.0168540477752686 2.5298562049865723 0.5172724723815918 4456788 0 -1
-2.8830034732818604 2.655021905899048 0.6389836668968201 4456788 0 -1
-2.8712501525878906 2.644197940826416 0.7302670478820801 4456788 0 -1
-2.5458805561065674 2.9661200046539307 0.6998392343521118 4456788 0 -1
-2.8712501525878906 2.644197940826416 0.7302670478820801 4456788 0 -1
-2.87534761428833 2.6479713916778564 0.6998392343521118 4523353 0 -1
-2.5384650230407715 2.9574801921844482 0.7606948614120483 4523353 0 -1
-2.389143466949463 3.079364776611328 0.7606948614120483 4523353 0 -1
-3.0168540477752686 2.5298562049865723 0.5172724723815918 4590430 0 -1
-2.8625128269195557 2.6361517906188965 0.7911226153373718 4590430 0 -1
-2.8669722080230713 2.640258312225342 0.7606948614120483 4726897 0 -1
-2.8830034732818604 2.655021905899048 0.6389836668968201 4728182 0 -1
-2.973503828048706 2.6764657497406006 -0.15338601171970367 4456788 0 -1
-2.96694016456604 2.670557737350464 -0.30677202343940735 4456788 0 -1
-2.8324735164642334 2.5495235919952393 1.2270880937576294 4456788 0 -1
-2.5826220512390137 2.8284003734588623 1.1657336950302124 4456788 0 -1
-2.8095293045043945 2.5288712978363037 -1.3191196918487549 4456788 0 -1
-2.780565023422241 2.5606839656829834 -1.3191196918487549 4456788 0 -1
-2.5252292156219482 3.0026257038116455 -0.7976072430610657 4456788 0 -1
-3.27628755569458 2.2878878116607666 -0.24541760981082916 4456788 0 -1
-3.014448642730713 2.4060308933258057 1.073702096939087 4456788 0 -1
-2.8535940647125244 2.5685343742370605 1.135056495666504 4456788 0 -1
-2.9725420475006104 2.675600051879883 -0.18406321108341217 4523353 0 -1
-2.573582887649536 2.998394727706909 0.6442212462425232 4523353 0 -1
-2.213425636291504 3.089901924133301 1.257765293121338 4523353 0 -1
-2.9934937953948975 2.389305591583252 1.1657336950302124 4590430 0 -1
-2.8666815757751465 2.5803143978118896 1.073702096939087 4590430 0 -1
-2.920581102371216 2.6288297176361084 0.7669300436973572 4726897 0 -1
-2.9291129112243652 2.6365091800689697 0.7055756449699402 4728182 0 -1
-3.2081291675567627 2.2402915954589844 -0.9896515011787415 4456788 0 -1
-2.287964344024658 3.3237059116363525 -0.09277983009815216 4456788 0 -1
-2.312676429748535 3.2933709621429443 -0.3092660903930664 4456788 0 -1
-3.231306314468384 2.3208069801330566 -0.680385410785675 4456788 0 -1
-2.319427728652954 3.3029849529266357 -0.03092660941183567 4456788 0 -1
-2.318882703781128 3.3022091388702393 0.09277983009815216 4456788 0 -1
-2.350353240966797 3.281050443649292 -0.03092660941183567 4523353 0 -1
-2.3348355293273926 3.3249263763427734 -0.21823212504386902 4456788 0 -1
-3.2384133338928223 2.325911283493042 -0.8105764389038086 4456788 0 -1
-2.4784915447235107 3.1311070919036865 -0.7794004678726196 4456788 0 -1
-2.3382012844085693 3.3297195434570312 0 4456788 0 -1
-2.332634687423706 3.3217926025390625 0.2805841565132141 4456788 0 -1
-2.338132619857788 3.3296217918395996 0.031176017597317696 4523353 0 -1
-2.328295946121216 3.3156139850616455 0.37411221861839294 4590430 0 -1
-2.8976452350616455 2.729344606399536 0.8417524695396423 4724328 0 -1
-2.4832656383514404 3.0746660232543945 0.9664565324783325 4724328 0 -1
-3.2296388149261475 2.448378086090088 0.6285085082054138 4456788 0 -1
-2.7568373680114746 2.9566898345947266 0.6913593411445618 4456788 0 -1
-2.457559108734131 3.1046628952026367 1.0684645175933838 4456788 0 -1
-2.6055524349212646 3.1615960597991943 -0.18855255842208862 4456788 0 -1
-2.740797519683838 2.9394872188568115 0.8170610666275024 4523353 0 -1
-3.356645107269287 2.4108285903930664 -0.09502450376749039 4456788 0 -1
-4.843288898468018 1.4534094333648682 1.4949524402618408 4724328 0 -1
-3.7277772426605225 3.2783989906311035 1.7777812480926514 4724328 0 -1
4.941247940063477 1.482805609703064 1.0909112691879272 4725613 0 -1
-3.5342602729797363 3.9518027305603027 -0.2032676339149475 4456788 0 -1
-3.241394519805908 4.094891548156738 0.9350311160087585 4456788 0 -1
-4.593308925628662 2.654045581817627 0.081307053565979 4456788 0 -1
-3.5534329414367676 3.973240375518799 -0.2863205373287201 4456788 0 -1
-3.5568835735321045 3.9770987033843994 -0.1636117398738861 4456788 0 -1
-3.554792642593384 3.9747607707977295 -0.24541760981082916 4456788 0 -1
-3.331812858581543 4.125298976898193 -0.6135440468788147 4456788 0 -1
-3.554792642593384 3.9747607707977295 -0.24541760981082916 4456788 0 -1
-3.353154420852661 4.1517229080200195 -0.12270880490541458 4456788 0 -1
-4.62148904800415 2.670328140258789 0.08180586993694305 4456788 0 -1
-3.4043655395507812 3.8065621852874756 1.5543115139007568 4523353 0 -1
-3.5340070724487305 4.033842086791992 -0.28806641697883606 4456788 0 -1
-3.3490359783172607 4.146623611450195 -0.6584374904632568 4456788 0 -1
-3.5340070724487305 4.033842086791992 -0.28806641697883606 4456788 0 -1
-3.3490359783172607 4.146623611450195 -0.6584374904632568 4456788 0 -1
-3.52650785446167 4.025282382965088 -0.45267578959465027 4456788 0 -1
-3.5306758880615234 4.0300397872924805 -0.37037110328674316 4456788 0 -1
-3.3696346282958984 4.172127723693848 -0.28806641697883606 4456788 0 -1
-4.648985862731934 2.686216115951538 0.12345702946186066 4456788 0 -1
-3.5340070724487305 4.033842086791992 -0.28806641697883606 4523353 0 -1
-3.3681461811065674 4.170284748077393 -0.3292187452316284 4523353 0 -1
-3.5306758880615234 4.0300397872924805 -0.37037110328674316 4590430 0 -1
-3.3696346282958984 4.172127723693848 -0.28806641697883606 4590430 0 -1
-3.374095916748047 4.177651405334473 -0.0823046863079071 4724328 0 -1
-3.9744515419006348 3.660160541534424 0.04140175133943558 4456788 0 -1
-3.9744515419006348 3.660160541534424 0.04140175133943558 4456788 0 -1
-3.850362777709961 3.7907071113586426 0 4456788 0 -1
-3.9651057720184326 3.6515541076660156 -0.3726157546043396 4456788 0 -1
-3.844820261001587 3.785250186920166 -0.28981226682662964 4456788 0 -1
-4.714808940887451 2.627474546432495 0.24841050803661346 4456788 0 -1
-3.821316957473755 3.762111186981201 0.6624280214309692 4456788 0 -1
-3.8485538959503174 3.788926124572754 0.1656070053577423 4590430 0 -1
-3.67742919921875 3.699967861175537 1.4076595306396484 4726897 0 -1
-3.9909918308258057 3.6753928661346436 -0.3332092761993408 4456788 0 -1
-3.998394012451172 3.6822097301483154 0.0416511595249176 4456788 0 -1
-3.998041868209839 3.6818854808807373 -0.0833023190498352 4456788 0 -1
-3.9909918308258057 3.6753928661346436 -0.3332092761993408 4456788 0 -1
-4.7053375244140625 2.718776226043701 0.12495347857475281 4456788 0 -1
-3.9974546432495117 3.681344747543335 0.12495347857475281 4456788 0 -1
-3.815673589706421 3.839059591293335 0.49981391429901123 4456788 0 -1
-3.9909918308258057 3.6753928661346436 -0.3332092761993408 4523353 0 -1
-3.998394012451172 3.6822097301483154 -0.0416511595249176 4590430 0 -1
-3.8360695838928223 3.6132636070251465 1.3328371047973633 4726897 0 -1
-3.968851327896118 3.738332986831665 -0.41900569200515747 4456788 0 -1
-3.9795022010803223 3.7483651638031006 -0.12570171058177948 4456788 0 -1
-4.186980724334717 3.511094093322754 -0.20950284600257874 4456788 0 -1
-3.9763450622558594 3.745391368865967 -0.25140342116355896 4456788 0 -1
-4.631260395050049 2.863755226135254 -0.5028068423271179 4456788 0 -1
-3.9805538654327393 3.7493560314178467 0 4456788 0 -1
-4.185626029968262 3.509958505630493 -0.25140342116355896 4523353 0 -1
-3.9763450622558594 3.745391368865967 -0.25140342116355896 4523353 0 -1
-3.9786837100982666 3.7475945949554443 -0.1676022708415985 4590430 0 -1
-4.1305766105651855 3.632641315460205 0.04214997589588165 4456788 0 -1
-4.706918239593506 2.81545352935791 -0.42149975895881653 4456788 0 -1
-4.5400776863098145 2.9894096851348877 -0.8429995179176331 4456788 0 -1
-3.53147554397583 4.11440372467041 0.9272994995117188 4590430 0 -1
-3.645383596420288 4.160971164703369 0.12719815969467163 4456788 0 -1
-4.782120227813721 2.7631418704986572 -0.3391950726509094 4456788 0 -1
-4.1116533279418945 3.7009198665618896 0.12719815969467163 4456788 0 -1
-3.681809425354004 4.116783618927002 0.3391950726509094 4456788 0 -1
-3.313110113143921 4.020151615142822 -1.8655729293823242 4456788 0 -1
-3.5767605304718018 4.167163372039795 0.6783901453018188 4456788 0 -1
-4.767301082611084 2.754579544067383 -0.5511919856071472 4456788 0 -1
-4.5427141189575195 2.991145610809326 -1.017585277557373 4456788 0 -1
-3.633371591567993 4.147260665893555 0.46639323234558105 4523353 0 -1
-3.4269940853118896 4.243147850036621 0.9327864646911621 4523353 0 -1
-3.297429084777832 4.423332691192627 -0.423993855714798 4523353 0 -1
-3.6309001445770264 4.144439220428467 0.5087926387786865 4590430 0 -1
-3.5787105560302734 4.255268573760986 0.2558927536010742 4456788 0 -1
-3.7828071117401123 4.590085506439209 -0.31949183344841003 4456788 0 -1
-3.766400098800659 4.57017707824707 -0.6389836668968201 4456788 0 -1
-3.327047109603882 4.930443286895752 -0.31949183344841003 4456788 0 -1
-3.772212028503418 4.5772294998168945 -0.5477002859115601 4456788 0 -1
-3.774779796600342 4.580345153808594 -0.5020585656166077 4523353 0 -1
-3.7811360359191895 4.588057994842529 -0.36513352394104004 4590430 0 -1
-3.777122974395752 4.583188533782959 -0.45641690492630005 4657508 0 -1
-3.3314521312713623 4.936971187591553 -0.09128338098526001 4657508 0 -1
-3.6708567142486572 4.731363773345947 0.09178219735622406 4456788 0 -1
-3.7132484912872314 4.690989971160889 -0.275346577167511 4456788 0 -1
-3.318033218383789 4.91708517074585 -0.8260397911071777 4456788 0 -1
-3.7170698642730713 4.695817470550537 -0.04589109867811203 4456788 0 -1
-3.7171790599823 4.695955276489258 0 4456788 0 -1
-3.7170698642730713 4.695817470550537 0.04589109867811203 4523353 0 -1
-3.715432643890381 4.693748950958252 -0.18356439471244812 4590430 0 -1
-3.703951597213745 4.6792449951171875 0.5048021078109741 4657508 0 -1
-3.691132068634033 4.757496356964111 -0.046140506863594055 4456788 0 -1
-3.6895062923431396 4.755401134490967 -0.18456202745437622 4456788 0 -1
-3.4892375469207764 4.870912551879883 -0.5998265743255615 4456788 0 -1
-3.6559627056121826 4.712166786193848 -0.8305290937423706 4456788 0 -1
-3.6597900390625 4.717099666595459 -0.7843886017799377 4456788 0 -1
-3.672881841659546 4.733973503112793 -0.5998265743255615 4456788 0 -1
-3.6842987537384033 4.7486891746521 -0.36912405490875244 4523353 0 -1
-3.6803884506225586 4.743649005889893 -0.46140506863594055 4590430 0 -1
-3.6559627056121826 4.712166786193848 0.8305290937423706 4657508 0 -1
-3.6954715251922607 4.763089656829834 -0.5566789507865906 4456788 0 -1
-3.50528883934021 4.893319606781006 -0.6494588255882263 4456788 0 -1
-3.6716525554656982 4.732389450073242 -0.8814083933830261 4456788 0 -1
-3.679572582244873 4.742597579956055 -0.7886285185813904 4456788 0 -1
-3.679572582244873 4.742597579956055 -0.7886285185813904 4456788 0 -1
-3.686598539352417 4.75165319442749 -0.6958487033843994 4523353 0 -1
-3.686598539352417 4.75165319442749 -0.6958487033843994 4590430 0 -1
-3.5080983638763428 4.897241592407227 -0.6030688881874084 4590430 0 -1
-3.9222846031188965 5.261544704437256 0.40304356813430786 4456788 0 -1
-3.9156911373138428 5.252699851989746 0.5541849136352539 4456788 0 -1
-4.632823467254639 4.66121768951416 0.20152178406715393 4456788 0 -1
-4.427097320556641 4.84840726852417 -0.3526630997657776 4456788 0 -1
-3.924017906188965 5.263869762420654 0.3526630997657776 4456788 0 -1
-3.7227861881256104 5.408059120178223 -0.3526630997657776 4456788 0 -1
-3.9255194664001465 5.265883922576904 0.3022826611995697 4523353 0 -1
-3.9203193187713623 5.258908271789551 0.45342400670051575 4590430 0 -1
-3.903632164001465 5.236523151397705 0.7557066679000854 4657508 0 -1
-3.943443775177002 5.289928436279297 0.35440897941589355 4456788 0 -1
-3.943443775177002 5.289928436279297 0.35440897941589355 4456788 0 -1
-3.9375181198120117 5.281979560852051 0.5062985420227051 4456788 0 -1
-3.9397268295288086 5.284942150115967 0.45566868782043457 4456788 0 -1
-3.943443775177002 5.289928436279297 0.35440897941589355 4523353 0 -1
-3.9397268295288086 5.284942150115967 0.45566868782043457 4590430 0 -1
-3.932398796081543 5.275112152099609 0.6075582504272461 4657508 0 -1
-3.962869644165039 5.3159871101379395 0.35615482926368713 4456788 0 -1
-3.959134340286255 5.310976505279541 0.457913339138031 4456788 0 -1
-3.959134340286255 5.310976505279541 0.457913339138031 4456788 0 -1
-3.714185953140259 5.504155158996582 0 4456788 0 -1
-3.964385986328125 5.318021297454834 0.305275559425354 4523353 0 -1
-3.7032663822174072 5.487973213195801 0.5087926387786865 4523353 0 -1
-3.959134340286255 5.310976505279541 0.457913339138031 4590430 0 -1
-3.7764062881469727 5.485952377319336 -0.40902936458587646 4456788 0 -1
-3.7512848377227783 5.449458599090576 -0.8691873550415039 4456788 0 -1
-3.7780752182006836 5.488376617431641 -0.3579006791114807 4456788 0 -1
-4.498134136199951 4.926204204559326 -0.15338601171970367 4456788 0 -1
-3.7825217247009277 5.494836330413818 -0.15338601171970367 4456788 0 -1
-3.7817440032958984 5.493706703186035 -0.20451468229293823 4523353 0 -1
-3.7780752182006836 5.488376617431641 -0.3579006791114807 4590430 0 -1
-3.8881921768188477 5.4278459548950195 -0.6165369153022766 4456788 0 -1
-3.697483539581299 5.589816093444824 -0.20551231503486633 4456788 0 -1
-3.7452006340026855 5.550116539001465 -0.3596465289592743 4456788 0 -1
-3.842027187347412 5.471245288848877 -0.5137807726860046 4456788 0 -1
-3.7452006340026855 5.550116539001465 -0.3596465289592743 4456788 0 -1
-4.572514533996582 4.903992176055908 -0.05137807875871658 4456788 0 -1
-3.748837471008301 5.555506229400635 -0.20551231503486633 4523353 0 -1
-3.748837471008301 5.555506229400635 -0.20551231503486633 4590430 0 -1
-3.9236888885498047 5.47739839553833 0 4456788 0 -1
-3.761718988418579 5.5745954513549805 -0.41301989555358887 4456788 0 -1
-3.763381242752075 5.577058792114258 -0.36139240860939026 4456788 0 -1
-4.594306468963623 4.927363872528076 0.10325497388839722 4456788 0 -1
-3.763381242752075 5.577058792114258 -0.36139240860939026 4523353 0 -1
-3.767035722732544 5.582474708557129 -0.20650994777679443 4590430 0 -1
-5.377346038818359 4.292015552520752 0.5287452340126038 4456788 0 -1
-4.47250509262085 5.8810648918151855 0.05661564692854881 4456788 0 -1
-4.549070835113525 5.863293170928955 -0.05686505511403084 4456788 0 -1
-4.567010402679443 5.886415481567383 -0.22845785319805145 4456788 0 -1
-5.764864444732666 4.485626697540283 -1.484976053237915 4523353 0 -1
-5.498310089111328 4.949056625366211 -0.9138314127922058 4523353 0 -1
-4.565802574157715 5.88485860824585 0.2855723202228546 4523353 0 -1
-4.531213760375977 5.958263397216797 -0.11472774296998978 4456788 0 -1
-5.826919078826904 4.417367458343506 -1.606188416481018 4523353 0 -1
-4.453431606292725 6.7326507568359375 0 4456788 0 -1
-4.521938800811768 6.836219310760498 -0.3142542541027069 4456788 0 -1
-4.524717330932617 6.978499412536621 -0.510787844657898 4456788 0 -1
-4.477189064025879 7.483978748321533 -0.20052415132522583 4456788 0 -1
-5.591257095336914 6.7844719886779785 -2.52301287651062 4456788 0 -1
-5.691097259521484 6.905618667602539 -1.8922595977783203 4456788 0 -1
-5.286180019378662 7.379411220550537 -1.121338963508606 4456788 0 -1
-4.4806132316589355 7.962668418884277 -0.4205021262168884 4456788 0 -1
-4.83898401260376 7.315524101257324 2.5930964946746826 4523353 0 -1
-4.301319122314453 7.64403772354126 2.5930964946746826 4523353 0 -1
-5.7268595695495605 6.536842346191406 -2.9539899826049805 4456788 0 -1
-5.738887310028076 6.82382869720459 -2.180325984954834 4456788 0 -1
-5.304991722106934 7.405672550201416 -1.1253294944763184 4456788 0 -1
-4.496558666229248 7.9910054206848145 -0.4219985902309418 4456788 0 -1
-2.078420400619507 9.828886032104492 1.8795397281646729 8180304 0 -1
-0.3843191862106323 10.02390193939209 1.95785391330719 8180304 0 -1
-3.062539577484131 9.779979705810547 0.3142542541027069 3651704 0 -1
-0.5420747399330139 10.091813087463379 1.7283984422683716 3651704 0 -1
-2.653459072113037 9.833428382873535 1.1784534454345703 7589974 0 -1
-1.7707399129867554 9.89029598236084 2.0426526069641113 7589974 0 -1
0.37191998958587646 9.7005033493042 3.2996697425842285 7589974 0 -1
1.6114158630371094 9.883835792541504 2.199779748916626 7589974 0 -1
2.019125461578369 9.548480033874512 3.142542600631714 7589974 0 -1
