VERSION .7
FIELDS x y z rgb label object
SIZE 4 4 4 4 4 4
TYPE F F F I I I
COUNT 1 1 1 1 1 1
WIDTH 543
HEIGHT 1
POINTS 543
VIEWPOINT 0 0 0 1 0 0 0
DATA ascii
-0.653753936290741 0.1961832344532013 0.0366629958152771 3757452 0 -1
-0.653753936290741 0.1961832344532013 0.0366629958152771 3757452 0 -1
-0.5551173090934753 0.39869949221611023 0.010475141927599907 3757452 0 -1
-0.595702588558197 0.3803218901157379 0.11522655934095383 3887499 0 -1
-0.5005010366439819 0.5035685300827026 0.09327864646911621 3887499 0 -1
0.5870895385742188 0.4099746644496918 -0.005486979149281979 3887499 0 -1
0.6193730235099792 0.3578779995441437 0.03292187303304672 3887499 0 -1
-1.4651820659637451 2.2150466442108154 -0.2658690810203552 4456788 0 -1
-1.7588262557983398 2.007587194442749 0 4456788 0 -1
-1.4448323249816895 2.2283737659454346 -0.2658690810203552 4456788 0 -1
-1.3088939189910889 2.326085329055786 0 4456788 0 -1
-1.9805690050125122 1.741814374923706 -0.40902936458587646 3692940 0 -1
-1.8199669122695923 1.9519025087356567 -0.04090293496847153 3692940 0 -1
-1.9969327449798584 1.756205439567566 -0.47612014412879944 4456788 0 -1
-1.4223095178604126 2.2834219932556152 -0.24841050803661346 4456788 0 -1
-2.0788826942443848 1.617573618888855 -0.6003254055976868 4456788 0 -1
-2.0788826942443848 1.617573618888855 -0.6003254055976868 4456788 0 -1
-1.9087783098220825 1.879204511642456 -0.3519148826599121 4456788 0 -1
-1.4429227113723755 2.2704524993896484 -0.24841050803661346 4456788 0 -1
-1.4818623065948486 2.2402637004852295 -0.28981226682662964 4456788 0 -1
-1.8977035284042358 1.909334421157837 -0.22770963609218597 4456788 0 -1
-1.4818623065948486 2.2402637004852295 -0.28981226682662964 4456788 0 -1
-1.324817180633545 2.3543829917907715 -0.02070087566971779 4456788 0 -1
-2.0047223567962646 1.7630559206008911 -0.41401752829551697 3692940 0 -1
-1.900899052619934 1.9125494956970215 -0.1656070053577423 3692940 0 -1
-1.4982883930206299 2.2203550338745117 -0.3519148826599121 3692940 0 -1
-2.041614532470703 1.753637433052063 -0.4818565249443054 4456788 0 -1
-1.9401224851608276 1.9100630283355713 -0.25140342116355896 4456788 0 -1
-1.532008171081543 2.2255349159240723 -0.41900569200515747 4456788 0 -1
-1.532008171081543 2.2255349159240723 -0.41900569200515747 4456788 0 -1
-1.1924471855163574 2.456050157546997 0.1466519832611084 4456788 0 -1
-2.0056960582733154 1.8053370714187622 -0.4399559497833252 4456788 0 -1
-1.8212456703186035 2.0788350105285645 -0.12719815969467163 4456788 0 -1
-1.8426721096038818 2.1032919883728027 -0.1286945939064026 4456788 0 -1
-1.9152876138687134 2.3714218139648438 -0.8225480318069458 4017546 0 -1
-1.8573527336120605 2.5417051315307617 0.2419258952140808 4017546 0 -1
-2.128385305404663 2.3309357166290283 -0.07257776707410812 2264205 0 -1
-2.1289479732513428 2.3315517902374268 0 2199437 0 -1
-1.3008655309677124 2.862170696258545 0.2903110682964325 2139270 0 -1
-1.9942755699157715 2.4692208766937256 0.31774598360061646 4212104 0 -1
-1.9683773517608643 2.4866738319396973 0.3421879708766937 4147337 0 -1
-2.0531277656555176 2.4412734508514404 0 2139270 0 -1
-2.3137271404266357 2.1793415546417236 -0.2688619792461395 2271109 0 -1
-2.1017649173736572 2.3990297317504883 0.04888399690389633 2271109 0 -1
-1.6119874715805054 2.749856472015381 -0.12220998853445053 4505456 0 -1
-2.270702362060547 2.235520839691162 -0.1466519832611084 4899181 0 -1
-2.150327444076538 2.354965925216675 0.0733259916305542 4899181 0 -1
-1.6131718158721924 2.7518768310546875 0 4899181 0 -1
-1.9263209104537964 2.532991647720337 0.2199779748916626 8180304 0 -1
-2.0726237297058105 2.4147443771362305 -0.2199779748916626 10016830 0 -1
-1.9484018087387085 2.5112931728363037 0.2688619792461395 11918891 0 -1
-1.9622217416763306 2.5291056632995605 0.37037110328674316 4212104 0 -1
-1.963913917541504 2.5312867164611816 0.3456796705722809 4147337 0 -1
-1.9340012073516846 2.5430908203125 0.41975390911102295 2977934 0 -1
-1.6777828931808472 2.7483937740325928 -0.12345702946186066 2139270 0 -1
-2.3154666423797607 2.23004412651062 -0.22222265601158142 2271109 0 -1
-2.097228527069092 2.443410634994507 0.12345702946186066 2271109 0 -1
-1.654129981994629 2.765010118484497 -0.04938281327486038 2271109 0 -1
-2.31115984916687 2.225896120071411 -0.2962968647480011 4505456 0 -1
-2.195211410522461 2.3543498516082764 -0.14814843237400055 4505456 0 -1
-1.629202127456665 2.7792224884033203 -0.07407421618700027 4505456 0 -1
-2.4210872650146484 2.0795841217041016 -0.44444531202316284 4899181 0 -1
-2.2452683448791504 2.308114767074585 -0.12345702946186066 4899181 0 -1
-2.2452683448791504 2.308114767074585 -0.12345702946186066 4899181 0 -1
-1.6294413805007935 2.779630661010742 -0.04938281327486038 4899181 0 -1
-2.3141684532165527 2.2287938594818115 -0.2469140589237213 7589974 0 -1
-1.5297431945800781 2.8334624767303467 0.12345702946186066 7589974 0 -1
-1.3747397661209106 2.8938660621643066 0.3456796705722809 7589974 0 -1
-2.334017038345337 2.198452949523926 -0.320988267660141 8705099 0 -1
-2.3695483207702637 2.1328423023223877 -0.46913671493530273 10016830 0 -1
-1.4059219360351562 2.895738363265991 0.14814843237400055 10016830 0 -1
-1.6041873693466187 2.7929720878601074 -0.09876562654972076 12640037 0 -1
-1.9376940727233887 2.5479466915130615 0.37037110328674316 13164576 0 -1
-1.9605246782302856 2.577967643737793 0.3242305815219879 4212104 0 -1
-2.3170430660247803 2.2811439037323 -0.1496448814868927 2523534 0 -1
-1.6947301626205444 2.7761552333831787 -0.12470407038927078 2523534 0 -1
-2.403226137161255 2.1631557941436768 -0.37411221861839294 4899181 0 -1
-2.2436187267303467 2.356039524078369 -0.09976325929164886 4899181 0 -1
-2.3139736652374268 2.2781219482421875 -0.22446732223033905 7589974 0 -1
-1.7425737380981445 2.7419564723968506 -0.19952651858329773 7589974 0 -1
-2.357593059539795 2.2206597328186035 -0.3242305815219879 8705099 0 -1
-2.194211721420288 2.403026580810547 -0.07482244074344635 8705099 0 -1
-2.194211721420288 2.403026580810547 -0.07482244074344635 8705099 0 -1
-1.5710867643356323 2.850245237350464 0.04988162964582443 8705099 0 -1
-1.4174468517303467 2.919475793838501 0.24940814077854156 8705099 0 -1
-2.4010088443756104 2.1611599922180176 -0.39905303716659546 10016830 0 -1
-2.193760395050049 2.4025323390960693 -0.09976325929164886 10016830 0 -1
-1.7176798582077026 2.7576193809509277 -0.19952651858329773 10016830 0 -1
-1.5960246324539185 2.8363561630249023 -0.04988162964582443 10016830 0 -1
-1.7440109252929688 2.744217872619629 -0.1496448814868927 11918891 0 -1
-2.084641695022583 2.5295193195343018 0.2519022226333618 4212104 0 -1
-2.2638564109802246 2.377291202545166 -0.1763315498828888 2588302 0 -1
-1.8072420358657837 2.7321693897247314 -0.27709245681762695 2588302 0 -1
-2.33931827545166 2.3030738830566406 -0.1763315498828888 2523534 0 -1
-1.7116775512695312 2.8039166927337646 -0.1259511113166809 2523534 0 -1
-1.6373645067214966 2.8507351875305176 0 7589974 0 -1
-2.4450485706329346 2.150301456451416 -0.45342400670051575 9360965 0 -1
-1.784247875213623 2.751856565475464 -0.22671200335025787 9360965 0 -1
-1.6371722221374512 2.850400447845459 -0.05038044601678848 9360965 0 -1
-2.216674566268921 2.427626848220825 -0.02519022300839424 10016830 0 -1
-1.6601613759994507 2.8320353031158447 0.1763315498828888 11918891 0 -1
-2.377526044845581 2.2898142337799072 -0.35615482926368713 4017546 0 -1
-1.7520334720611572 2.812771797180176 -0.20351704955101013 4017546 0 -1
-2.404744863510132 2.265072822570801 -0.33071520924568176 3887499 0 -1
-1.7765346765518188 2.7953941822052 -0.2289566695690155 3887499 0 -1
-2.6730990409851074 1.9731361865997314 -0.6484611630439758 4456788 0 -1
-2.9054861068725586 1.7966171503067017 0.10475142300128937 4456788 0 -1
-3.0499956607818604 2.190584897994995 0.9497461915016174 3757452 0 -1
-2.9622273445129395 2.424048662185669 0.5935913920402527 3757452 0 -1
-2.990499973297119 2.4471845626831055 -0.26711612939834595 3107982 0 -1
-2.982727527618408 2.440824270248413 0.38583439588546753 5949540 0 -1
-3.0196304321289062 2.471022605895996 0.17957386374473572 4456788 0 -1
-3.010021209716797 2.4631590843200684 -0.35914772748947144 3107982 0 -1
-3.0053834915161133 2.459364175796509 0.41900569200515747 5949540 0 -1
-1.4589297771453857 6.401387691497803 0.3526630997657776 3107982 4 -1
-1.4589297771453857 6.401387691497803 0.3526630997657776 2977934 4 -1
-1.4589297771453857 6.401387691497803 0.3526630997657776 2782862 4 -1
-1.4582853317260742 6.398560047149658 0.40304356813430786 2718350 4 -1
-1.4567375183105469 6.391768932342529 0.5038044452667236 2264205 4 -1
-1.5069698095321655 6.380112648010254 0.5038044452667236 2199437 4 -1
-1.5078151226043701 6.383691310882568 0.45342400670051575 2072968 4 -1
-1.5103037357330322 6.394227027893066 0.2519022226333618 2139270 4 -1
-1.4667131900787354 6.435539245605469 0.30377912521362305 3887499 4 -1
-1.4667131900787354 6.435539245605469 0.30377912521362305 3757452 4 -1
-1.4661521911621094 6.433077812194824 0.35440897941589355 3692940 4 -1
-1.4667131900787354 6.435539245605469 0.30377912521362305 3562893 4 -1
-1.4661521911621094 6.433077812194824 0.35440897941589355 3238030 4 -1
-1.4667131900787354 6.435539245605469 0.30377912521362305 3107982 4 -1
-1.4667131900787354 6.435539245605469 0.30377912521362305 2977934 4 -1
-1.4661521911621094 6.433077812194824 0.35440897941589355 2782862 4 -1
-1.5160391330718994 6.418509483337402 0.40503883361816406 2264205 4 -1
-1.5160391330718994 6.418509483337402 0.40503883361816406 2199437 4 -1
-1.5160391330718994 6.418509483337402 0.40503883361816406 2072968 4 -1
-1.5160391330718994 6.418509483337402 0.40503883361816406 2139270 4 -1
-1.5672661066055298 6.409193992614746 0.35440897941589355 4505456 4 -1
-1.6705889701843262 6.39207124710083 0.10125970840454102 5424489 4 -1
-1.7209601402282715 6.377689361572266 0.15188956260681152 5949540 4 -1
-1.7206062078475952 6.376378059387207 0.20251941680908203 6343264 4 -1
-1.7209601402282715 6.377689361572266 0.15188956260681152 9360965 4 -1
-1.471160650253296 6.455053806304932 0.5087926387786865 3692940 4 -1
-1.4727237224578857 6.461912155151367 0.40703409910202026 3562893 4 -1
-1.473374605178833 6.464767932891846 0.35615482926368713 3432845 4 -1
-1.4739383459091187 6.4672417640686035 0.305275559425354 3302798 4 -1
-1.4727237224578857 6.461912155151367 0.40703409910202026 3107982 4 -1
-1.473374605178833 6.464767932891846 0.35615482926368713 2977934 4 -1
-1.473374605178833 6.464767932891846 0.35615482926368713 2782862 4 -1
-1.5235073566436768 6.450128078460693 0.40703409910202026 2264205 4 -1
-1.5241806507110596 6.452978134155273 0.35615482926368713 2199437 4 -1
-1.5241806507110596 6.452978134155273 0.35615482926368713 2134668 4 -1
-1.5241806507110596 6.452978134155273 0.35615482926368713 2070922 4 -1
-1.5235073566436768 6.450128078460693 0.40703409910202026 2006409 4 -1
-1.5209462642669678 6.439284801483154 0.5596718788146973 2139270 4 -1
-1.5235073566436768 6.450128078460693 0.40703409910202026 3257723 4 -1
-1.6257926225662231 6.42812967300415 0.35615482926368713 4505456 4 -1
-1.6788184642791748 6.423559188842773 0.10175852477550507 5424489 4 -1
-1.6750184297561646 6.409019470214844 0.457913339138031 6343264 4 -1
-1.677240252494812 6.417520999908447 0.305275559425354 6933851 4 -1
-1.7805650234222412 6.3961029052734375 0.10175852477550507 10672695 4 -1
-1.7805650234222412 6.3961029052734375 0.10175852477550507 11197490 4 -1
-1.7298948764801025 6.410800457000732 0 11918891 4 -1
-1.4805970191955566 6.496458053588867 0.3579006791114807 3692940 4 -1
-1.4816428422927856 6.501046657562256 0.2556433379650116 3562893 4 -1
-1.4816428422927856 6.501046657562256 0.2556433379650116 3432845 4 -1
-1.4811636209487915 6.49894380569458 0.30677202343940735 2977934 4 -1
-1.4805970191955566 6.496458053588867 0.3579006791114807 2782862 4 -1
-1.5316520929336548 6.484610557556152 0.3579006791114807 2458766 4 -1
-1.530975580215454 6.481746196746826 0.40902936458587646 2264205 4 -1
-1.5316520929336548 6.484610557556152 0.3579006791114807 2199437 4 -1
-1.5302084684371948 6.478498458862305 0.46015802025794983 2006409 4 -1
-1.7869274616241455 6.4189581871032715 0.3579006791114807 3257723 4 -1
-1.5331394672393799 6.490907669067383 0.20451468229293823 3257723 4 -1
-1.6864533424377441 6.452772617340088 0.20451468229293823 4899181 4 -1
-1.6870479583740234 6.455047607421875 0.10225734114646912 5424489 4 -1
-1.6854619979858398 6.448979377746582 0.30677202343940735 6343264 4 -1
-1.6848173141479492 6.446512222290039 0.3579006791114807 6933851 4 -1
-1.6864533424377441 6.452772617340088 0.20451468229293823 7589974 4 -1
-1.7892932891845703 6.427456378936768 0.10225734114646912 10672695 4 -1
-1.7892932891845703 6.427456378936768 0.10225734114646912 11197490 4 -1
-1.583312749862671 6.474815368652344 0.30677202343940735 11197490 4 -1
-1.7948509454727173 6.447421073913574 -0.41102463006973267 3562893 4 -1
-1.4892642498016357 6.534487247467041 0.20551231503486633 3562893 4 -1
-1.5402107238769531 6.520845413208008 0.2568903863430023 3432845 4 -1
-1.48887038230896 6.532758712768555 0.2568903863430023 2977934 4 -1
-1.4883887767791748 6.530645847320557 0.3082684576511383 2782862 4 -1
-1.5397125482559204 6.518736362457275 0.3082684576511383 2199437 4 -1
-1.591036319732666 6.506400108337402 0.3082684576511383 3257723 4 -1
-1.7443400621414185 6.4643330574035645 0.3596465289592743 4505456 4 -1
-1.6946799755096436 6.484249591827393 0.20551231503486633 4899181 4 -1
-1.7460339069366455 6.47061014175415 0.20551231503486633 5424489 4 -1
-1.6904919147491455 6.468225002288818 0.5137807726860046 5949540 4 -1
-1.5368108749389648 6.50645112991333 0.5137807726860046 5949540 4 -1
-1.6401844024658203 6.485032558441162 0.46240270137786865 6343264 4 -1
-1.6930359601974487 6.477958679199219 0.3596465289592743 6933851 4 -1
-1.5919721126556396 6.510227203369141 0.20551231503486633 11197490 4 -1
-1.7977575063705444 6.45786190032959 0.15413422882556915 11918891 4 -1
-1.5922995805740356 6.511566162109375 0.15413422882556915 11918891 4 -1
-1.7511556148529053 6.489590644836426 -0.4646473824977875 4147337 4 -1
-1.8005319833755493 6.467827796936035 -0.5679023265838623 4017546 4 -1
-1.7511556148529053 6.489590644836426 -0.4646473824977875 3887499 4 -1
-1.8026601076126099 6.475472927093506 0.4646473824977875 2070922 4 -1
-1.5480968952178955 6.554233551025391 0.20650994777679443 2070922 4 -1
-1.5987597703933716 6.537984371185303 0.30976492166519165 2994813 4 -1
-1.7534784078598022 6.498198986053467 0.30976492166519165 4505456 4 -1
-1.702906608581543 6.515726566314697 0.20650994777679443 4899181 4 -1
-1.7545098066329956 6.502020835876465 0.20650994777679443 5424489 4 -1
-1.6986981630325317 6.499624252319336 0.5162748694419861 5949540 4 -1
-1.5936720371246338 6.517179012298584 0.6195298433303833 6343264 4 -1
-1.6952334642410278 6.486367225646973 0.6711573004722595 6933851 4 -1
3.1994001865386963 5.926079750061035 0.20650994777679443 6933851 5 -1
-1.6520795822143555 6.532063961029053 0 8180304 4 -1
-1.8056353330612183 6.4861602783203125 0.25813743472099304 11197490 4 -1
-1.7545098066329956 6.502020835876465 0.20650994777679443 11918891 4 -1
-1.7604973316192627 6.524210453033447 -0.41501516103744507 4147337 4 -1
-1.8092302083969116 6.499073505401611 -0.570645809173584 4017546 4 -1
-1.7612754106521606 6.527093410491943 -0.36313825845718384 3887499 4 -1
-1.8122767210006714 6.510017395019531 -0.41501516103744507 3432845 4 -1
-1.8092302083969116 6.499073505401611 -0.570645809173584 2199437 4 -1
-1.8156379461288452 6.522091388702393 -0.051876895129680634 2006409 4 -1
-1.8154780864715576 6.521516799926758 -0.10375379025936127 2072968 4 -1
-1.6070029735565186 6.571694374084473 0.2593844532966614 2994813 4 -1
-1.7619493007659912 6.529591083526611 0.3112613558769226 4505456 4 -1
3.159935235977173 5.9766082763671875 0.36313825845718384 6343264 5 -1
-1.864879846572876 6.498250484466553 0.36313825845718384 8705099 4 -1
-1.660011887550354 6.563427448272705 0.051876895129680634 8705099 4 -1
-1.9194450378417969 6.492506504058838 0 10016830 4 -1
-1.8608503341674805 6.294310569763184 1.6600606441497803 11918891 0 -1
-1.7720861434936523 6.567156791687012 0.10425260663032532 3692940 4 -1
-1.472232460975647 6.233043670654297 -2.2935571670532227 2912910 0 -1
-1.5630543231964111 6.617559432983398 0.20850521326065063 2782862 4 -1
-1.5094866752624512 6.623218059539795 0.3648841083049774 2718350 4 -1
-1.8243670463562012 6.553447723388672 -0.05212630331516266 2006409 4 -1
-1.7720861434936523 6.567156791687012 -0.10425260663032532 2072968 4 -1
-1.6142066717147827 6.601153373718262 0.31275781989097595 2994813 4 -1
-1.7704201936721802 6.560983180999756 0.31275781989097595 4505456 4 -1
-1.650269627571106 6.524908065795898 0.9903997182846069 6343264 0 -1
-1.924081563949585 6.5081892013549805 0.46913671493530273 8705099 4 -1
-1.9266338348388672 6.516822338104248 0.31275781989097595 11918891 4 -1
-1.9250460863113403 6.5114521980285645 0.41701042652130127 13164576 4 -1
-1.7803035974502563 6.597609996795654 0.15712712705135345 4212104 4 -1
-1.8114961385726929 6.507213115692139 -1.0475142002105713 3757452 0 -1
-1.703614354133606 6.313407897949219 -1.9902769327163696 3692940 0 -1
-1.8312114477157593 6.578034400939941 -0.3142542541027069 2199437 4 -1
-1.7222479581832886 6.589731216430664 0.5761328339576721 2994813 4 -1
-1.5372693538665771 6.286524772644043 -2.199779748916626 3651704 0 -1
-2.067728042602539 6.421632766723633 1.099889874458313 8180304 0 -1
-1.8799822330474854 6.550875663757324 0.5237571001052856 8180304 4 -1
-1.2497633695602417 6.68004846572876 0.733259916305542 8180304 0 -1
2.9753599166870117 5.7472453117370605 -2.199779748916626 8180304 0 -1
-1.93511164188385 6.545498371124268 0.366629958152771 13164576 4 -1
-1.8944486379623413 6.601284503936768 -0.05262511968612671 4212104 4 -1
-1.7237091064453125 6.387876987457275 -1.84187912940979 3692940 0 -1
-1.8942817449569702 6.600703239440918 -0.10525023937225342 3432845 4 -1
-1.8327183723449707 6.583446979522705 -0.6841265559196472 2977934 4 -1
-1.9968758821487427 6.560903072357178 -0.36837583780288696 2199437 4 -1
-1.735813021659851 6.641633987426758 0.21050047874450684 2666112 4 -1
-1.6766592264175415 6.415297985076904 1.7892539501190186 5949540 0 -1
3.1560237407684326 6.096217155456543 0.21050047874450684 8180304 5 -1
3.3664252758026123 5.982602596282959 0.21050047874450684 8180304 5 -1
-1.9949936866760254 6.554718971252441 0.473626047372818 13164576 4 -1
-1.6496831178665161 6.522588729858398 1.5333611965179443 4456788 0 -1
-1.9029799699783325 6.631012439727783 -0.1586235761642456 4212104 4 -1
-1.3208926916122437 6.767729759216309 0.2643726170063019 4212104 0 -1
-4.962156772613525 4.466462135314941 -1.7448593378067017 2199437 0 -1
-4.929837703704834 4.437371730804443 -1.9034829139709473 2134668 0 -1
-5.041358470916748 4.5377516746521 -1.2689886093139648 4505456 0 -1
-0.728657066822052 6.753291130065918 1.2161140441894531 4505456 0 -1
-5.0933308601379395 4.479337215423584 -1.2689886093139648 4899181 0 -1
3.171633243560791 6.126368999481201 0.1586235761642456 8180304 5 -1
3.1720991134643555 6.1272687911987305 0.10574905574321747 8705099 5 -1
-1.950605869293213 6.597907543182373 0.5287452340126038 12640037 4 -1
-4.9633259773254395 4.570837020874023 -1.5937180519104004 2264205 0 -1
-4.985563278198242 4.48753023147583 -1.7530897855758667 2199437 0 -1
-4.975076198577881 4.478091239929199 -1.8062137365341187 2134668 0 -1
-5.131640911102295 4.513029098510742 -1.1687265634536743 4505456 0 -1
-5.065138339996338 4.55915641784668 -1.2749744653701782 4899181 0 -1
3.13348388671875 6.1824727058410645 0.15937180817127228 6933851 5 -1
3.393537998199463 6.03078556060791 0.4249914586544037 6933851 5 -1
3.187342405319214 6.156713485717773 0.05312393233180046 8180304 5 -1
3.1870617866516113 6.156170845031738 0.10624786466360092 8705099 5 -1
-1.6545735597610474 6.76623010635376 0 2199437 4 -1
-1.600024700164795 6.774082183837891 -0.2668667137622833 2134668 4 -1
-5.193844318389893 4.461233615875244 -1.280960202217102 4505456 0 -1
-5.043642520904541 4.644802093505859 -1.2275868654251099 4505456 0 -1
-5.238491058349609 4.392863750457764 -1.3343335390090942 4899181 0 -1
3.2023065090179443 6.185617923736572 0.053373340517282486 8180304 5 -1
3.2557737827301025 6.157875061035156 0 8705099 5 -1
-1.6084935665130615 6.809937477111816 -0.10724549740552902 2264205 4 -1
-1.6086353063583374 6.810537338256836 -0.05362274870276451 2199437 4 -1
-5.262969970703125 4.41339111328125 -1.3405687808990479 4899181 0 -1
3.1633708477020264 6.241440773010254 0.10724549740552902 7589974 5 -1
3.1633708477020264 6.241440773010254 0.10724549740552902 7589974 5 -1
3.2708916664123535 6.186468124389648 0.05362274870276451 8180304 5 -1
3.055060863494873 6.292423725128174 0.21449099481105804 8705099 5 -1
3.2709877490997314 6.186649799346924 0 8705099 5 -1
3.339681625366211 6.185915470123291 0.10774431377649307 4899181 5 -1
3.176964044570923 6.268260955810547 0.21548862755298615 5424489 5 -1
3.3914542198181152 6.1527323722839355 0.2693607807159424 5424489 5 -1
3.339681625366211 6.185915470123291 0.10774431377649307 7589974 5 -1
-2.8541765213012695 6.4224629402160645 0.703580379486084 4456788 0 -1
-1.6188735961914062 6.853883266448975 0.5412156581878662 4456788 4 -1
3.26192045211792 5.917733669281006 -2.056619644165039 4456788 0 -1
3.246912717819214 6.271780014038086 0.10824313014745712 5424489 5 -1
3.301318645477295 6.244016647338867 0.05412156507372856 7589974 5 -1
3.5483510494232178 6.0530595779418945 -0.8118234872817993 8180304 5 -1
3.138221502304077 6.325708389282227 0.16236470639705658 8705099 5 -1
-2.056378126144409 6.756402492523193 -0.10824313014745712 11918891 4 -1
3.081667423248291 6.347224235534668 0.32472941279411316 11918891 5 -1
-2.0556533336639404 6.754021167755127 0.21648626029491425 13164576 4 -1
3.084838628768921 6.353756427764893 -0.05412156507372856 13164576 5 -1
-1.5581331253051758 6.836665153503418 -1.0874195098876953 4456788 0 -1
3.3118550777435303 6.263945579528809 -0.3805968165397644 3887499 5 -1
3.2337095737457275 6.116143226623535 -1.5767582654953003 5949540 0 -1
3.2063803672790527 6.326300144195557 -0.21748389303684235 7589974 5 -1
3.1520349979400635 6.353552341461182 0.21748389303684235 8705099 5 -1
3.0933172702789307 6.371219635009766 0.4349677860736847 9360965 5 -1
3.3255774974823 6.2898993492126465 -0.4369630515575409 4017546 5 -1
3.327047109603882 6.2926788330078125 -0.382342666387558 3887499 5 -1
3.439467430114746 6.239837169647217 -0.21848152577877045 3562893 5 -1
3.3800952434539795 6.26077127456665 -0.4369630515575409 3432845 5 -1
3.0529892444610596 6.426629066467285 0.4369630515575409 5424489 5 -1
3.112539052963257 6.410810470581055 0.16386115550994873 5949540 5 -1
3.330962896347046 6.300085067749023 0.16386115550994873 5949540 5 -1
3.1075069904327393 6.400445461273193 0.4369630515575409 6343264 5 -1
3.2202365398406982 6.353639125823975 -0.27310192584991455 11918891 5 -1
3.3422391414642334 6.321412563323975 -0.38408854603767395 4017546 5 -1
3.3422391414642334 6.321412563323975 -0.38408854603767395 3887499 5 -1
3.442152738571167 6.244709014892578 -0.6584374904632568 2912910 5 -1
3.0682852268218994 6.458827018737793 0.38408854603767395 5424489 5 -1
3.0704524517059326 6.4633893966674805 0.2743489444255829 5949540 5 -1
3.1201322078704834 6.426449775695801 0.4938281178474426 6343264 5 -1
3.125281810760498 6.437056064605713 -0.2743489444255829 11918891 5 -1
3.2357966899871826 6.384339809417725 -0.21947915852069855 12640037 5 -1
3.359802722930908 6.3546319007873535 -0.2755959928035736 3887499 5 -1
3.472407579421997 6.299596786499023 -0.05511919781565666 3238030 5 -1
3.4524714946746826 6.263428688049316 -0.7716687917709351 2912910 5 -1
3.303654909133911 6.381383895874023 0.33071520924568176 2006409 5 -1
3.0808703899383545 6.4853196144104 0.4409535825252533 5424489 5 -1
3.08440899848938 6.492768287658691 0.2755959928035736 5949540 5 -1
3.0808703899383545 6.4853196144104 0.4409535825252533 6933851 5 -1
3.19681978225708 6.443824768066406 0.05511919781565666 7589974 5 -1
3.141425371170044 6.470306396484375 0.11023839563131332 8705099 5 -1
3.251650810241699 6.41562032699585 -0.11023839563131332 12640037 5 -1
3.3739137649536133 6.381320953369141 -0.3322116434574127 3887499 5 -1
3.300100326538086 6.374517917633057 -0.8305290937423706 2977934 5 -1
3.5259664058685303 6.266129493713379 -0.7197918891906738 2912910 5 -1
3.3102948665618896 6.394209861755371 -0.609054684638977 2458766 5 -1
3.3142075538635254 6.401767253875732 0.4983174800872803 2006409 5 -1
3.094810962677002 6.514664649963379 0.4429488480091095 5424489 5 -1
3.0973634719848633 6.520037651062012 0.3322116434574127 5949540 5 -1
3.0961785316467285 6.517543792724609 0.3875802457332611 6933851 5 -1
3.1551766395568848 6.498629570007324 0.16610582172870636 7589974 5 -1
3.1514675617218018 6.490990161895752 0.3875802457332611 8180304 5 -1
3.59985613822937 6.267533302307129 -0.6674162149429321 4456788 5 -1
3.0964033603668213 6.377575397491455 -1.5573043823242188 4456788 0 -1
3.6045424938201904 6.275692462921143 -0.5561801791191101 4456788 5 -1
3.8321187496185303 6.1522088050842285 -0.3893260955810547 4456788 0 -1
3.259716272354126 6.4315338134765625 0.8342702388763428 2006409 5 -1
3.2535037994384766 6.419276714324951 -0.9455062747001648 2072968 5 -1
3.048105478286743 6.5590500831604 0.6117981672286987 5424489 5 -1
3.107193946838379 6.540731430053711 0.5005621314048767 6933851 5 -1
3.253225326538086 6.418726921081543 -1.1732158660888672 4456788 0 -1
3.6159989833831787 6.295638561248779 -0.670409083366394 4456788 5 -1
3.460117816925049 6.408992767333984 -0.335204541683197 2977934 5 -1
3.348500967025757 6.468008995056152 -0.335204541683197 2070922 5 -1
3.3448009490966797 6.326258182525635 -1.3966856002807617 2072968 0 -1
3.47807240486145 6.309874057769775 1.1173484325408936 3651704 5 -1
3.4306764602661133 6.3544602394104 1.0056136846542358 4045940 5 -1
3.437650680541992 6.367378234863281 0.8938787579536438 6343264 5 -1
3.4070122241973877 6.443922996520996 -0.1676022708415985 8180304 5 -1
3.6200778484344482 6.302740097045898 -0.8978692889213562 4456788 5 -1
3.442174196243286 6.375757217407227 1.0662198066711426 3651704 5 -1
3.2889513969421387 6.48921537399292 0.8417524695396423 4045940 5 -1
3.449599504470825 6.389510154724121 0.9539861679077148 4045940 5 -1
3.429987668991089 6.353184223175049 1.4091559648513794 4456788 0 -1
3.7458701133728027 5.894162178039551 2.3110158443450928 4456788 0 -1
3.72969126701355 5.987768173217773 2.0855507850646973 4456788 0 -1
3.586622714996338 6.3739237785339355 0.7891273498535156 3651704 5 -1
3.30641770362854 6.523677349090576 0.7891273498535156 4045940 5 -1
3.426105499267578 6.480034828186035 0.6200286149978638 4899181 5 -1
2.261017322540283 6.832652568817139 1.5218884944915771 8705099 0 -1
2.6290178298950195 6.489861965179443 2.2546496391296387 8705099 0 -1
3.208470106124878 6.608396530151367 0.7926190495491028 3651704 5 -1
3.436378002166748 6.49946403503418 0.7360033988952637 3651704 5 -1
3.269796848297119 6.5909247398376465 0.6793878078460693 4045940 5 -1
3.328436851501465 6.567121982574463 0.6227721571922302 4505456 5 -1
3.5582942962646484 6.455411434173584 0.509540855884552 4899181 5 -1
3.5582942962646484 6.455411434173584 0.509540855884552 5424489 5 -1
3.229774236679077 6.652276039123535 0.6255156397819519 3651704 5 -1
3.448751926422119 6.522867679595947 0.7961108088493347 3651704 5 -1
3.225187301635742 6.642828464508057 0.7392457127571106 4045940 5 -1
3.340825319290161 6.591565132141113 0.6823806762695312 4505456 5 -1
3.632519483566284 6.455488681793213 0.4549204409122467 4899181 5 -1
3.340825319290161 6.591565132141113 0.6823806762695312 5949540 5 -1
3.4642069339752197 6.156373977661133 -2.274602174758911 6343264 0 -1
3.4807043075561523 6.447124481201172 1.3707470893859863 3257723 0 -1
3.2439398765563965 6.681452751159668 0.6282591223716736 3651704 5 -1
3.4638779163360596 6.551476955413818 0.7996025085449219 3651704 5 -1
3.239332914352417 6.671963691711426 0.7424880266189575 4045940 5 -1
3.2986056804656982 6.648994445800781 0.6853735446929932 4505456 5 -1
3.523484706878662 6.526364326477051 0.7424880266189575 4899181 5 -1
3.296163320541382 6.644071102142334 0.7424880266189575 5949540 5 -1
3.595569610595703 6.523035526275635 0.2855723202228546 5949540 5 -1
3.599893093109131 6.267597675323486 1.9503716230392456 2666112 0 -1
3.3173229694366455 6.686723232269287 0.5736387372016907 4505456 5 -1
3.6071276664733887 6.544003963470459 0.4589109718799591 4505456 5 -1
3.5388712882995605 6.554863452911377 0.7457303404808044 4899181 5 -1
3.291656255722046 6.634986877441406 1.0899136066436768 5424489 5 -1
3.5329902172088623 6.543970584869385 0.8604580760002136 5424489 5 -1
3.3130099773406982 6.678029537200928 0.6883664727210999 5949540 5 -1
3.5461039543151855 6.568260669708252 0.5736387372016907 5949540 5 -1
3.671168565750122 6.262571334838867 1.9588515758514404 2666112 0 -1
3.51275897026062 6.6439290046691895 0.23045311868190765 4505456 5 -1
3.444495916366577 6.6534342765808105 0.6337460875511169 4899181 5 -1
3.559312582015991 6.592726230621338 0.6337460875511169 5949540 5 -1
-6.482774257659912 3.745791435241699 0.9836657047271729 2468738 0 -1
-2.4234254360198975 6.76719856262207 2.314507484436035 2468738 0 -1
2.1643667221069336 7.111208438873291 1.3308418989181519 2468738 0 -1
-6.131733417510986 3.914759874343872 -2.0251941680908203 2666112 0 -1
-5.5087385177612305 4.958442687988281 -1.446567177772522 2994813 0 -1
-2.2923874855041504 7.1193461418151855 1.041528344154358 2994813 0 -1
-5.598330497741699 4.694615840911865 -2.033923387527466 4045940 0 -1
3.676133155822754 6.400335311889648 1.7433629035949707 4045940 0 -1
-5.599516868591309 5.0401530265808105 -0.8716814517974854 4899181 0 -1
-1.7478891611099243 7.6692633628845215 2.325481414794922 2134668 0 -1
-1.6943140029907227 7.71323823928833 2.334709644317627 2523534 0 -1
-6.033132076263428 5.430452346801758 -1.3882057666778564 2134668 0 -1
-6.024923324584961 5.4230637550354 -1.4513059854507446 2070155 0 -1
-6.2024102210998535 5.201181888580322 -1.5144062042236328 2070922 0 -1
-6.029222011566162 5.302408218383789 -1.8299075365066528 10016830 0 -1
-1.8713512420654297 7.6527228355407715 2.3978099822998047 10016830 0 -1
-1.7736998796463013 7.782513618469238 2.153888702392578 2523534 0 -1
-1.3455654382705688 7.867844581604004 2.153888702392578 2523534 0 -1
-6.048737525939941 5.444498538970947 -1.4570423364639282 2134668 0 -1
-6.217648029327393 5.213959693908691 -1.5837416648864746 2070922 0 -1
-5.9499945640563965 5.4794816970825195 -1.710440993309021 2070922 0 -1
-6.1734538078308105 5.302665710449219 -1.4570423364639282 2006409 0 -1
-6.235811710357666 5.229191303253174 -1.4570423364639282 9360965 0 -1
-6.284534931182861 5.142758369445801 -1.717175006866455 2523534 0 -1
-6.063898086547852 5.458144664764404 -1.52637779712677 2264205 0 -1
-6.214261054992676 5.337716579437256 -1.335580587387085 2666112 0 -1
-6.117284297943115 5.379854679107666 -1.5899769067764282 4505456 0 -1
-6.246713161468506 5.238333225250244 -1.7239090204238892 2523534 0 -1
-6.215773105621338 5.594848155975342 -1.2969223260879517 2072968 0 -1
-6.534647464752197 5.084593296051025 -1.750845193862915 2271109 0 -1
-3.499119520187378 7.698779582977295 0.3242305815219879 2271109 0 -1
9.009591102600098 4.256653785705566 3.0328030586242676 2271109 0 -1
9.068615913391113 4.083342552185059 3.2024004459381104 2139270 0 -1
9.037745475769043 4.269956111907959 3.042280435562134 2271109 0 -1
9.3883638381958 3.5665977001190186 2.8821604251861572 2271109 0 -1
9.096866607666016 4.096063137054443 3.212376832962036 2139270 0 -1
9.125118255615234 4.108783721923828 3.222353219985962 2139270 0 -1
6.330023765563965 8.491403579711914 -0.650456428527832 2588302 6 -1
6.349441051483154 8.517451286315918 -0.6524516940116882 2977934 6 -1
6.4200334548950195 8.441943168640137 -0.8971210718154907 2912910 6 -1
6.346259593963623 8.513182640075684 -0.7340081334114075 2588302 6 -1
6.3427019119262695 8.508410453796387 -0.8155646324157715 2458766 6 -1
6.4200334548950195 8.441943168640137 -0.8971210718154907 2070922 6 -1
6.349441051483154 8.517451286315918 -0.6524516940116882 4045940 6 -1
6.424018383026123 8.447183609008789 -0.8155646324157715 4899181 6 -1
6.268037796020508 8.577532768249512 -0.6524516940116882 9360965 6 -1
6.3427019119262695 8.508410453796387 -0.8155646324157715 10016830 6 -1
6.356733798980713 8.527234077453613 -0.40778231620788574 13164576 6 -1
6.447278022766113 8.477767944335938 -0.7362528443336487 3887499 6 -1
6.36566686630249 8.539216995239258 -0.7362528443336487 2977934 6 -1
6.439666748046875 8.467759132385254 -0.8998645544052124 2912910 6 -1
6.362098217010498 8.534430503845215 -0.8180587291717529 2458766 6 -1
6.435286045074463 8.46199893951416 -0.9816704392433167 2070922 6 -1
6.36566686630249 8.539216995239258 -0.7362528443336487 2271109 6 -1
6.36566686630249 8.539216995239258 -0.7362528443336487 2468738 6 -1
6.368858337402344 8.543498039245605 -0.6544469594955444 4045940 6 -1
6.368858337402344 8.543498039245605 -0.6544469594955444 4899181 6 -1
6.267723083496094 8.577101707458496 -1.063476324081421 8705099 6 -1
6.353826522827148 8.523334503173828 -0.9816704392433167 9360965 6 -1
6.362098217010498 8.534430503845215 -0.8180587291717529 10016830 6 -1
6.463309288024902 8.498847961425781 -0.8205527663230896 3887499 6 -1
6.381494998931885 8.560449600219727 -0.8205527663230896 2977934 6 -1
6.454905986785889 8.487797737121582 -0.9846633672714233 2912910 6 -1
6.381494998931885 8.560449600219727 -0.8205527663230896 2458766 6 -1
6.463309288024902 8.498847961425781 -0.8205527663230896 2264205 6 -1
6.4593000411987305 8.493576049804688 -0.9026080369949341 2271109 6 -1
6.454905986785889 8.487797737121582 -0.9846633672714233 2468738 6 -1
6.463309288024902 8.498847961425781 -0.8205527663230896 4045940 6 -1
6.388275623321533 8.56954574584961 -0.6564422249794006 4899181 6 -1
6.295773029327393 8.615487098693848 -0.9026080369949341 8180304 6 -1
6.281796932220459 8.59636116027832 -1.1487739086151123 8705099 6 -1
6.29149055480957 8.609626770019531 -0.9846633672714233 9360965 6 -1
6.37319803237915 8.549320220947266 -0.9846633672714233 10016830 6 -1
6.4008917808532715 8.586469650268555 -0.823046863079071 2458766 6 -1
6.464550018310547 8.500479698181152 -1.1522656679153442 2468738 6 -1
6.27689266204834 8.58965015411377 -1.4814844131469727 8705099 6 -1
6.2896528244018555 8.607111930847168 -1.3168749809265137 9360965 6 -1
6.382720470428467 8.562093734741211 -1.1522656679153442 10016830 6 -1
6.337976932525635 8.67324161529541 -0.8255409598350525 12640037 6 -1
6.508999824523926 8.389443397521973 -2.3324649333953857 4456788 0 -1
6.473449230194092 8.343622207641602 2.582371950149536 10672695 0 -1
7.060915470123291 8.226434707641602 1.1697242259979248 4456788 0 -1
6.597485542297363 8.675281524658203 0.3342069089412689 8180304 0 -1
6.677070617675781 8.606069564819336 0.5013103485107422 9360965 0 -1
7.0876688957214355 8.25760555267334 1.0894147157669067 4456788 0 -1
6.148447036743164 8.931796073913574 1.4246193170547485 4456788 0 -1
6.582087516784668 8.655034065246582 1.1732158660888672 8180304 0 -1
6.6944403648376465 8.628458023071289 0.5866079330444336 8705099 0 -1
6.536668300628662 8.768606185913086 -0.8405054211616516 4456788 6 -1
7.931240081787109 7.304055213928223 -2.0172131061553955 4456788 0 -1
6.846469402313232 8.476985931396484 -1.2607581615447998 4456788 0 -1
6.671619892120361 8.428335189819336 2.185314178466797 8180304 0 -1
6.690600872039795 8.62350845336914 1.0926570892333984 8705099 0 -1
6.774027347564697 8.38729190826416 2.191798686981201 8180304 0 -1
6.370886325836182 8.718276023864746 2.10749888420105 8705099 0 -1
5.236517429351807 9.699323654174805 -0.5072961449623108 4456788 0 -1
5.735669136047363 9.395659446716309 0.7609442472457886 4456788 0 -1
4.802164077758789 9.890884399414062 -0.9300429821014404 4456788 0 -1
7.26590633392334 8.29356575012207 0.42274680733680725 4456788 0 -1
3.4639787673950195 10.467926025390625 -0.42274680733680725 9360965 0 -1
3.969618082046509 10.283001899719238 0.5072961449623108 9360965 0 -1
6.061765193939209 9.164112091064453 1.0145922899246216 9360965 0 -1
6.570357322692871 8.468526840209961 2.62103009223938 9360965 0 -1
6.924583911895752 8.233681678771973 2.4519314765930176 9360965 0 -1
5.3416948318481445 9.690834045410156 0.1695975363254547 4456788 0 -1
6.070279598236084 9.176983833312988 1.1871827840805054 4456788 0 -1
8.369375228881836 7.0183424949646 1.7807741165161133 4456788 0 -1
5.249955654144287 9.724214553833008 -0.5935913920402527 4456788 0 -1
5.760219097137451 9.435874938964844 0.5087926387786865 4456788 0 -1
4.813053607940674 9.913311958312988 -1.017585277557373 4456788 0 -1
6.15458869934082 9.12065601348877 1.1871827840805054 4456788 0 -1
3.2219748497009277 10.586068153381348 0.1695975363254547 4456788 0 -1
4.739800453186035 9.977415084838867 -0.6783901453018188 4456788 0 -1
5.849568843841553 9.39108943939209 0.25439631938934326 10016830 0 -1
6.444418907165527 8.818902015686035 1.7807741165161133 10016830 0 -1
6.15952205657959 9.127965927124023 1.1023839712142944 13164576 0 -1
6.919225692749023 8.227311134338379 2.6287617683410645 13164576 0 -1
8.696563720703125 6.246094703674316 2.7983593940734863 13164576 0 -1
3.4019269943237305 10.565184593200684 0 4456788 0 -1
8.657451629638672 6.390459060668945 2.7215416431427 4456788 0 -1
5.857288360595703 9.403482437133789 0.680385410785675 4456788 0 -1
6.324265480041504 9.006081581115723 1.4458190202713013 4456788 0 -1
5.612520694732666 9.574283599853516 0.17009635269641876 4456788 0 -1
4.135923385620117 10.209733963012695 1.36077082157135 13164576 0 -1
5.862119197845459 9.411237716674805 0.5102890729904175 13164576 0 -1
6.538822650909424 8.771496772766113 1.8710598945617676 13164576 0 -1
8.72214126586914 6.26446533203125 2.8065898418426514 13164576 0 -1
6.455900192260742 8.834613800048828 -2.0471420288085938 4456788 0 -1
5.816898345947266 9.152944564819336 -2.651956796646118 4456788 0 -1
