VERSION .7
FIELDS x y z rgb label object
SIZE 4 4 4 4 4 4
TYPE F F F I I I
COUNT 1 1 1 1 1 1
WIDTH 678
HEIGHT 1
POINTS 678
VIEWPOINT 0 0 0 1 0 0 0
DATA ascii
0.5904365181922913 0.34115827083587646 -0.047138139605522156 4456788 0 -1
-0.6168690323829651 0.2637304663658142 0.1309392750263214 4456788 0 -1
0.6546195149421692 0.19644297659397125 0.010475141927599907 4456788 0 -1
-0.6451547145843506 0.2117294818162918 0.07856356352567673 4456788 0 -1
0.6018784642219543 0.32292842864990234 -0.026187855750322342 4523353 0 -1
0.5785779356956482 0.28592270612716675 0.22521555423736572 4724328 0 -1
0.46714696288108826 0.47001007199287415 0.1676022708415985 4726897 0 -1
0.5901130437850952 0.26571130752563477 0.2199779748916626 4726897 0 -1
0.6215492486953735 0.18651902675628662 0.21474041044712067 4726897 0 -1
-0.614192008972168 0.23332881927490234 0.18855255842208862 4728182 0 -1
0.4935319423675537 0.4648666977882385 0.23045311868190765 4456788 0 -1
0.5986674427986145 0.37018802762031555 0.1316874921321869 4456788 0 -1
-0.6704257726669312 0.23777861893177032 0.0823046863079071 4456788 0 -1
0.5724283456802368 0.39973652362823486 0.15912239253520966 4724328 0 -1
0.5314586758613586 0.4564944803714752 0.14814843237400055 4726897 0 -1
0.5954105854034424 0.3318111300468445 0.21947915852069855 4726897 0 -1
0.6164904236793518 0.2775883078575134 0.2359400987625122 4726897 0 -1
-0.6283501386642456 0.2686389982700348 0.213992178440094 4728182 0 -1
0.577778160572052 0.3919641971588135 0.15912239253520966 4728182 0 -1
-0.6110792756080627 0.3019842505455017 0.21947915852069855 4729209 0 -1
-0.6687816381454468 0.21948345005512238 0.1316874921321869 3107982 0 -1
-0.6074051260948181 0.3131290674209595 0.213992178440094 3107982 0 -1
0.5663410425186157 0.42934122681617737 0.08779166638851166 3107982 0 -1
0.5927445888519287 0.3665256202220917 0.1646093726158142 3107982 0 -1
-0.6770964860916138 0.2572259306907654 -0.1893007755279541 4456788 0 -1
0.5964266061782837 0.45214900374412537 -0.017209161072969437 4456788 0 -1
-0.6977817416191101 0.2650841772556305 0.05736387148499489 4456788 0 -1
0.5928548574447632 0.425803542137146 0.16635523736476898 4724328 0 -1
-0.6517455577850342 0.2786412537097931 0.2409282624721527 4726897 0 -1
0.631862461566925 0.312254935503006 0.25240105390548706 4726897 0 -1
-0.6561450362205505 0.29544365406036377 0.20650994777679443 4728182 0 -1
0.6080566048622131 0.41250506043434143 0.14340968430042267 4728182 0 -1
-0.6459629535675049 0.30519041419029236 0.22371910512447357 4729209 0 -1
0.5895372033119202 0.44692617654800415 0.11472774296998978 4729209 0 -1
0.6134136319160461 0.3793063759803772 0.20077355206012726 3107982 0 -1
0.6163343787193298 0.442667156457901 0.18555966019630432 4724328 0 -1
-0.7777372598648071 0.2098718136548996 -0.2593844532966614 4724328 0 -1
0.1744614839553833 0.8250313997268677 0.071330726146698 4724328 0 -1
0.6574608087539673 0.5115686058998108 0.14914606511592865 4724328 0 -1
0.6838529706001282 0.4502823054790497 0.213992178440094 4724328 0 -1
0.08720054477453232 1.6234138011932373 0.07482244074344635 4456788 0 -1
0.012452456168830395 1.6250845193862915 -0.08729285001754761 4523353 0 -1
0 1.6582691669464111 0.0763188898563385 4724328 0 -1
-0.051863186061382294 1.6913317441940308 0.038907669484615326 4724328 0 -1
0.0638311430811882 1.6648585796356201 -0.2982921302318573 4725613 0 -1
0.012938347645103931 1.6884949207305908 -0.11672300845384598 4726897 0 -1
0.28203657269477844 1.6491358280181885 -0.5387215614318848 4456788 0 -1
0.3687639534473419 1.618036150932312 0.579125702381134 4456788 0 -1
-0.2485688328742981 1.6891754865646362 -0.4175092279911041 4657508 0 -1
0.2148551046848297 1.7392851114273071 0.1346803903579712 4725613 0 -1
0.30183082818984985 1.6858468055725098 -0.5212630033493042 4456788 0 -1
0.38786032795906067 1.7018258571624756 -0.39780598878860474 4456788 0 -1
0 1.7897495031356812 0.04115234315395355 4456788 0 -1
-0.12263885885477066 1.7741247415542603 -0.20576171576976776 4657508 0 -1
0.2987166941165924 1.6684530973434448 -0.5761328339576721 4657508 0 -1
0.1636594980955124 1.772351861000061 -0.19204427301883698 4724328 0 -1
0.32782408595085144 1.752236247062683 0.1646093726158142 4724328 0 -1
0.08112683147192001 1.7627369165420532 -0.30178385972976685 4726897 0 -1
0 1.8208446502685547 0.08380113542079926 4456788 0 -1
-0.2718566656112671 1.753004789352417 -0.41900569200515747 4724328 0 -1
-0.055865783244371414 1.8218621015548706 -0.013966855593025684 4724328 0 -1
0.27926331758499146 1.8007649183273315 0.04190056771039963 4724328 0 -1
-0.014165676198899746 1.8486651182174683 0.15637890994548798 4456788 0 -1
-1.4328296184539795 2.2098617553710938 -0.12121235579252243 4456788 0 -1
-1.3531802892684937 2.261948823928833 -0.060606177896261215 4456788 0 -1
-1.6348495483398438 1.9837383031845093 -0.5858597159385681 4456788 0 -1
-1.5222748517990112 2.125067949295044 -0.34343501925468445 4456788 0 -1
-1.3722875118255615 2.2479584217071533 -0.12121235579252243 4456788 0 -1
-0.8882380127906799 2.4803249835968018 -0.10101030021905899 4456788 0 -1
-1.2085599899291992 2.334470510482788 0.20202060043811798 4456788 0 -1
-1.413819432258606 2.180542469024658 -0.44444531202316284 4456788 0 -1
-0.28215551376342773 2.6150550842285156 0.18181852996349335 4456788 0 -1
-1.2726924419403076 2.3089020252227783 0.02020205929875374 4523353 0 -1
-1.4854618310928345 2.0736777782440186 -0.6666679382324219 4657508 0 -1
-1.3606109619140625 2.2288310527801514 -0.3636370599269867 4657508 0 -1
-1.407002568244934 2.258847951889038 -0.20451468229293823 4456788 0 -1
-1.9871671199798584 1.7476170063018799 -0.3476749360561371 4456788 0 -1
-1.779225468635559 1.9894256591796875 -0.020451467484235764 4456788 0 -1
-1.4459028244018555 2.230024814605713 -0.24541760981082916 4456788 0 -1
-1.2475029230117798 2.359490156173706 0.020451467484235764 4456788 0 -1
-0.8981723189353943 2.508065700531006 -0.1636117398738861 4456788 0 -1
-1.933226227760315 1.8209408521652222 -0.2658690810203552 4456788 0 -1
-1.933226227760315 1.8209408521652222 -0.2658690810203552 4456788 0 -1
-1.4830631017684937 2.1977922916412354 -0.30677202343940735 4456788 0 -1
-1.349757194519043 2.302523136138916 -0.020451467484235764 4456788 0 -1
-2.067490339279175 1.6087092161178589 -0.5112866759300232 4456788 0 -1
-1.968827247619629 1.772151231765747 -0.3272234797477722 4456788 0 -1
-1.4640085697174072 2.2132725715637207 -0.2863205373287201 4456788 0 -1
-1.3491626977920532 2.301508903503418 -0.08180586993694305 4456788 0 -1
-1.4721165895462036 2.2255301475524902 -0.06135440245270729 4456788 0 -1
-1.5816227197647095 2.121666193008423 -0.3476749360561371 4456788 0 -1
-1.5831806659698486 2.123755931854248 -0.3272234797477722 4456788 0 -1
-1.5524957180023193 2.0825936794281006 -0.6135440468788147 4456788 0 -1
-1.5455995798110962 2.1150848865509033 -0.5112866759300232 4456788 0 -1
-1.5236949920654297 2.1698203086853027 -0.30677202343940735 4523353 0 -1
-1.6565202474594116 2.0927011966705322 0.020451467484235764 4657508 0 -1
-1.5628834962844849 2.1387369632720947 -0.3272234797477722 4728182 0 -1
-1.9909614324569702 1.7509539127349854 -0.30677202343940735 3432845 0 -1
-1.4690001010894775 2.2208187580108643 -0.18406321108341217 3432845 0 -1
-1.3289941549301147 2.3138465881347656 0.06135440245270729 3432845 0 -1
-1.6762324571609497 2.075434446334839 0.08180586993694305 8705099 0 -1
-1.4241610765457153 2.2863948345184326 -0.20700876414775848 4456788 0 -1
-2.0520687103271484 1.6792479753494263 -0.5175219178199768 4456788 0 -1
-1.8950084447860718 1.9066227674484253 -0.26911139488220215 4456788 0 -1
-1.5527652502059937 2.1676321029663086 -0.43471840023994446 4456788 0 -1
-1.4241610765457153 2.2863948345184326 -0.20700876414775848 4456788 0 -1
-1.8005002737045288 2.013213872909546 -0.062102627009153366 4456788 0 -1
-2.0298004150390625 1.7434896230697632 -0.3726157546043396 4456788 0 -1
-1.862586498260498 1.9559149742126465 -0.062102627009153366 4456788 0 -1
-1.5011491775512695 2.2245945930480957 -0.31051313877105713 4456788 0 -1
-1.3863071203231812 2.3173227310180664 -0.08280350267887115 4456788 0 -1
-1.3863071203231812 2.3173227310180664 -0.08280350267887115 4456788 0 -1
-1.9928373098373413 1.7937628030776978 -0.3312140107154846 4456788 0 -1
-1.4830501079559326 2.2420592308044434 -0.26911139488220215 4456788 0 -1
-1.365615963935852 2.329576253890991 -0.08280350267887115 4456788 0 -1
-1.2621601819992065 2.3872125148773193 0.08280350267887115 4456788 0 -1
-1.6404942274093628 2.072455406188965 -0.5589236617088318 4456788 0 -1
-1.4671342372894287 2.2179980278015137 0.47612014412879944 4456788 0 -1
-1.595595359802246 2.1404097080230713 -0.41401752829551697 4456788 0 -1
-1.595595359802246 2.1404097080230713 -0.41401752829551697 4456788 0 -1
-1.5742995738983154 2.111842393875122 -0.6003254055976868 4456788 0 -1
-1.5690186023712158 2.147132635116577 -0.47612014412879944 4456788 0 -1
-1.5546826124191284 2.170308828353882 -0.41401752829551697 4523353 0 -1
-1.604117512702942 2.0265002250671387 -0.7866332530975342 4657508 0 -1
-1.5803864002227783 2.162688970565796 -0.3519148826599121 4728182 0 -1
-1.665658712387085 2.104245901107788 -0.31051313877105713 3562893 0 -1
-1.665658712387085 2.104245901107788 -0.31051313877105713 3562893 0 -1
-1.9170258045196533 1.8873242139816284 -0.24841050803661346 8705099 0 -1
-1.6956769227981567 2.0995097160339355 0.12420525401830673 8705099 0 -1
-2.029205799102783 1.7429789304733276 -0.5656576752662659 4456788 0 -1
-1.8004015684127808 2.0550427436828613 -0.10475142300128937 4456788 0 -1
-2.056230068206787 1.7243016958236694 -0.5237571001052856 4456788 0 -1
-1.4394457340240479 2.3109331130981445 -0.25140342116355896 4456788 0 -1
-1.2987650632858276 2.4056336879730225 -0.04190056771039963 4456788 0 -1
-1.8846397399902344 1.979073166847229 -0.08380113542079926 4456788 0 -1
-1.5178335905075073 2.249319553375244 -0.335204541683197 4456788 0 -1
-1.4225685596466064 2.330324411392212 -0.1466519832611084 4456788 0 -1
-1.2983072996139526 2.4047858715057373 0.08380113542079926 4456788 0 -1
-1.6355221271514893 2.1506094932556152 -0.41900569200515747 4456788 0 -1
-1.9059721231460571 1.95932137966156 -0.06285085529088974 4456788 0 -1
-1.6355221271514893 2.1506094932556152 -0.41900569200515747 4456788 0 -1
-1.6148194074630737 2.1661977767944336 -0.41900569200515747 4456788 0 -1
-1.6085448265075684 2.157780647277832 -0.4818565249443054 4456788 0 -1
-1.5808345079421997 2.163302183151245 -0.5447073578834534 4456788 0 -1
-1.58792245388031 2.173001766204834 -0.4818565249443054 4456788 0 -1
-1.569435477256775 2.190903425216675 -0.4609062373638153 4523353 0 -1
-1.6248589754104614 2.0942790508270264 -0.670409083366394 4657508 0 -1
-1.6759735345840454 2.160160541534424 -0.020950283855199814 4724328 0 -1
-1.584302544593811 2.2116575241088867 -0.2723536789417267 4724328 0 -1
-1.5673000812530518 2.187922477722168 -0.4818565249443054 4725613 0 -1
-1.61073637008667 2.1607205867767334 -0.4609062373638153 4728182 0 -1
-1.6519598960876465 2.172224283218384 -0.1676022708415985 3302798 0 -1
-1.9074680805206299 2.0030453205108643 -0.06359907984733582 4456788 0 -1
-1.2706365585327148 2.454378604888916 0.12719815969467163 4456788 0 -1
-1.6651114225387573 2.1895174980163574 0.29679569602012634 4456788 0 -1
-1.247804045677185 2.461961030960083 0.19079722464084625 4456788 0 -1
-1.840904712677002 2.058391809463501 -0.1695975363254547 4456788 0 -1
-1.6094729900360107 2.2467949390411377 0.12719815969467163 4456788 0 -1
-1.839982271194458 2.0573604106903076 -0.19079722464084625 4456788 0 -1
-1.8443732261657715 2.062270164489746 0 4456788 0 -1
-1.8443191051483154 2.0622096061706543 -0.02119969204068184 4456788 0 -1
-1.8229594230651855 2.0807912349700928 0.04239938408136368 4456788 0 -1
-1.585958480834961 2.2139692306518555 -0.4875929057598114 4456788 0 -1
-1.883224368095398 2.0197458267211914 -0.1695975363254547 4523353 0 -1
-1.8231199979782104 2.0809743404388428 -0.02119969204068184 4726897 0 -1
-2.2871458530426025 1.5515975952148438 -0.12719815969467163 4212104 0 -1
-1.8800586462020874 2.016350507736206 -0.23319661617279053 4212104 0 -1
-1.6054432392120361 2.2411696910858154 0.23319661617279053 4212104 0 -1
-2.2515604496002197 1.6619791984558105 0.0643472969532013 4456788 0 -1
-1.7361016273498535 2.1932373046875 0.10724549740552902 4456788 0 -1
-1.5915429592132568 2.266439437866211 0.4075329005718231 4456788 0 -1
-1.7579998970031738 2.176675319671631 0.08579640090465546 4456788 0 -1
-1.4923585653305054 2.3016738891601562 0.5576766133308411 4456788 0 -1
-1.8640985488891602 2.0843257904052734 -0.1286945939064026 4456788 0 -1
-1.8651950359344482 2.0855517387390137 -0.08579640090465546 4456788 0 -1
-1.844406008720398 2.105271100997925 -0.04289820045232773 4456788 0 -1
-1.8229594230651855 2.123868703842163 0.04289820045232773 4523353 0 -1
-1.762744426727295 2.0959928035736084 -0.579125702381134 4728182 0 -1
-1.8868833780288696 2.109802484512329 -0.08679403364658356 4456788 0 -1
-1.8658525943756104 2.129750967025757 -0.04339701682329178 4456788 0 -1
-1.8443732261657715 2.148817300796509 0 4523353 0 -1
-1.8523279428482056 2.2476282119750977 -0.3142542541027069 4726897 0 -1
-1.7676316499710083 2.278298854827881 0.5162748694419861 4600703 0 -1
-1.8328346014022827 2.26933217048645 -0.2693607807159424 4341894 0 -1
-1.789707064628601 2.3067517280578613 -0.4993151128292084 4456788 0 -1
-1.8078173398971558 2.238356828689575 0.703580379486084 4726897 0 -1
-1.8042705059051514 2.2339653968811035 0.7262765169143677 4664956 0 -1
-1.8227238655090332 2.3026680946350098 -0.38583439588546753 4600703 0 -1
-1.826273798942566 2.2160139083862305 0.7262765169143677 4212104 0 -1
-1.7670682668685913 2.2775726318359375 0.6808842420578003 4017546 0 -1
-1.7786450386047363 2.246983051300049 0.7489726543426514 3887499 0 -1
-1.8147720098495483 2.2020576000213623 0.7943649291992188 3757452 0 -1
-1.8147720098495483 2.2020576000213623 0.7943649291992188 3757452 0 -1
-1.7929073572158813 2.219896078109741 0.7943649291992188 3692940 0 -1
-1.7929073572158813 2.219896078109741 0.7943649291992188 3562893 0 -1
-1.8614883422851562 2.304810047149658 -0.4359654188156128 4664956 0 -1
-1.8344942331314087 2.2713871002197266 0.6654209494590759 4600703 0 -1
-1.834714651107788 2.2262558937072754 0.803094208240509 3757452 0 -1
-1.834714651107788 2.2262558937072754 0.803094208240509 3757452 0 -1
-1.826338529586792 2.216092348098755 0.8489853143692017 3692940 0 -1
-1.8085342645645142 2.2392444610595703 0.8260397911071777 3562893 0 -1
-1.8126095533370972 2.244290590286255 0.803094208240509 3432845 0 -1
-1.8679499626159668 2.359802722930908 0.32472941279411316 4590430 0 -1
-1.8976303339004517 2.302598476409912 0.5102890729904175 4657508 0 -1
-1.8415985107421875 2.3736345767974854 0.37111932039260864 4657508 0 -1
-1.8736263513565063 2.2734718322753906 0.6958487033843994 4664956 0 -1
-1.8544344902038574 2.2960760593414307 0.6726537346839905 4600703 0 -1
-1.8214378356933594 2.3010435104370117 0.7422386407852173 4017546 0 -1
-1.8810946941375732 2.2367172241210938 0.7886285185813904 3757452 0 -1
-1.7794601917266846 2.2935445308685303 0.8582134246826172 3757452 0 -1
-1.8417645692825317 2.2348105907440186 0.8814083933830261 3692940 0 -1
-1.8461899757385254 2.240180253982544 0.8582134246826172 3562893 0 -1
-1.8439247608184814 2.2830634117126465 0.7422386407852173 3432845 0 -1
-1.9228969812393188 2.333256959915161 0.4688872992992401 4657508 0 -1
-1.855566382408142 2.3916375637054443 0.44544294476509094 4657508 0 -1
-1.8937729597091675 2.2979178428649902 0.703330934047699 4600703 0 -1
-1.8294286727905273 2.311138391494751 0.8205527663230896 4017546 0 -1
-1.8210766315460205 2.3005871772766113 0.8674415349960327 3887499 0 -1
-1.7898458242416382 2.3069305419921875 0.914330244064331 3757452 0 -1
-1.9215482473373413 2.284818649291992 0.8055883049964905 4017546 0 -1
-1.821959137916565 2.3483214378356934 0.8529758453369141 4017546 0 -1
-1.7575874328613281 2.4051806926727295 0.8292820453643799 3757452 0 -1
-1.7700159549713135 2.47091007232666 -0.5686505436897278 3238030 0 -1
-1.7794560194015503 2.484088182449341 -0.4738754630088806 2912910 0 -1
-1.7930983304977417 2.5031328201293945 0.2843252718448639 2006409 0 -1
-1.7471001148223877 2.537997007369995 0.2606315016746521 2072968 0 -1
-1.7681947946548462 2.518000841140747 0.3080190420150757 2139270 0 -1
-1.7695050239562988 2.519866466522217 0.2843252718448639 2994813 0 -1
-1.77070951461792 2.5215818881988525 0.2606315016746521 3257723 0 -1
-1.7930983304977417 2.5031328201293945 0.2843252718448639 3651704 0 -1
-1.7930983304977417 2.5031328201293945 0.2843252718448639 4045940 0 -1
-1.7943190336227417 2.5048367977142334 0.2606315016746521 4505456 0 -1
-1.6736100912094116 2.63344144821167 -0.1676022708415985 4456788 0 -1
-1.6742504835128784 2.6344492435455322 -0.1436590850353241 4456788 0 -1
-1.7566992044448853 2.5519416332244873 0.40703409910202026 4456788 0 -1
-1.6520310640335083 2.652224540710449 0.023943182080984116 4456788 0 -1
-1.6700586080551147 2.6278531551361084 0.2633749842643738 4456788 0 -1
-1.7440632581710815 2.533585548400879 -0.550693154335022 4456788 0 -1
-1.6736100912094116 2.63344144821167 0.1676022708415985 4456788 0 -1
-1.660004734992981 2.6120333671569824 0.4309772551059723 4456788 0 -1
-1.6649154424667358 2.619760274887085 0.35914772748947144 4456788 0 -1
-1.6949681043624878 2.61415958404541 0.23943181335926056 4456788 0 -1
-1.6893519163131714 2.5539441108703613 -0.6225227117538452 4456788 0 -1
-1.7785764932632446 2.532784938812256 0.4309772551059723 4726897 0 -1
-1.7584295272827148 2.554455280303955 0.38309091329574585 4536450 0 -1
-1.7177079916000366 2.4952995777130127 0.7661818265914917 3887499 0 -1
-1.7566992044448853 2.5519416332244873 0.40703409910202026 3757452 0 -1
-1.7624828815460205 2.509866714477539 0.5985795259475708 3107982 0 -1
-1.7766060829162598 2.5299789905548096 0.4549204409122467 2977934 0 -1
-1.7464394569396973 2.5370373725891113 0.5267499685287476 2912910 0 -1
-1.7804384231567383 2.5354363918304443 0.40703409910202026 2328718 0 -1
-1.7853763103485107 2.5424680709838867 0.335204541683197 2264205 0 -1
-1.8041775226593018 2.518599033355713 0.40703409910202026 2006409 0 -1
-1.7629832029342651 2.561070442199707 0.3112613558769226 2072968 0 -1
-1.7868072986602783 2.544506072998047 0.3112613558769226 2139270 0 -1
-1.7881313562393188 2.546391487121582 0.2873181700706482 2994813 0 -1
-1.7868072986602783 2.544506072998047 0.3112613558769226 3257723 0 -1
-1.7881313562393188 2.546391487121582 0.2873181700706482 3651704 0 -1
-1.7893486022949219 2.5481247901916504 0.2633749842643738 4045940 0 -1
-1.7893486022949219 2.5481247901916504 0.2633749842643738 4505456 0 -1
-1.8132065534591675 2.531203508377075 0.2633749842643738 4899181 0 -1
-1.8091813325881958 2.5255842208862305 0.335204541683197 5424489 0 -1
-1.692685604095459 2.663457155227661 -0.09677036106586456 4456788 0 -1
-1.6688475608825684 2.679222345352173 -0.07257776707410812 4456788 0 -1
-1.6934316158294678 2.664630651473999 0.02419259026646614 4456788 0 -1
-1.6453996896743774 2.641578435897827 0.5322369933128357 4456788 0 -1
-1.6822583675384521 2.64704966545105 0.3628888428211212 4456788 0 -1
-1.7144436836242676 2.6441969871520996 0.19354072213172913 4456788 0 -1
-1.782667636871338 2.589665651321411 0.2903110682964325 4456788 0 -1
-1.731814980506897 2.6181395053863525 0.33869627118110657 4456788 0 -1
-1.7558679580688477 2.60206937789917 0.33869627118110657 4456788 0 -1
-1.6996116638183594 2.469011068344116 -0.9918961524963379 4456788 0 -1
-1.7930114269256592 2.5533409118652344 0.4838517904281616 4456788 0 -1
-1.778387427330017 2.5834479331970215 0.3628888428211212 4590430 0 -1
-1.819047212600708 2.5393569469451904 0.459659218788147 4657508 0 -1
-1.7572753429412842 2.6041550636291504 0.31450366973876953 4724328 0 -1
-1.8169182538986206 2.5363848209381104 0.4838517904281616 4726897 0 -1
-1.8129441738128662 2.480933904647827 0.7257776856422424 4017546 0 -1
-1.747976541519165 2.489208936691284 0.8467406630516052 3887499 0 -1
-1.7543646097183228 2.5485501289367676 0.6290073394775391 3107982 0 -1
-1.7485629320144653 2.5401220321655273 0.6773925423622131 2912910 0 -1
-1.7050731182098389 2.5267951488494873 0.8225480318069458 2782862 0 -1
-1.7951123714447021 2.55633282661438 0.459659218788147 2328718 0 -1
-1.8039740324020386 2.5689523220062256 0.33869627118110657 2264205 0 -1
-1.819047212600708 2.5393569469451904 0.459659218788147 2006409 0 -1
-1.781347632408142 2.5877482891082764 0.31450366973876953 2072968 0 -1
-1.8067576885223389 2.5729165077209473 0.2903110682964325 2139270 0 -1
-1.7982707023620605 2.6123321056365967 -0.3421879708766937 4456788 0 -1
-1.655265212059021 2.657416820526123 0.6110499501228333 4456788 0 -1
-1.7837944030761719 2.6434543132781982 0.0733259916305542 4456788 0 -1
-1.777916669845581 2.6347439289093018 0.2688619792461395 4456788 0 -1
-1.7672133445739746 2.618882417678833 0.4399559497833252 4456788 0 -1
-1.7724412679672241 2.6266298294067383 0.366629958152771 4456788 0 -1
-1.7708059549331665 2.624206304550171 0.39107197523117065 4456788 0 -1
-1.789437174797058 2.5994997024536133 0.46439796686172485 4456788 0 -1
-1.7828235626220703 2.5898923873901367 0.537723958492279 4456788 0 -1
-1.8156301975250244 2.5855512619018555 0.4399559497833252 4456788 0 -1
-1.8114961385726929 2.5796639919281006 0.4888399541378021 4657508 0 -1
-1.7724412679672241 2.6266298294067383 0.366629958152771 4724328 0 -1
-1.8281680345535278 2.501767158508301 0.7577019333839417 4017546 0 -1
-1.8048127889633179 2.469806432723999 0.90435391664505 3887499 0 -1
-1.7331982851028442 2.568474531173706 0.7577019333839417 3887499 0 -1
-1.7499300241470337 2.5421080589294434 0.8065859079360962 3238030 0 -1
-1.7665892839431763 2.5663089752197266 0.6843759417533875 3107982 0 -1
-1.7534936666488647 2.5472848415374756 0.7821439504623413 2912910 0 -1
-1.718903660774231 2.547290802001953 0.8554699420928955 2782862 0 -1
-1.8259111642837524 2.548938751220703 0.5866079330444336 2328718 0 -1
-1.6640335321426392 2.6714937686920166 0.6913593411445618 4456788 0 -1
-1.7604992389678955 2.6089327335357666 0.6913593411445618 4456788 0 -1
-1.9469528198242188 2.5601212978363037 0.19753125309944153 4456788 0 -1
-1.7468515634536743 2.6941797733306885 0.2716054618358612 4456788 0 -1
-1.772554636001587 2.6797292232513428 0.2469140589237213 4456788 0 -1
-1.7567814588546753 2.655883550643921 0.4938281178474426 4456788 0 -1
-1.7871150970458984 2.6483752727508545 0.41975390911102295 4456788 0 -1
-1.7871150970458984 2.6483752727508545 0.41975390911102295 4456788 0 -1
-1.8115960359573364 2.6316897869110107 0.41975390911102295 4456788 0 -1
-1.8378856182098389 2.617244243621826 0.39506250619888306 4456788 0 -1
-1.829980731010437 2.605987310409546 0.4938281178474426 4657508 0 -1
-1.7953240871429443 2.5566344261169434 0.7901250123977661 4600703 0 -1
-1.831591010093689 2.506451368331909 0.8641992211341858 4536450 0 -1
-1.8022639751434326 2.5665171146392822 0.7407422065734863 4341894 0 -1
-1.843199372291565 2.522336959838867 0.7901250123977661 4017546 0 -1
-1.8274730443954468 2.5008161067962646 0.8888906240463257 3887499 0 -1
-1.7748686075210571 2.578336238861084 0.7654336094856262 3757452 0 -1
-1.8749397993087769 2.4654288291931152 0.8888906240463257 3692940 0 -1
-1.7782338857650757 2.5832247734069824 0.7407422065734863 3692940 0 -1
-1.8078042268753052 2.5236618518829346 0.8641992211341858 3238030 0 -1
-1.8078042268753052 2.5236618518829346 0.8641992211341858 2912910 0 -1
-1.9451550245285034 2.609326124191284 0.04988162964582443 4456788 0 -1
-1.7665820121765137 2.7246103286743164 0.22446732223033905 4456788 0 -1
-1.8757221698760986 2.566843032836914 0.6983428001403809 4456788 0 -1
2.8654842376708984 1.4772124290466309 -0.4489346444606781 4456788 0 -1
-1.7676316499710083 2.6722867488861084 0.5736387372016907 4456788 0 -1
-1.8927732706069946 2.642277240753174 0.17458570003509521 4456788 0 -1
-1.8526839017868042 2.638317584991455 0.4489346444606781 4456788 0 -1
-1.821959137916565 2.543421983718872 0.8978692889213562 4536450 0 -1
-1.8134586811065674 2.582458972930908 0.7981060743331909 4341894 0 -1
-1.8580337762832642 2.5426371097564697 0.823046863079071 4017546 0 -1
-1.8300459384918213 2.554710865020752 0.847987711429596 3887499 0 -1
-1.7979860305786133 2.560425043106079 0.8978692889213562 3757452 0 -1
-1.8782050609588623 2.5195162296295166 0.847987711429596 3692940 0 -1
-1.8059663772583008 2.571789503097534 0.847987711429596 3692940 0 -1
-1.8260648250579834 2.5491533279418945 0.8729285001754761 3238030 0 -1
-1.8260648250579834 2.5491533279418945 0.8729285001754761 2912910 0 -1
-1.9852899312973022 2.610532283782959 -0.22671200335025787 4456788 0 -1
-1.8093781471252441 2.735398530960083 0.22671200335025787 4456788 0 -1
-1.959060788154602 2.6279799938201904 0.2519022226333618 4456788 0 -1
-1.8627078533172607 2.705939531326294 0.1259511113166809 4456788 0 -1
-2.0142710208892822 2.596191883087158 0.10076089203357697 4456788 0 -1
2.9500229358673096 1.393762230873108 -0.40304356813430786 4456788 0 -1
2.9221444129943848 1.4440706968307495 -0.4282337725162506 4456788 0 -1
-1.91395103931427 2.6718409061431885 0.07557066529989243 4456788 0 -1
-1.9829461574554443 2.607450246810913 0.27709245681762695 4456788 0 -1
-1.9829461574554443 2.607450246810913 0.27709245681762695 4456788 0 -1
-1.8886045217514038 2.5334665775299072 0.9068480134010315 4017546 0 -1
-1.8886045217514038 2.5334665775299072 0.9068480134010315 3887499 0 -1
-1.8911534547805786 2.5879600048065186 0.7305164337158203 2718350 0 -1
-1.896962285041809 2.7013723850250244 -0.35615482926368713 4456788 0 -1
-1.8225435018539429 2.7553017139434814 -0.33071520924568176 4456788 0 -1
-1.6535760164260864 2.878960132598877 0 4456788 0 -1
-1.1447497606277466 3.1163482666015625 -0.025439631193876266 4456788 0 -1
-1.9011828899383545 2.7073826789855957 -0.27983593940734863 4456788 0 -1
-1.8917157649993896 2.6939010620117188 -0.43247371912002563 4590430 0 -1
-1.796912431716919 2.8274588584899902 -0.12844519317150116 4456788 0 -1
-1.7846673727035522 2.8081912994384766 -0.41102463006973267 4456788 0 -1
-1.7892889976501465 2.8154633045196533 -0.3339574933052063 4456788 0 -1
-2.0106608867645264 2.591538667678833 -0.693604052066803 4456788 0 -1
-1.791833758354187 2.819467544555664 -0.2825794219970703 4456788 0 -1
-1.915560007095337 2.727856397628784 -0.3596465289592743 4456788 0 -1
-2.6095597743988037 1.8223001956939697 -1.0532505512237549 4456788 0 -1
-1.926925539970398 2.689953088760376 -0.539469838142395 4456788 0 -1
-1.89646315574646 2.7549755573272705 -0.23120135068893433 4456788 0 -1
-2.659627914428711 1.9102128744125366 -0.7192930579185486 4456788 0 -1
-1.8929357528686523 2.7498512268066406 -0.3082684576511383 4456788 0 -1
-1.669738531112671 2.907099962234497 -0.02568903937935829 4456788 0 -1
-1.1557012796401978 3.1461615562438965 -0.07706711441278458 4456788 0 -1
-1.890019178390503 2.745614528656006 -0.3596465289592743 4456788 0 -1
-1.8929357528686523 2.7498512268066406 -0.3082684576511383 4456788 0 -1
-1.9695717096328735 2.6420798301696777 -0.6165369153022766 4456788 0 -1
-1.8762168884277344 2.7255640029907227 -0.539469838142395 4456788 0 -1
-1.864478349685669 2.7630221843719482 -0.3596465289592743 4456788 0 -1
-1.846948266029358 2.792196750640869 -0.17982326447963715 4456788 0 -1
-1.821993112564087 2.8100712299346924 -0.15413422882556915 4523353 0 -1
-1.926925539970398 2.689953088760376 -0.539469838142395 4657508 0 -1
-1.9425768852233887 2.605867862701416 0.8220492601394653 4536450 0 -1
-1.8019942045211792 2.8354551792144775 -0.41501516103744507 4456788 0 -1
-1.803658366203308 2.83807373046875 -0.38907670974731445 4456788 0 -1
-1.8092302083969116 2.8468410968780518 -0.285322904586792 4456788 0 -1
-1.9098985195159912 2.7744929790496826 -0.3371998071670532 4456788 0 -1
-1.913801908493042 2.780163526535034 -0.2593844532966614 4456788 0 -1
-1.9341576099395752 2.754340410232544 -0.36313825845718384 4456788 0 -1
-1.9098985195159912 2.7744929790496826 -0.3371998071670532 4456788 0 -1
-1.9098985195159912 2.7744929790496826 -0.3371998071670532 4456788 0 -1
-1.8944326639175415 2.752025842666626 -0.5447073578834534 4456788 0 -1
-2.875023126602173 1.7777801752090454 0.18156912922859192 4456788 0 -1
-1.8825801610946655 2.7898476123809814 -0.36313825845718384 4456788 0 -1
-1.8631219863891602 2.816648006439209 -0.23344601690769196 4456788 0 -1
-1.864879846572876 2.819305419921875 -0.18156912922859192 4523353 0 -1
-2.8669705390930176 1.7728009223937988 0.3112613558769226 4590430 0 -1
-1.9655263423919678 2.7438390254974365 -0.2593844532966614 4590430 0 -1
-1.8220082521438599 2.8100945949554443 -0.4928304851055145 4590430 0 -1
-1.950318694114685 2.722609519958496 -0.4928304851055145 4657508 0 -1
-1.8367552757263184 2.6156344413757324 -1.1153532266616821 4724328 0 -1
-2.8341028690338135 1.7524769306182861 0.5965842604637146 4536450 0 -1
-1.8612453937530518 2.598264694213867 1.1153532266616821 4017546 0 -1
-1.7660664319992065 2.7238152027130127 0.9597225189208984 4017546 0 -1
-1.8193211555480957 2.8627192974090576 -0.41900569200515747 4456788 0 -1
-1.8193211555480957 2.8627192974090576 -0.41900569200515747 4456788 0 -1
-2.7445363998413086 1.6970932483673096 -1.1260777711868286 4456788 0 -1
-1.8253841400146484 2.8722593784332275 -0.3142542541027069 4456788 0 -1
-2.7740230560302734 1.7153264284133911 -1.0213263034820557 4456788 0 -1
-1.8538713455200195 2.8592371940612793 -0.2618785500526428 4456788 0 -1
-1.9250584840774536 2.796515703201294 -0.39281782507896423 4456788 0 -1
-1.9071621894836426 2.8262765407562256 -0.23569069802761078 4456788 0 -1
-1.98490309715271 2.716252088546753 -0.602320671081543 4456788 0 -1
-1.9310053586959839 2.80515456199646 -0.28806641697883606 4456788 0 -1
-1.9282629489898682 2.801170825958252 -0.34044212102890015 4456788 0 -1
-1.917254090309143 2.7851781845092773 -0.4975692331790924 4456788 0 -1
-2.90266752243042 1.7948741912841797 0.1833149790763855 4456788 0 -1
-2.8999314308166504 1.793182373046875 0.23569069802761078 4456788 0 -1
-1.9006818532943726 2.8166730403900146 -0.366629958152771 4456788 0 -1
-1.881036639213562 2.843731164932251 -0.23569069802761078 4456788 0 -1
-2.87524676322937 1.8356800079345703 0.20950284600257874 4523353 0 -1
-1.8819797039031982 2.8451569080352783 -0.20950284600257874 4523353 0 -1
-1.9635701179504395 2.7962253093719482 0.07856356352567673 4726897 0 -1
-1.9881725311279297 2.7754526138305664 0.15712712705135345 4728182 0 -1
-1.8989512920379639 2.870814323425293 -0.2379353642463684 4456788 0 -1
-2.9589169025421143 2.3617074489593506 0.6474635601043701 4456788 0 -1
-2.903228282928467 2.3757684230804443 -0.8240445256233215 4456788 0 -1
-2.8981313705444336 2.3715975284576416 -0.8534746766090393 4456788 0 -1
-2.8791697025299072 2.4730522632598877 -0.5886031985282898 4523353 0 -1
-2.9407765865325928 2.4064950942993164 0.559173047542572 4590430 0 -1
-2.965369701385498 2.4266200065612793 0.2648714482784271 4657508 0 -1
-2.9954357147216797 2.451223611831665 0.14839784801006317 4456788 0 -1
-2.986969470977783 2.444295644760132 0.32647526264190674 4456788 0 -1
-3.0250933170318604 2.414527177810669 0.14839784801006317 4456788 0 -1
-2.983992338180542 2.3817217350006104 0.6529505252838135 4456788 0 -1
-3.0015223026275635 2.3957135677337646 0.5045526623725891 4456788 0 -1
-3.0098469257354736 2.402358055114746 0.4155139625072479 4456788 0 -1
-3.007253646850586 2.4002881050109863 0.4451935291290283 4456788 0 -1
-2.9803385734558105 2.4388694763183594 0.4155139625072479 4456788 0 -1
-3.004478931427002 2.398073434829712 0.4748730957508087 4590430 0 -1
-2.9919991493225098 2.448411464691162 0.23743654787540436 4657508 0 -1
-2.860659122467041 2.340933322906494 1.1575031280517578 4725613 0 -1
-3.020108938217163 2.410548686981201 0.26711612939834595 2588302 0 -1
-3.0220279693603516 2.472984552383423 0.08978693187236786 4456788 0 -1
-3.018475294113159 2.4700775146484375 0.20950284600257874 4456788 0 -1
-3.0171420574188232 2.4689862728118896 0.23943181335926056 4456788 0 -1
-3.0196304321289062 2.471022605895996 0.17957386374473572 4456788 0 -1
-3.009068012237549 2.401736259460449 0.6584374904632568 4456788 0 -1
-3.026745319366455 2.4158456325531006 0.5087926387786865 4456788 0 -1
-3.035139799118042 2.422545909881592 0.41900569200515747 4456788 0 -1
-3.029726505279541 2.4182252883911133 0.4788636267185211 4456788 0 -1
-3.000023365020752 2.4549779891967773 0.4788636267185211 4456788 0 -1
-2.970320224761963 2.4908342361450195 0.4788636267185211 4523353 0 -1
-3.035139799118042 2.422545909881592 0.41900569200515747 4590430 0 -1
-3.018475294113159 2.4700775146484375 0.20950284600257874 4724328 0 -1
-3.012974977493286 2.4048547744750977 0.6285085082054138 4725613 0 -1
-3.1454410552978516 2.259136438369751 0.5087926387786865 2718350 0 -1
-3.0375723838806152 2.424487590789795 0.38907670974731445 2718350 0 -1
-3.0375723838806152 2.424487590789795 0.38907670974731445 2718350 0 -1
-3.043780565261841 2.429442882537842 0.2992897629737854 2588302 0 -1
-3.0121631622314453 2.5259225368499756 0.24142707884311676 4456788 0 -1
-3.0328571796417236 2.481846570968628 0.392318993806839 4456788 0 -1
-3.054974317550659 2.4383771419525146 0.4828541576862335 4456788 0 -1
-3.0604326725006104 2.4427337646484375 0.42249739170074463 4456788 0 -1
-3.054974317550659 2.4383771419525146 0.4828541576862335 4456788 0 -1
-3.0220468044281006 2.4730000495910645 0.5130325555801392 4456788 0 -1
-2.9921257495880127 2.5091195106506348 0.5130325555801392 4523353 0 -1
-3.0628855228424072 2.4446916580200195 0.392318993806839 4590430 0 -1
-3.0328571796417236 2.481846570968628 0.392318993806839 4657508 0 -1
-3.057795524597168 2.440629005432129 0.45267578959465027 4725613 0 -1
-3.1611223220825195 2.2703988552093506 0.6035677194595337 2718350 0 -1
-2.971898317337036 2.3720686435699463 1.0260651111602783 2199437 0 -1
-3.0622713565826416 2.5059165954589844 0.33470574021339417 4456788 0 -1
-2.896836519241333 2.607457160949707 0.7606948614120483 4456788 0 -1
-2.8154444694519043 2.7115767002105713 0.6998392343521118 4456788 0 -1
-2.4139962196350098 2.9888999462127686 1.0041171312332153 4456788 0 -1
-3.0669736862182617 2.4479546546936035 0.6085558533668518 4456788 0 -1
-2.896836519241333 2.607457160949707 0.7606948614120483 4456788 0 -1
-2.9011590480804443 2.6113476753234863 0.7302670478820801 4456788 0 -1
-2.909257411956787 2.6186370849609375 0.6694114804267883 4456788 0 -1
-2.905299186706543 2.6150741577148438 0.6998392343521118 4456788 0 -1
-3.190319299697876 2.354919910430908 0.2129945456981659 4456788 0 -1
-3.0331599712371826 2.4820940494537354 0.6389836668968201 4456788 0 -1
-2.8712501525878906 2.644197940826416 0.7302670478820801 4456788 0 -1
-2.87534761428833 2.6479713916778564 0.6998392343521118 4523353 0 -1
-3.0857253074645996 2.462921619415283 0.4259890913963318 4590430 0 -1
-2.9011590480804443 2.6113476753234863 0.7302670478820801 4590430 0 -1
-2.503406524658203 2.8574776649475098 1.1562561988830566 4726897 0 -1
-2.9292306900024414 2.63661527633667 0.4868446886539459 4728182 0 -1
-3.6398544311523438 1.6389240026474 0.30677202343940735 4456788 0 -1
-2.9321670532226562 2.5185742378234863 1.0430248975753784 4456788 0 -1
-2.9321670532226562 2.5185742378234863 1.0430248975753784 4456788 0 -1
-2.914590835571289 2.5632410049438477 0.9816704392433167 4456788 0 -1
-2.974334716796875 2.6157829761505127 -0.5828668475151062 4456788 0 -1
-2.8761019706726074 2.5293920040130615 1.1657336950302124 4456788 0 -1
-3.27628755569458 2.2878878116607666 -0.24541760981082916 4456788 0 -1
-3.115818977355957 2.486941337585449 -0.36812642216682434 4456788 0 -1
-2.8464276790618896 2.5032949447631836 1.2884424924850464 4456788 0 -1
-2.84930682182312 2.623990058898926 1.01234769821167 4523353 0 -1
-2.925788402557373 2.5130951404571533 1.073702096939087 4590430 0 -1
-2.490922689437866 2.843228340148926 1.3191196918487549 4726897 0 -1
-3.205247402191162 2.302090883255005 0.6748984456062317 4728182 0 -1
-2.9136340618133545 2.68323016166687 0.5828668475151062 4728182 0 -1
-2.526930809020996 2.8254659175872803 1.2884424924850464 4728182 0 -1
-2.3435122966766357 3.2715003490448 -0.3092660903930664 4456788 0 -1
-2.8947269916534424 2.665818214416504 -0.8968716859817505 4456788 0 -1
-2.9712109565734863 2.6744017601013184 -0.5566789507865906 4456788 0 -1
-2.350353240966797 3.281050443649292 0.03092660941183567 4590430 0 -1
-3.166024684906006 2.4001526832580566 0.7113119959831238 4657508 0 -1
-2.823896884918213 2.719717264175415 -0.9587249159812927 4657508 0 -1
-2.3504223823547363 3.281147003173828 0 4657508 0 -1
-3.222311496734619 2.3143465518951416 0.7422386407852173 4728182 0 -1
-3.0245556831359863 2.597931146621704 0.8105764389038086 4456788 0 -1
-2.552886724472046 2.9742825031280518 1.0911606550216675 4456788 0 -1
-2.4515414237976074 3.035386562347412 1.1535125970840454 4456788 0 -1
-2.3101398944854736 3.2249133586883545 0.9041045308113098 4456788 0 -1
-3.099611759185791 2.599254608154297 -0.43646425008773804 4456788 0 -1
-2.9297711849212646 2.821685791015625 0.09352805465459824 4456788 0 -1
-2.3960390090942383 3.2788734436035156 0.24940814077854156 4456788 0 -1
-3.2700204849243164 2.4137508869171143 -0.18705610930919647 4456788 0 -1
-2.3649215698242188 3.3013875484466553 0.24940814077854156 4523353 0 -1
-3.3342666625976562 2.3283755779266357 -0.12470407038927078 4590430 0 -1
-2.4004828929901123 3.284954786300659 0.031176017597317696 4590430 0 -1
-2.344974994659424 3.1456642150878906 1.1941661834716797 4456788 0 -1
-2.3715267181396484 3.1812820434570312 1.037039041519165 4456788 0 -1
-2.4591338634490967 3.0447874069213867 1.2255916595458984 4456788 0 -1
-2.3154239654541016 3.2322897911071777 1.0056136846542358 4456788 0 -1
-3.3600518703460693 2.346381664276123 -0.15712712705135345 4456788 0 -1
-3.203887462615967 2.557234525680542 -0.12570171058177948 4456788 0 -1
-2.9518213272094727 2.8429222106933594 0.15712712705135345 4456788 0 -1
-2.9518213272094727 2.8429222106933594 0.15712712705135345 4456788 0 -1
-2.5762040615081787 3.1897382736206055 -0.09427627921104431 4456788 0 -1
-2.348520040512085 3.344413995742798 -0.3456796705722809 4456788 0 -1
-2.446573495864868 3.2819535732269287 0.25140342116355896 4212104 0 -1
-2.446573495864868 3.2819535732269287 0.25140342116355896 4212104 0 -1
-2.3645083904266357 3.235725164413452 1.0135947465896606 4456788 0 -1
-2.3691565990448 3.2420859336853027 0.9819198250770569 4456788 0 -1
-2.4047420024871826 3.35697603225708 -0.19004900753498077 4456788 0 -1
-3.3539822101593018 2.4089159965515137 -0.19004900753498077 4456788 0 -1
-2.467080593109131 3.309462547302246 -0.22172383964061737 4456788 0 -1
-3.3098902702331543 2.843018054962158 1.0669680833816528 4456788 0 -1
-3.332298994064331 2.9994189739227295 -0.275346577167511 4523353 0 -1
-3.327333927154541 2.858001232147217 1.1093673706054688 4456788 0 -1
-3.280116558074951 2.8847033977508545 1.1787028312683105 4523353 0 -1
-3.3037145137786865 2.90545654296875 1.1871827840805054 4523353 0 -1
1.9659007787704468 4.739748477935791 -0.6741502285003662 2070922 0 -1
2.037748336791992 4.690736293792725 -0.793117880821228 2006409 0 -1
2.003121852874756 4.71830940246582 -0.7138060927391052 2072968 0 -1
2.0009026527404785 4.713082313537598 -0.753462016582489 4045940 0 -1
2.1209523677825928 4.666530132293701 -0.7138060927391052 8180304 0 -1
2.1209523677825928 4.666530132293701 -0.7138060927391052 12640037 0 -1
2.1231727600097656 4.671414852142334 -0.6741502285003662 13164576 0 -1
2.0157201290130615 4.747984409332275 -0.7182954549789429 2523534 0 -1
2.0157201290130615 4.747984409332275 -0.7182954549789429 2070922 0 -1
2.052967071533203 4.725768566131592 -0.7582007646560669 2006409 0 -1
2.055243968963623 4.7310099601745605 -0.7182954549789429 2072968 0 -1
2.0573954582214355 4.735962390899658 -0.6783901453018188 4045940 0 -1
2.1386306285858154 4.705425262451172 -0.6384848356246948 6343264 0 -1
2.136526107788086 4.7007951736450195 -0.6783901453018188 6933851 0 -1
2.1386306285858154 4.705425262451172 -0.6384848356246948 8180304 0 -1
2.1406056880950928 4.709770679473877 -0.5985795259475708 8705099 0 -1
2.178234815597534 4.687222957611084 -0.6384848356246948 10016830 0 -1
2.180246353149414 4.691551685333252 -0.5985795259475708 13164576 0 -1
2.0304415225982666 4.782660961151123 -0.6826300621032715 2070922 0 -1
2.065798044204712 4.75530481338501 -0.7629395127296448 2006409 0 -1
2.068089246749878 4.760578632354736 -0.7227848172187805 2072968 0 -1
2.072293519973755 4.770256519317627 -0.6424753665924072 4045940 0 -1
2.1498794555664062 4.730175018310547 -0.6826300621032715 6343264 0 -1
2.1896920204162598 4.711877346038818 -0.6826300621032715 8180304 0 -1
2.1519970893859863 4.73483419418335 -0.6424753665924072 8705099 0 -1
2.1896920204162598 4.711877346038818 -0.6826300621032715 10016830 0 -1
2.2295045852661133 4.693170070648193 -0.6826300621032715 10672695 0 -1
2.2295045852661133 4.693170070648193 -0.6826300621032715 11918891 0 -1
-4.37833309173584 2.5298309326171875 -1.4949524402618408 4456788 0 -1
-4.609094142913818 2.2777304649353027 1.1717194318771362 4725613 0 -1
-4.609094142913818 2.2777304649353027 1.1717194318771362 4725613 0 -1
1.7758461236953735 4.83437967300415 -1.1313153505325317 4725613 0 -1
2.379351854324341 4.595987796783447 1.0101029872894287 4725613 6 -1
2.5511012077331543 4.4415974617004395 -1.2525277137756348 2072968 0 -1
2.5851802825927734 4.594222545623779 0.12121235579252243 3651704 6 -1
2.1815662384033203 4.799892425537109 0.08080823719501495 4045940 0 -1
2.578261375427246 4.581926345825195 0.40404120087623596 4045940 6 -1
2.2385237216949463 4.712155818939209 -0.7676782608032227 10016830 0 -1
2.32104229927063 4.678521633148193 -0.7272741198539734 10672695 0 -1
2.327908515930176 4.692361831665039 -0.6060617566108704 11197490 0 -1
2.3317835330963135 4.7001729011535645 -0.5252535343170166 11918891 6 -1
2.3400654792785645 4.716866493225098 -0.28282883763313293 12640037 6 -1
2.34096097946167 4.718671798706055 -0.24242471158504486 13164576 6 -1
2.8454127311706543 4.477283954620361 -0.081307053565979 4456788 6 -1
2.804352045059204 4.502198696136475 0.1219605803489685 4456788 6 -1
-3.3662097454071045 4.084583282470703 -0.3658817410469055 4456788 0 -1
-4.592634677886963 2.653655767440796 0.1219605803489685 4456788 0 -1
-3.4473230838775635 4.016360282897949 -0.3658817410469055 4523353 0 -1
-3.290518045425415 4.156949520111084 -0.2032676339149475 4657508 0 -1
2.84566330909729 4.477678298950195 0.0406535267829895 4657508 6 -1
2.7225067615509033 4.550887107849121 0.162614107131958 4725613 6 -1
2.8021273612976074 4.498626708984375 0.243921160697937 4536450 6 -1
2.7225067615509033 4.550887107849121 0.162614107131958 4471684 6 -1
2.7624101638793945 4.52513313293457 0.2032676339149475 3562893 6 -1
2.7209062576293945 4.548211574554443 0.243921160697937 2782862 6 -1
2.637509822845459 4.592039585113525 0.325228214263916 2458766 6 -1
2.5563557147979736 4.637707233428955 0.325228214263916 2070922 6 -1
2.760460376739502 4.521938800811768 0.2845746874809265 2070922 6 -1
2.637509822845459 4.592039585113525 0.325228214263916 2072968 6 -1
2.5584640502929688 4.6415324211120605 0.243921160697937 3257723 6 -1
2.4780445098876953 4.6869001388549805 0.2032676339149475 5949540 6 -1
2.4787001609802246 4.688140392303467 0.162614107131958 8705099 6 -1
2.3982763290405273 4.7318830490112305 -0.081307053565979 11197490 6 -1
2.3985581398010254 4.732438564300537 0 11918891 6 -1
2.3984875679016113 4.7322998046875 0.0406535267829895 12640037 6 -1
-3.3913538455963135 4.115093231201172 -0.24541760981082916 4456788 0 -1
-4.62148904800415 2.670328140258789 0.08180586993694305 4456788 0 -1
-3.4717447757720947 4.04481315612793 -0.2863205373287201 4523353 0 -1
2.7806646823883057 4.555035591125488 0.12270880490541458 4725613 6 -1
2.779357433319092 4.552894592285156 0.20451468229293823 3562893 6 -1
2.777395725250244 4.549681186676025 0.2863205373287201 2782862 6 -1
2.653690814971924 4.620211601257324 0.3272234797477722 2458766 6 -1
2.8219711780548096 4.530484676361084 0.08180586993694305 2458766 6 -1
2.5707502365112305 4.663821220397949 0.36812642216682434 2468738 6 -1
2.452374219894409 4.737039089202881 0.20451468229293823 3257723 6 -1
2.616558074951172 4.649984836578369 0.1636117398738861 3257723 6 -1
2.491487503051758 4.7123260498046875 0.2863205373287201 5424489 6 -1
2.4530231952667236 4.738292217254639 0.1636117398738861 5949540 6 -1
2.4939067363739014 4.716901779174805 0.1636117398738861 8705099 6 -1
2.5768091678619385 4.674813747406006 -0.04090293496847153 10672695 6 -1
-3.4107277393341064 4.138601779937744 -0.28806641697883606 4456788 0 -1
-4.6496686935424805 2.686610460281372 0.0823046863079071 4456788 0 -1
-3.4929139614105225 4.06947660446167 -0.28806641697883606 4523353 0 -1
2.7983593940734863 4.58402156829834 0 4725613 6 -1
2.7943310737609863 4.577423095703125 0.28806641697883606 2782862 6 -1
2.6720738410949707 4.652216911315918 0.2469140589237213 2006409 6 -1
2.5888655185699463 4.696686267852783 0.28806641697883606 2468738 6 -1
2.715735673904419 4.632718086242676 0.0823046863079071 2666112 6 -1
2.507638692855835 4.742873668670654 0.2469140589237213 4505456 6 -1
2.550246477127075 4.723686695098877 0.1646093726158142 4899181 6 -1
2.5922932624816895 4.70290470123291 0.0823046863079071 6933851 6 -1
2.5925214290618896 4.703319072723389 -0.04115234315395355 10672695 6 -1
2.6741955280303955 4.655910968780518 -0.12345702946186066 11918891 6 -1
2.897782325744629 4.559688091278076 -0.08280350267887115 4456788 6 -1
2.8145751953125 4.610584735870361 -0.12420525401830673 4456788 6 -1
-3.850249767303467 3.790595769882202 -0.04140175133943558 4456788 0 -1
-4.677161693572998 2.702496290206909 0.12420525401830673 4456788 0 -1
-3.9744515419006348 3.660160541534424 0.04140175133943558 4456788 0 -1
-3.7869815826416016 3.8101916313171387 0.5796245336532593 4456788 0 -1
-3.930278778076172 3.702000856399536 -0.20700876414775848 4523353 0 -1
-3.4546995162963867 4.107813358306885 -0.6210262775421143 4523353 0 -1
2.6055524349212646 4.726959228515625 0.24841050803661346 2523534 6 -1
2.6021008491516113 4.720697402954102 0.3726157546043396 2070922 6 -1
2.64589786529541 4.7021260261535645 0.28981226682662964 2271109 6 -1
2.6447291374206543 4.700048923492432 0.3312140107154846 2468738 6 -1
2.6477668285369873 4.705447196960449 0.20700876414775848 2994813 6 -1
2.6477668285369873 4.705447196960449 0.20700876414775848 2994813 6 -1
2.3681352138519287 4.672413349151611 -1.3248560428619385 4899181 0 -1
2.566833257675171 4.754409313201904 0.04140175133943558 4899181 6 -1
2.732194662094116 4.660794734954834 0.08280350267887115 5424489 6 -1
2.64963436126709 4.708765983581543 0.04140175133943558 6933851 6 -1
2.6494009494781494 4.708351135253906 -0.08280350267887115 11197490 6 -1
2.6910347938537598 4.6852288246154785 -0.04140175133943558 11918891 6 -1
2.9154956340789795 4.587560176849365 -0.0416511595249176 4456788 6 -1
2.8718199729919434 4.610513687133789 -0.208255797624588 4456788 6 -1
-4.704370021820068 2.718217134475708 0.1666046380996704 4456788 0 -1
-3.9558145999908447 3.726053476333618 -0.12495347857475281 4456788 0 -1
-3.9558145999908447 3.726053476333618 -0.12495347857475281 4456788 0 -1
-3.952676296234131 3.723097562789917 -0.24990695714950562 4523353 0 -1
2.7469582557678223 4.685979843139648 0.208255797624588 3238030 6 -1
2.788578987121582 4.661331653594971 0.208255797624588 2718350 6 -1
2.7893166542053223 4.662565231323242 0.1666046380996704 2070155 6 -1
2.6177761554718018 4.749135494232178 0.3748604357242584 2070922 6 -1
2.6177761554718018 4.749135494232178 0.3748604357242584 2070922 6 -1
2.703428268432617 4.706806659698486 0.2915581166744232 2072968 6 -1
2.621248483657837 4.755434989929199 0.24990695714950562 2271109 6 -1
2.621248483657837 4.755434989929199 0.24990695714950562 2271109 6 -1
2.659327983856201 4.7259931564331055 0.3748604357242584 2468738 6 -1
2.662855625152588 4.732262134552002 0.24990695714950562 2994813 6 -1
2.662855625152588 4.732262134552002 0.24990695714950562 2994813 6 -1
2.747684955596924 4.687219619750977 0.1666046380996704 5424489 6 -1
