VERSION .7
FIELDS x y z rgb label object
SIZE 4 4 4 4 4 4
TYPE F F F I I I
COUNT 1 1 1 1 1 1
WIDTH 687
HEIGHT 1
POINTS 687
VIEWPOINT 0 0 0 1 0 0 0
DATA ascii
-2.9474875926971436 1.8225888013839722 0.3469267189502716 4456788 0 -1
-2.976245403289795 1.780247688293457 0.3202400505542755 4456788 0 -1
-2.9503519535064697 1.7047336101531982 -0.7205401062965393 4456788 0 -1
-2.856922149658203 1.8239808082580566 -0.8006001114845276 4590430 0 -1
-2.96004581451416 1.8303542137145996 -0.13343335688114166 4657508 0 -1
-2.949671745300293 1.823939323425293 -0.3202400505542755 4728182 0 -1
-3.1142945289611816 1.5390276908874512 -0.5387215614318848 4456788 0 -1
-2.938912868499756 1.8172866106033325 -0.6464658975601196 4456788 0 -1
-3.0445497035980225 1.6966702938079834 -0.457913339138031 4456788 0 -1
-3.1113486289978027 1.6039601564407349 -0.3232329487800598 4456788 0 -1
-2.9205660820007324 1.8646137714385986 -0.5925937294960022 4456788 0 -1
-2.988008499145508 1.7872838973999023 -0.4848494231700897 4456788 0 -1
-3.0146870613098145 1.741907000541687 -0.4848494231700897 4456788 0 -1
-3.0797741413116455 1.6524044275283813 -0.37710511684417725 4590430 0 -1
-3.1065547466278076 1.6014889478683472 -0.37710511684417725 4657508 0 -1
-3.0812618732452393 1.7171293497085571 -0.3805968165397644 4456788 0 -1
-3.1378321647644043 1.6176130771636963 -0.35341134667396545 4456788 0 -1
-2.9755306243896484 1.899705410003662 -0.35341134667396545 4456788 0 -1
-3.0318760871887207 1.813523292541504 -0.3262258470058441 4456788 0 -1
-3.001788377761841 2.395925760269165 -0.02943016029894352 4456788 0 -1
-2.9116599559783936 2.441643238067627 -0.559173047542572 4456788 0 -1
-2.88737154006958 2.362792730331421 -0.9123349785804749 4523353 0 -1
-3.056905746459961 2.378571033477783 0.029679568484425545 4456788 0 -1
-3.0241150856018066 2.4137463569641113 0.17807741463184357 4456788 0 -1
-2.917339324951172 2.4464056491851807 0.7123096585273743 4456788 0 -1
-3.05475115776062 2.376894474029541 0.14839784801006317 4456788 0 -1
-2.955383777618408 2.478308916091919 0.35615482926368713 4456788 0 -1
-2.9803385734558105 2.4388694763183594 0.4155139625072479 4456788 0 -1
-3.007253646850586 2.4002881050109863 0.4451935291290283 4523353 0 -1
-3.020108938217163 2.410548686981201 0.26711612939834595 4590430 0 -1
-2.8793771266937256 2.4732303619384766 0.7716687917709351 4657508 0 -1
-3.0095043182373047 2.2814950942993164 0.8607075214385986 4341894 0 -1
-3.0241150856018066 2.4137463569641113 0.17807741463184357 2782862 0 -1
-3.1126136779785156 2.359661817550659 0 4456788 0 -1
-3.0782470703125 2.395176649093628 0.20950284600257874 4456788 0 -1
-2.9575445652008057 2.480120897293091 0.5985795259475708 4456788 0 -1
-3.026745319366455 2.4158456325531006 0.5087926387786865 4456788 0 -1
-3.075345754623413 2.392918825149536 0.2693607807159424 4456788 0 -1
-2.812695264816284 2.4736289978027344 -1.1073721647262573 4456788 0 -1
-2.9756271839141846 2.4952845573425293 0.41900569200515747 4456788 0 -1
-3.0053834915161133 2.459364175796509 0.41900569200515747 4456788 0 -1
-3.032524585723877 2.4204585552215576 0.4489346444606781 4523353 0 -1
-3.039823293685913 2.426284074783325 0.35914772748947144 4590430 0 -1
-3.1015374660491943 2.3512649536132812 0.3292187452316284 4657508 0 -1
-2.952425241470337 2.5359747409820557 0.3292187452316284 4657508 0 -1
-3.1125221252441406 2.3595924377441406 0.02992897666990757 4724328 0 -1
-3.10520339012146 2.354044198989868 0.2693607807159424 4726897 0 -1
-3.0549705028533936 2.315962791442871 0.7482244372367859 4341894 0 -1
-2.9504168033599854 2.534249782562256 0.35914772748947144 2912910 0 -1
-3.106760025024414 2.355224370956421 0.23943181335926056 2782862 0 -1
-3.138551950454712 2.3793256282806396 0 4456788 0 -1
-3.1384599208831787 2.379255771636963 -0.030178384855389595 4456788 0 -1
-3.1352334022521973 2.37680983543396 0.18107031285762787 4456788 0 -1
-3.1417319774627686 2.3190553188323975 0.5130325555801392 4456788 0 -1
-2.9978389739990234 2.5139105319976807 0.45267578959465027 4456788 0 -1
-3.0278172492980957 2.47772216796875 0.45267578959465027 4456788 0 -1
-3.092913866043091 2.4065887928009033 0.392318993806839 4456788 0 -1
-2.9704198837280273 2.551431179046631 0.42249739170074463 4456788 0 -1
-3.0004241466522217 2.516078472137451 0.42249739170074463 4456788 0 -1
-3.0328571796417236 2.481846570968628 0.392318993806839 4456788 0 -1
-3.057795524597168 2.440629005432129 0.45267578959465027 4523353 0 -1
-3.065155029296875 2.446503162384033 0.36214062571525574 4590430 0 -1
-3.1273837089538574 2.370858907699585 0.3319622278213501 4657508 0 -1
-2.9788765907287598 2.558695077896118 0.30178385972976685 4657508 0 -1
-3.1352334022521973 2.37680983543396 0.18107031285762787 4724328 0 -1
-3.1293249130249023 2.3723304271698 0.30178385972976685 4726897 0 -1
-3.1085565090179443 2.356586217880249 0.5432109236717224 4341894 0 -1
-3.161144495010376 2.3964529037475586 0.18256676197052002 4456788 0 -1
-2.9769492149353027 2.4963932037353516 0.8215504288673401 4456788 0 -1
-3.0622713565826416 2.5059165954589844 0.33470574021339417 4456788 0 -1
-3.0554730892181396 2.5003535747528076 0.4259890913963318 4456788 0 -1
-3.1184751987457275 2.4264779090881348 0.3955613076686859 4456788 0 -1
-3.0198254585266113 2.532348155975342 0.4868446886539459 4456788 0 -1
-3.057922124862671 2.5023577213287354 0.3955613076686859 4456788 0 -1
-3.090487003326416 2.466722249984741 0.36513352394104004 4456788 0 -1
-3.088198661804199 2.464895725250244 0.3955613076686859 4523353 0 -1
-3.092590808868408 2.4684014320373535 0.33470574021339417 4590430 0 -1
-3.1510848999023438 2.388826608657837 0.36513352394104004 4657508 0 -1
-2.7854928970336914 2.742335796356201 0.6998392343521118 4657508 0 -1
-3.1551871299743652 2.3919365406036377 0.3042779266834259 4724328 0 -1
-3.1510848999023438 2.388826608657837 0.36513352394104004 4726897 0 -1
-2.9166319370269775 2.625274896621704 0.6085558533668518 4726897 0 -1
-2.24326753616333 3.194528818130493 0.8896388411521912 4456788 0 -1
-3.244041919708252 2.329953908920288 0.27609482407569885 4456788 0 -1
-2.9312028884887695 2.577850580215454 0.8896388411521912 4456788 0 -1
-2.5767529010772705 2.881174087524414 -1.0430248975753784 4456788 0 -1
-2.307138442993164 3.157216787338257 0.8589616417884827 4456788 0 -1
-2.8464694023132324 2.6811411380767822 0.8589616417884827 4456788 0 -1
-2.24326753616333 3.194528818130493 0.8896388411521912 4456788 0 -1
-2.2305541038513184 3.176424503326416 0.9816704392433167 4456788 0 -1
-3.182833433151245 2.4128952026367188 0.27609482407569885 4523353 0 -1
-3.182833433151245 2.4128952026367188 0.27609482407569885 4523353 0 -1
-2.871382474899292 2.644319772720337 0.8896388411521912 4523353 0 -1
-2.871382474899292 2.644319772720337 0.8896388411521912 4523353 0 -1
-2.592529296875 2.8988144397735596 -0.9509932398796082 4523353 0 -1
-2.2260210514068604 3.169969081878662 1.01234769821167 4523353 0 -1
-2.860722064971924 2.634502410888672 0.9509932398796082 4590430 0 -1
-2.635988712310791 2.827080488204956 -1.0430248975753784 4590430 0 -1
-3.2187411785125732 2.37589955329895 0.15338601171970367 4657508 0 -1
-2.8733956813812256 2.7673897743225098 0.33744922280311584 4657508 0 -1
-3.86661434173584 0.9149290919303894 0.4908352196216583 4726897 0 -1
-2.56674861907959 2.9904325008392334 -0.7055756449699402 4726897 0 -1
-2.310192346572876 3.0990049839019775 1.0430248975753784 4726897 0 -1
-2.334845781326294 3.259402275085449 0.4638991355895996 4456788 0 -1
-3.025751829147339 2.5373175144195557 0.8350184559822083 4456788 0 -1
-2.1941771507263184 3.3840930461883545 -0.1546330451965332 4456788 0 -1
-2.350353240966797 3.281050443649292 -0.03092660941183567 4456788 0 -1
-2.350353240966797 3.281050443649292 0.03092660941183567 4456788 0 -1
-3.0098416805267334 2.5239758491516113 0.9277982711791992 4523353 0 -1
-2.2189934253692627 3.159961462020874 1.1752111911773682 4523353 0 -1
-2.3903439044952393 3.143152952194214 0.8350184559822083 4657508 0 -1
-2.3610591888427734 3.2310051918029785 -0.5257523655891418 4726897 0 -1
-2.3624114990234375 3.2978835105895996 0.31176018714904785 4456788 0 -1
-3.1250243186950684 2.5572686195373535 -0.49881628155708313 4456788 0 -1
-2.244080066680908 3.3925764560699463 -0.09352805465459824 4456788 0 -1
-3.395691156387329 2.235889434814453 -0.15588009357452393 4456788 0 -1
-3.2110354900360107 2.4984989166259766 0.031176017597317696 4456788 0 -1
-2.3690991401672363 3.3072192668914795 0.06235203519463539 4456788 0 -1
-2.36930775642395 3.3075106143951416 0.031176017597317696 4456788 0 -1
-3.2828304767608643 2.227069139480591 -0.9041045308113098 4590430 0 -1
-3.455883502960205 2.206383228302002 0.09427627921104431 4456788 0 -1
-3.285691261291504 2.4253182411193848 -0.37710511684417725 4456788 0 -1
-3.424466371536255 2.2548365592956543 0.09427627921104431 4523353 0 -1
-3.1326076984405518 2.563474416732788 -0.6599339246749878 4523353 0 -1
-3.387563467025757 2.2981200218200684 0.25140342116355896 4590430 0 -1
-3.4551727771759033 2.2059295177459717 0.12570171058177948 4657508 0 -1
-3.1989409923553467 2.361284017562866 1.0056136846542358 4724328 0 -1
-3.4825947284698486 2.2234368324279785 0.12669934332370758 4456788 0 -1
-3.357532501220703 2.411465644836426 0 4456788 0 -1
-3.224757194519043 2.573892116546631 0.25339868664741516 4456788 0 -1
-2.868363380432129 2.7625434398651123 1.108619213104248 4456788 0 -1
-3.3093161582946777 2.4427568912506104 -0.41177284717559814 4456788 0 -1
-3.448906183242798 2.2709288597106934 0.19004900753498077 4590430 0 -1
-3.1967833042144775 2.943988800048828 1.1358046531677246 4456788 0 -1
-3.243023633956909 2.9190618991851807 1.0669680833816528 4456788 0 -1
-3.3391096591949463 2.8681159019470215 0.8948764204978943 4523353 0 -1
-3.260115146636963 2.934445858001709 1.1093673706054688 4456788 0 -1
-3.3338749408721924 2.863619565963745 1.0746996402740479 4523353 0 -1
-3.377065896987915 4.0155029296875 -0.5252535343170166 4456788 0 -1
-4.367838382720947 2.5237669944763184 -1.5353565216064453 4456788 0 -1
-3.2778382301330566 4.058469772338867 -0.7676782608032227 4523353 0 -1
-3.3107054233551025 4.099164009094238 -0.20202060043811798 4657508 0 -1
-3.173506498336792 4.172962665557861 -0.5656576752662659 4657508 0 -1
-3.4554483890533447 4.025826930999756 -0.0406535267829895 4456788 0 -1
-3.4048566818237305 4.048547744750977 -0.406535267829895 4456788 0 -1
-4.593713760375977 2.6542794704437256 0.0406535267829895 4456788 0 -1
-3.526458740234375 3.9430794715881348 -0.406535267829895 4523353 0 -1
-3.301729679107666 4.088050842285156 -0.731763482093811 4523353 0 -1
-3.495792865753174 3.990222930908203 0.081307053565979 4657508 0 -1
-4.837885856628418 1.7158435583114624 1.3415664434432983 4724328 0 -1
-3.3114969730377197 4.100144386291504 -0.6098029017448425 4724328 0 -1
-1.8637518882751465 4.827911376953125 1.3088939189910889 4456788 0 -1
-3.326104164123535 3.8751323223114014 1.5543115139007568 4456788 0 -1
-3.413076639175415 4.058321475982666 -0.6135440468788147 4456788 0 -1
-3.432213544845581 4.081076145172119 0.24541760981082916 4456788 0 -1
-3.4763412475585938 4.050168514251709 -0.08180586993694305 4456788 0 -1
-3.3868613243103027 4.109642028808594 -0.36812642216682434 4456788 0 -1
-4.62148904800415 2.670328140258789 0.08180586993694305 4456788 0 -1
-3.5500833988189697 3.9694955348968506 -0.36812642216682434 4523353 0 -1
-3.32546329498291 4.11743688583374 -0.6953498721122742 4523353 0 -1
-3.5176525115966797 4.015174388885498 0 4657508 0 -1
-3.551863193511963 3.9714853763580322 -0.3272234797477722 4724328 0 -1
-3.3373589515686035 4.132165431976318 -0.5317381620407104 4724328 0 -1
-3.395934581756592 4.120651721954346 -0.5761328339576721 4456788 0 -1
-3.453141689300537 4.105960845947266 -0.2469140589237213 4456788 0 -1
-3.4056026935577393 4.132382869720459 -0.4115234315395355 4456788 0 -1
-4.646800518035889 2.684953451156616 0.20576171576976776 4456788 0 -1
-3.3490359783172607 4.146623611450195 -0.6584374904632568 4456788 0 -1
-3.5340070724487305 4.033842086791992 -0.28806641697883606 4523353 0 -1
-3.52410888671875 4.022543907165527 -0.4938281178474426 4590430 0 -1
-3.4975383281707764 4.074864387512207 -0.0823046863079071 4657508 0 -1
-3.5353593826293945 4.035385608673096 -0.2469140589237213 4724328 0 -1
-3.869307279586792 3.726560115814209 0.5796245336532593 4456788 0 -1
-3.8205950260162354 3.5986876487731934 1.2834542989730835 4456788 0 -1
-4.674962997436523 2.701225757598877 0.20700876414775848 4456788 0 -1
-3.847536087036133 3.78792405128479 0.20700876414775848 4456788 0 -1
-3.8366615772247314 3.7772178649902344 0.45541927218437195 4523353 0 -1
-3.51408314704895 4.09414005279541 -0.28981226682662964 4523353 0 -1
-3.824846029281616 3.765585422515869 0.6210262775421143 4590430 0 -1
-3.792949914932251 3.493011713027954 1.6146682500839233 4657508 0 -1
-3.8485538959503174 3.788926124572754 0.1656070053577423 4657508 0 -1
-4.064521789550781 3.574549674987793 -0.49981391429901123 4456788 0 -1
-3.765136957168579 3.870525360107422 -0.6247674226760864 4456788 0 -1
-3.912334442138672 3.7680001258850098 -0.208255797624588 4456788 0 -1
-4.523820877075195 2.978705644607544 0.45816275477409363 4456788 0 -1
-3.9152090549468994 3.770768642425537 0 4456788 0 -1
-3.8643360137939453 3.8044636249542236 -0.3748604357242584 4523353 0 -1
-3.9052979946136475 3.678471088409424 0.874674379825592 4590430 0 -1
-3.8717379570007324 3.811750888824463 -0.1666046380996704 4657508 0 -1
-4.034346580505371 3.631335496902466 -0.2915581166744232 4724328 0 -1
-1.9128862619400024 5.078769207000732 -0.670409083366394 4456788 4 -1
-1.9483447074890137 5.0470428466796875 -0.7961108088493347 4456788 4 -1
-4.061371326446533 3.655660390853882 -0.20950284600257874 4456788 0 -1
-3.9776315689086914 3.74660325050354 -0.20950284600257874 4456788 0 -1
-4.57429313659668 2.9204235076904297 -0.670409083366394 4456788 0 -1
-4.145110607147217 3.560427665710449 -0.20950284600257874 4523353 0 -1
-3.932983636856079 3.7878875732421875 -0.2933039665222168 4523353 0 -1
-3.8657126426696777 3.7230982780456543 -1.0475142002105713 4590430 0 -1
-3.8938918113708496 3.833561658859253 -0.20950284600257874 4657508 0 -1
-3.5577824115753174 4.145052433013916 0.25140342116355896 4657508 0 -1
-1.9726566076278687 5.110021114349365 -0.5057997107505798 4456788 4 -1
-1.9739993810653687 5.113499641418457 -0.4636497497558594 4456788 4 -1
-1.967920184135437 5.097751617431641 -0.632249653339386 4456788 4 -1
-1.967920184135437 5.097751617431641 -0.632249653339386 4456788 4 -1
-1.96211576461792 5.0827155113220215 -0.7586995959281921 4456788 4 -1
-1.966104507446289 5.093048095703125 -0.6743996143341064 4456788 4 -1
-2.0038628578186035 5.066401958465576 -0.7586995959281921 4456788 4 -1
-1.9111515283584595 5.074163436889648 -0.9272994995117188 4456788 4 -1
-1.9159959554672241 5.087026119232178 -0.8429995179176331 4456788 4 -1
-2.233358383178711 5.02549934387207 0.12644992768764496 4456788 4 -1
-4.257147789001465 3.4837071895599365 0 4456788 0 -1
-3.446136713027954 4.266849040985107 0.42149975895881653 4456788 0 -1
-4.1717448234558105 3.5833051204681396 0.12644992768764496 4456788 0 -1
-4.535822868347168 2.804741144180298 -1.348799228668213 4456788 0 -1
-4.168435096740723 3.5804622173309326 -0.2528998553752899 4456788 0 -1
-4.1717448234558105 3.5833051204681396 -0.12644992768764496 4523353 0 -1
-3.5339395999908447 4.202033996582031 0.3371998071670532 4523353 0 -1
-3.5255990028381348 4.1921162605285645 0.5057997107505798 4590430 0 -1
-3.527998924255371 4.19497013092041 0.4636497497558594 4657508 0 -1
-2.1065573692321777 4.961949348449707 -1.0958993434906006 4045940 0 -1
-2.09959077835083 4.945540428161621 -1.180199384689331 7589974 0 -1
-2.1891672611236572 4.926060676574707 -1.0958993434906006 10672695 0 -1
-2.0330183506011963 5.1401166915893555 -0.25439631938934326 4456788 4 -1
-1.9880268573760986 5.149836540222168 -0.3815944492816925 4456788 4 -1
-1.9880268573760986 5.149836540222168 -0.3815944492816925 4456788 4 -1
-1.9406713247299194 5.1525397300720215 -0.5511919856071472 4456788 4 -1
-1.9795646667480469 5.127915859222412 -0.6359907388687134 4456788 4 -1
-1.981271743774414 5.132338047027588 -0.5935913920402527 4456788 4 -1
-1.9828598499298096 5.136451721191406 -0.5511919856071472 4456788 4 -1
-2.331897735595703 5.017881870269775 0.04239938408136368 4456788 4 -1
-2.247101306915283 5.056423664093018 0.04239938408136368 4456788 4 -1
-2.2884910106658936 5.035149097442627 0.1695975363254547 4456788 4 -1
-2.2461116313934326 5.054196357727051 0.1695975363254547 4456788 4 -1
-2.2465734481811523 5.055235862731934 0.12719815969467163 4456788 4 -1
-4.695127487182617 2.903247594833374 -0.3815944492816925 4456788 0 -1
-4.304638862609863 3.34942889213562 -0.9327864646911621 4456788 0 -1
-4.102949142456055 3.693084955215454 -0.3815944492816925 4456788 0 -1
-3.631010055541992 4.059982776641846 0.9751858115196228 4456788 0 -1
-4.705779075622559 2.909834146499634 0.08479876816272736 4456788 0 -1
-4.329927444458008 3.369105815887451 -0.7207895517349243 4456788 0 -1
-4.747476100921631 2.8397133350372314 0.12719815969467163 4523353 0 -1
-3.5767605304718018 4.167163372039795 0.6783901453018188 4523353 0 -1
-3.5860230922698975 4.177955150604248 0.5511919856071472 4590430 0 -1
-2.0807089805603027 5.016549110412598 -1.059984564781189 2264205 0 -1
-2.160571575164795 4.973465919494629 -1.1023839712142944 4045940 0 -1
-2.003551483154297 5.190052032470703 -0.1705951690673828 4456788 4 -1
-2.302426338195801 5.06580924987793 0.1279463768005371 4456788 4 -1
-2.302426338195801 5.06580924987793 0.1279463768005371 4456788 4 -1
-2.259324073791504 5.083927154541016 0.1705951690673828 4456788 4 -1
-3.643489122390747 4.158808708190918 0.6397318840026855 4523353 0 -1
-2.0588717460632324 5.205482006072998 -0.08579640090465546 4456788 4 -1
-2.354964017868042 5.067516803741455 0.3431856036186218 4456788 4 -1
-2.2290687561035156 5.13114070892334 0.21449099481105804 4456788 4 -1
-2.357668876647949 5.073337078094482 0.21449099481105804 4456788 4 -1
-2.272536516189575 5.113657474517822 0.1715928018093109 4456788 4 -1
-2.272536516189575 5.113657474517822 0.1715928018093109 4456788 4 -1
-2.3154144287109375 5.094386100769043 0.1715928018093109 4456788 4 -1
-2.140475273132324 5.041842937469482 -1.158251404762268 2006409 0 -1
-2.249380588531494 5.06155252456665 -0.8150658011436462 8180304 4 -1
-2.07053804397583 5.234977722167969 0.12944282591342926 4456788 4 -1
-2.1571271419525146 5.200791358947754 0.0862952172756195 4456788 4 -1
-2.2002696990966797 5.182686805725098 0.0862952172756195 4456788 4 -1
-2.28440523147583 5.140364646911621 0.2588856518268585 4456788 4 -1
-2.28440523147583 5.140364646911621 0.2588856518268585 4456788 4 -1
-2.328876256942749 5.12400484085083 0.172590434551239 4456788 4 -1
-4.651094436645508 2.969456911087036 1.121837854385376 4590430 0 -1
-4.651094436645508 2.969456911087036 1.121837854385376 4590430 0 -1
-2.211622953414917 5.2094292640686035 0.2169850766658783 4456788 4 -1
-2.0394203662872314 5.282967567443848 0.08679403364658356 4456788 4 -1
-2.126204013824463 5.248641490936279 0.08679403364658356 4456788 4 -1
-2.169595956802368 5.230854034423828 0.08679403364658356 4456788 4 -1
-2.039599895477295 5.283432483673096 0.04339701682329178 4456788 4 -1
-2.1248927116394043 5.24540376663208 0.2169850766658783 4456788 4 -1
-2.2566449642181396 5.194619178771973 0 4456788 4 -1
-2.169595956802368 5.230854034423828 0.08679403364658356 4456788 4 -1
-2.211622953414917 5.2094292640686035 0.2169850766658783 4456788 4 -1
-2.339031934738159 5.1463494300842285 0.34717613458633423 4456788 4 -1
-2.339031934738159 5.1463494300842285 0.34717613458633423 4456788 4 -1
-1.8474165201187134 5.158744812011719 -1.4321016073226929 4456788 0 -1
-2.34096097946167 5.1505937576293945 0.2603820860385895 4456788 4 -1
-2.2945661544799805 5.163228511810303 0.3905731439590454 4456788 4 -1
-2.1817445755004883 5.260143756866455 0.1309392750263214 4456788 4 -1
-2.0067923069000244 5.328092575073242 0.17458570003509521 4456788 4 -1
-2.0949668884277344 5.296741962432861 0.043646425008773804 4456788 4 -1
-2.1381096839904785 5.278030872344971 0.1309392750263214 4456788 4 -1
-2.050839900970459 5.312549114227295 0.1309392750263214 4456788 4 -1
-2.1822571754455566 5.261379718780518 0.043646425008773804 4456788 4 -1
-2.1386120319366455 5.279270648956299 0.043646425008773804 4456788 4 -1
-2.269347667694092 5.223859786987305 0.08729285001754761 4456788 4 -1
-2.2259676456451416 5.243217945098877 0 4456788 4 -1
-2.3551764488220215 5.181870937347412 0.21823212504386902 4456788 4 -1
-2.180013656616211 5.255970478057861 0.2618785500526428 4456788 4 -1
-2.2243335247039795 5.239368438720703 0.21823212504386902 4456788 4 -1
-2.1807191371917725 5.257671356201172 0.21823212504386902 4456788 4 -1
-2.1807191371917725 5.257671356201172 0.21823212504386902 4456788 4 -1
-2.050839900970459 5.312549114227295 0.1309392750263214 4456788 4 -1
-2.1498851776123047 5.307099342346191 0.17558333277702332 4456788 4 -1
-2.0621349811553955 5.341807842254639 0.17558333277702332 4456788 4 -1
-2.1498851776123047 5.307099342346191 0.17558333277702332 4456788 4 -1
-2.194211721420288 5.290201663970947 0.1316874921321869 4456788 4 -1
-2.1945338249206543 5.29097843170166 0.08779166638851166 4456788 4 -1
-2.150327444076538 5.308190822601318 0.1316874921321869 4456788 4 -1
-2.1486215591430664 5.303979873657227 0.2633749842643738 4456788 4 -1
-2.281980276107788 5.252938747406006 0.1316874921321869 4456788 4 -1
-2.1924707889556885 5.286004543304443 0.2633749842643738 4456788 4 -1
-2.23842453956604 5.272560119628906 0.08779166638851166 4456788 4 -1
-2.0630435943603516 5.3441619873046875 -0.04389583319425583 4456788 4 -1
-1.9377663135528564 5.411038875579834 0.3973071575164795 4456788 4 -1
-1.9311820268630981 5.392652988433838 0.6180333495140076 4456788 4 -1
-2.163053274154663 5.339605331420898 0.044145241379737854 4456788 4 -1
-2.207002878189087 5.321041107177734 0.08829048275947571 4456788 4 -1
-2.1621005535125732 5.337253570556641 0.17658096551895142 4456788 4 -1
-2.200772762298584 5.306020259857178 0.44145241379737854 4456788 4 -1
-2.150634527206421 5.308948993682861 0.6180333495140076 4456788 4 -1
-2.0858054161071777 5.273578643798828 1.0153405666351318 4456788 0 -1
-2.1615285873413086 5.335841655731201 0.22072620689868927 4456788 4 -1
-2.204928159713745 5.316039085388184 0.2648714482784271 4456788 4 -1
-2.2944741249084473 5.281698703765869 0.17658096551895142 4456788 4 -1
-2.206678867340088 5.3202595710754395 -0.13243572413921356 4456788 4 -1
-2.2072620391845703 5.3216657638549805 0 4456788 4 -1
-2.207002878189087 5.321041107177734 -0.08829048275947571 4456788 4 -1
-2.2513411045074463 5.302984714508057 0.044145241379737854 4456788 4 -1
-2.2513411045074463 5.302984714508057 -0.044145241379737854 4456788 4 -1
-2.2197325229644775 5.351731777191162 0 4456788 4 -1
-2.0392141342163086 5.414173603057861 0.31076255440711975 4456788 4 -1
-2.124678373336792 5.371861934661865 0.4439464807510376 4456788 4 -1
-1.9505527019500732 5.446743488311768 0.31076255440711975 4456788 4 -1
-1.9918859004974365 5.42250394821167 0.4439464807510376 4456788 4 -1
-2.2194716930389404 5.35110330581665 -0.08878929913043976 4456788 4 -1
-2.174315929412842 5.367407321929932 0.17757859826087952 4456788 4 -1
-2.256070375442505 5.31412410736084 0.48834115266799927 4456788 4 -1
-2.2165372371673584 5.344027996063232 0.31076255440711975 4456788 4 -1
-2.0419139862060547 5.421341896057129 0.08878929913043976 4456788 4 -1
-2.0850167274475098 5.401081562042236 0.2219732403755188 4456788 4 -1
-2.2197325229644775 5.351731777191162 0 4456788 4 -1
-2.264127016067505 5.333101749420166 0 4456788 4 -1
-2.2640607357025146 5.332945346832275 -0.04439464956521988 4456788 4 -1
-2.264127016067505 5.333101749420166 0 4456788 4 -1
-2.261733055114746 5.327462673187256 0.2663678824901581 4456788 4 -1
-2.2305641174316406 5.377846717834473 0.22322028875350952 4456788 4 -1
-2.3524813652038574 5.293549060821533 0.6250168085098267 4456788 4 -1
-2.228989601135254 5.374050617218018 0.31250840425491333 4456788 4 -1
-2.186980724334717 5.398671627044678 0.1339321732521057 4456788 4 -1
-2.1782915592193604 5.377222061157227 0.5357286930084229 4456788 4 -1
-2.255086898803711 5.311807632446289 0.8035930395126343 4456788 4 -1
-2.2765796184539795 5.362433433532715 0.08928811550140381 4456788 4 -1
-2.365023374557495 5.321771621704102 0.17857623100280762 4456788 4 -1
-2.187558889389038 5.4000983238220215 0 4456788 4 -1
-2.2305641174316406 5.377846717834473 0.22322028875350952 4456788 4 -1
-2.185952663421631 5.396133899688721 -0.22322028875350952 4456788 4 -1
-2.276245355606079 5.361645698547363 0.1339321732521057 4456788 4 -1
-2.142348527908325 5.416537761688232 -0.1339321732521057 4456788 4 -1
-2.2322027683258057 5.381797790527344 0 4456788 4 -1
-2.2765796184539795 5.362433433532715 -0.08928811550140381 4456788 4 -1
-2.231940746307373 5.381165981292725 0.08928811550140381 4456788 4 -1
-2.276780128479004 5.362905502319336 0.044644057750701904 4456788 4 -1
-2.244607448577881 5.411705017089844 -0.04489346593618393 4456788 4 -1
-2.064553737640381 5.481451034545898 0.1346803903579712 4456788 4 -1
-2.062126636505127 5.475007057189941 -0.3142542541027069 4456788 4 -1
-2.092015027999878 5.419210433959961 0.763188898563385 4456788 4 -1
-2.326153039932251 5.354621410369873 0.4938281178474426 4456788 4 -1
-2.3736891746520996 5.341270923614502 0.40404120087623596 4456788 4 -1
-2.3736891746520996 5.341270923614502 0.40404120087623596 4456788 4 -1
-2.0563509464263916 5.459672927856445 0.5387215614318848 4456788 4 -1
-2.233509063720703 5.384947299957275 0.5836150646209717 4456788 4 -1
-2.0116477012634277 5.476301670074463 0.5387215614318848 4456788 4 -1
-2.3145699501037598 5.327958106994629 0.763188898563385 4456788 4 -1
-1.9715977907180786 5.505510330200195 0.35914772748947144 4456788 4 -1
-2.1084437370300293 5.461767673492432 0.22446732223033905 4456788 4 -1
-2.1517844200134277 5.440394878387451 0.3142542541027069 4456788 4 -1
-2.242299795150757 5.40614128112793 -0.2693607807159424 4456788 4 -1
-2.199521541595459 5.429628849029541 -0.08978693187236786 4456788 4 -1
-2.28896164894104 5.391599178314209 0.1346803903579712 4456788 4 -1
-2.2414419651031494 5.404073238372803 0.3142542541027069 4456788 4 -1
-2.064129114151001 5.480323791503906 0.17957386374473572 4456788 4 -1
-2.244607448577881 5.411705017089844 0.04489346593618393 4456788 4 -1
-2.0650994777679443 5.4828996658325195 0 4456788 4 -1
-2.244080066680908 5.410433769226074 0.1346803903579712 4456788 4 -1
-2.244080066680908 5.410433769226074 -0.1346803903579712 4456788 4 -1
-2.1543169021606445 5.446797847747803 -0.1346803903579712 4456788 4 -1
-2.19454288482666 5.417338848114014 -0.40404120087623596 4456788 4 -1
-2.243025302886963 5.407890319824219 0.22446732223033905 4456788 4 -1
-2.329721212387085 5.362834930419922 0.7222859859466553 4456788 4 -1
-2.070467233657837 5.4971513748168945 0.45142874121665955 4456788 4 -1
-2.3840584754943848 5.3646039962768555 0.4965716004371643 4456788 4 -1
-1.9770290851593018 5.382059097290039 1.3542861938476562 4456788 0 -1
-2.069182872772217 5.493741512298584 0.4965716004371643 4456788 4 -1
-2.233095169067383 5.383948802947998 0.8577145934104919 4456788 4 -1
-1.9778718948364258 5.5230302810668945 0.5417144894599915 4456788 4 -1
-2.116663932800293 5.48306131362915 0.4062858521938324 4456788 4 -1
-2.33388352394104 5.3724164962768555 0.632000207901001 4456788 4 -1
-2.160487413406372 5.462399005889893 0.45142874121665955 4456788 4 -1
-2.1616992950439453 5.465462684631348 0.4062858521938324 4456788 4 -1
-2.165266990661621 5.474483013153076 -0.22571437060832977 4456788 4 -1
-2.3022866249084473 5.422985553741455 0 4456788 4 -1
-2.116663932800293 5.48306131362915 0.4062858521938324 4456788 4 -1
-2.25707745552063 5.441769599914551 -0.045142874121665955 4456788 4 -1
-2.2096619606018066 5.454660892486572 -0.2708572447299957 4456788 4 -1
-2.3012049198150635 5.420437812805176 -0.18057149648666382 4456788 4 -1
-2.156080961227417 5.451257705688477 -0.5868573784828186 4456788 4 -1
-2.237912178039551 5.395562648773193 -0.7674288749694824 4456788 4 -1
-2.2109615802764893 5.457869529724121 -0.18057149648666382 2977934 4 -1
-3.278331756591797 4.858250617980957 -0.8624533414840698 4456788 0 -1
-2.133437156677246 5.526511192321777 0 4456788 4 -1
-2.323453664779663 5.348407745361328 -1.0440224409103394 4456788 0 -1
-3.2586357593536377 4.926370620727539 -0.4539228081703186 4456788 0 -1
-2.342592477798462 5.392463684082031 0.7262765169143677 4456788 4 -1
-3.268148422241211 4.940752029418945 -0.04539228230714798 4456788 0 -1
-2.177229881286621 5.5047287940979 0.2269614040851593 4456788 4 -1
-2.177229881286621 5.5047287940979 0.2269614040851593 4456788 4 -1
-2.1782538890838623 5.507317543029785 0.13617683947086334 4456788 4 -1
-2.4057202339172363 5.4133477210998535 -0.04539228230714798 4456788 4 -1
-2.2189266681671143 5.477531433105469 -0.4085305333137512 4456788 4 -1
-2.31255841255188 5.44718074798584 -0.2723536789417267 4456788 4 -1
-2.310652732849121 5.442692279815674 -0.36313825845718384 4456788 4 -1
-2.351999282836914 5.414117336273193 -0.4993151128292084 4456788 4 -1
-2.1695992946624756 5.48543643951416 -0.5447073578834534 4456788 4 -1
-2.256517171859741 5.4404191970825195 -0.6354919672012329 4456788 4 -1
-2.281876564025879 5.374910354614258 -0.9986302256584167 4456788 0 -1
-3.4392623901367188 4.6135945320129395 -1.407160758972168 4456788 0 -1
-2.162393093109131 5.467216968536377 -0.7262765169143677 4456788 4 -1
-3.5255990028381348 4.7294111251831055 0.5447073578834534 4456788 0 -1
-3.661198854446411 4.625235080718994 -0.5447073578834534 4657508 0 -1
-2.2583260536193848 5.444779872894287 -0.5900996923446655 4729209 4 -1
-3.7240042686462402 4.610892295837402 -0.5933419466018677 4456788 0 -1
-2.4132139682769775 5.079883575439453 -1.9625927209854126 4456788 0 -1
-2.005343437194824 5.5997419357299805 -0.31949183344841003 4456788 0 -1
-0.6241039633750916 5.784278869628906 1.2779673337936401 4456788 0 -1
-4.977808952331543 3.1780452728271484 -0.7759087085723877 4456788 0 -1
-3.3314521312713623 4.936971187591553 -0.09128338098526001 4456788 0 -1
-2.275987148284912 5.239143371582031 -1.6887425184249878 4456788 0 -1
-2.0420241355895996 5.558995246887207 0.6389836668968201 4456788 4 -1
-0.6194774508476257 5.741400241851807 1.4605340957641602 4456788 0 -1
-2.1762824058532715 5.502333164215088 0.6846253275871277 4456788 4 -1
-1.9930849075317383 5.5655107498168945 0.7302670478820801 4456788 4 -1
-2.1762824058532715 5.502333164215088 0.6846253275871277 4456788 4 -1
-2.174274444580078 5.497256755828857 0.7302670478820801 4456788 4 -1
-2.0489864349365234 5.577948570251465 0.41077521443367004 4456788 4 -1
-2.1884846687316895 5.53318452835083 0.27385014295578003 4456788 4 -1
-2.1884846687316895 5.53318452835083 0.27385014295578003 4456788 4 -1
-2.189192771911621 5.534974575042725 0.22820845246315002 4456788 4 -1
-2.189771890640259 5.536438941955566 0.18256676197052002 4456788 4 -1
-2.1876473426818848 5.531067848205566 -0.31949183344841003 4456788 4 -1
-2.3243753910064697 5.475015163421631 -0.31949183344841003 4456788 4 -1
-2.3531460762023926 5.416757106781006 -0.7759087085723877 4456788 4 -1
-2.4164516925811768 5.437495231628418 -0.27385014295578003 4456788 4 -1
-2.3506853580474854 5.411092758178711 -0.8215504288673401 4456788 4 -1
-3.4664688110351562 4.467928409576416 -1.8713092803955078 4456788 0 -1
-3.539508581161499 4.748069763183594 -0.6389836668968201 4456788 0 -1
-3.5591111183166504 4.7743659019470215 0.13692507147789001 4456788 0 -1
-3.714385509490967 4.598982334136963 -0.7302670478820801 4523353 0 -1
-3.6900243759155273 4.661650657653809 -0.36513352394104004 4657508 0 -1
-4.9233927726745605 3.3400251865386963 -0.6883664727210999 4456788 0 -1
-2.5239362716674805 5.431118965148926 -0.04589109867811203 4456788 4 -1
-2.201737880706787 5.56669282913208 0.18356439471244812 4456788 4 -1
-2.005826711654663 5.601091384887695 0.6883664727210999 4456788 4 -1
-2.2433104515075684 5.537724018096924 0.41301989555358887 4456788 4 -1
-2.062126636505127 5.613720417022705 0.3212376832962036 4456788 4 -1
-2.062126636505127 5.613720417022705 0.3212376832962036 4456788 4 -1
-2.193441152572632 5.545716285705566 0.550693154335022 4456788 4 -1
-2.017725944519043 5.634318828582764 -0.22945548593997955 4456788 0 -1
-2.3249354362487793 5.476334571838379 -0.6883664727210999 4456788 4 -1
-2.3609120845794678 5.434633731842041 -0.8719308376312256 4456788 4 -1
-3.5409739017486572 4.656159400939941 -1.2849507331848145 4456788 0 -1
-2.368335247039795 5.451721668243408 -0.7342575788497925 4456788 4 -1
-3.622735023498535 4.763670444488525 0.22945548593997955 4456788 0 -1
-3.6685924530029297 4.728445053100586 0.22945548593997955 4456788 0 -1
-3.566768169403076 4.784637451171875 -0.5048021078109741 4456788 0 -1
-3.5768775939941406 4.798198699951172 -0.22945548593997955 4456788 0 -1
-3.708329439163208 4.684775352478027 -0.41301989555358887 4523353 0 -1
-3.457165479660034 4.730978012084961 -1.2390596866607666 4523353 0 -1
-3.6855075359344482 4.655944347381592 -0.7801486849784851 4590430 0 -1
-3.7132484912872314 4.690989971160889 -0.275346577167511 4657508 0 -1
-3.747128486633301 4.639523506164551 -0.550693154335022 4724328 0 -1
-3.7271058559417725 4.614732265472412 -0.8260397911071777 4729209 0 -1
-2.0675268173217773 5.628420829772949 0.5536860823631287 4456788 4 -1
-4.453369140625 4.008499622344971 -0.5998265743255615 4456788 0 -1
-3.682201385498047 4.559133529663086 -1.384215235710144 4456788 0 -1
-3.220339775085449 5.067235469818115 -0.46140506863594055 4456788 0 -1
-2.9529056549072266 5.247721195220947 0.046140506863594055 4456788 0 -1
-2.370965003967285 5.457774639129639 -0.9228101372718811 4456788 4 -1
-2.433284044265747 5.475371837615967 -0.5998265743255615 4456788 4 -1
-3.5775954723358154 4.704314708709717 -1.1535125970840454 4456788 0 -1
-2.3854610919952393 5.491143703460693 -0.6459670662879944 4456788 4 -1
-3.5937788486480713 4.820870876312256 0.3229835331439972 4456788 0 -1
-3.644136905670166 4.791812419891357 -0.13842152059078217 4456788 0 -1
-3.588378667831421 4.813626766204834 -0.46140506863594055 4456788 0 -1
-3.5423738956451416 4.84758186340332 -0.46140506863594055 4456788 0 -1
-3.7284834384918213 4.710236072540283 -0.4152645468711853 4523353 0 -1
-3.544360876083374 4.850301265716553 0.4152645468711853 4523353 0 -1
-3.701662302017212 4.6763529777526855 -0.8305290937423706 4590430 0 -1
-3.7284834384918213 4.710236072540283 -0.4152645468711853 4657508 0 -1
-3.7284834384918213 4.710236072540283 -0.4152645468711853 4657508 0 -1
-3.7549798488616943 4.649244785308838 -0.7382481098175049 4724328 0 -1
-3.701662302017212 4.6763529777526855 -0.8305290937423706 4729209 0 -1
-3.571604013442993 4.887582302093506 -0.09277983009815216 4456788 0 -1
-5.387790203094482 2.8907341957092285 -1.2929317951202393 4456788 0 -1
-5.4412055015563965 2.919393301010132 -1.1552585363388062 4456788 0 -1
-5.424647808074951 2.9105095863342285 -1.2515300512313843 4456788 0 -1
-5.366628646850586 2.879380464553833 -1.5403447151184082 4456788 0 -1
-5.469398021697998 2.9345197677612305 -1.16124427318573 4456788 0 -1
-5.469398021697998 2.9345197677612305 -1.16124427318573 4456788 0 -1
-5.4369730949401855 3.0299229621887207 -1.0644739866256714 4456788 0 -1
-4.033703804016113 5.095824718475342 0.7519655227661133 4456788 0 -1
-3.818962812423706 5.226081848144531 -0.9524896740913391 4456788 0 -1
-3.9374985694885254 5.177565097808838 0.701834499835968 4456788 0 -1
-3.9873404502868652 5.139279365539551 0.701834499835968 4456788 0 -1
-3.9341061115264893 5.1731038093566895 0.7519655227661133 4456788 0 -1
-3.893656015396118 5.223140716552734 0.6015724539756775 4456788 0 -1
-3.837815046310425 5.251880645751953 0.701834499835968 4523353 0 -1
-3.9905364513397217 5.143398284912109 0.6517034769058228 4657508 0 -1
-4.063528537750244 5.13350248336792 0.6045653223991394 4456788 0 -1
-3.9602599143981934 5.207494735717773 0.6549457907676697 4456788 0 -1
-4.007177829742432 5.1648478507995605 0.7053261995315552 4456788 0 -1
-3.9570882320404053 5.203323841094971 0.7053261995315552 4456788 0 -1
-3.91302752494812 5.249126434326172 0.6045653223991394 4456788 0 -1
-3.8569087982177734 5.278009414672852 0.7053261995315552 4523353 0 -1
-4.050031661987305 5.116451740264893 0.8060871362686157 4590430 0 -1
-3.8569087982177734 5.278009414672852 0.7053261995315552 4590430 0 -1
-4.007177829742432 5.1648478507995605 0.7053261995315552 4657508 0 -1
-3.953678607940674 5.198840618133545 0.7557066679000854 4724328 0 -1
-4.035974979400635 5.201964378356934 0.5569283962249756 4456788 0 -1
-3.982814311981201 5.237152099609375 0.6075582504272461 4456788 0 -1
-3.979865074157715 5.233273983001709 0.6581881046295166 4456788 0 -1
-3.9350757598876953 5.278703212738037 0.5569283962249756 4456788 0 -1
-3.9350757598876953 5.278703212738037 0.5569283962249756 4456788 0 -1
-3.8791091442108154 5.308389663696289 0.6581881046295166 4523353 0 -1
-4.023545742034912 5.185944080352783 0.7594478130340576 4590430 0 -1
-4.023545742034912 5.185944080352783 0.7594478130340576 4657508 0 -1
-4.0076446533203125 5.269802570343018 0.5087926387786865 4456788 0 -1
-3.954460382461548 5.304706573486328 0.5596718788146973 4456788 0 -1
-3.959134340286255 5.310976505279541 0.457913339138031 4456788 0 -1
-3.9061851501464844 5.345441818237305 0.5087926387786865 4523353 0 -1
-3.6262969970703125 5.592860221862793 -0.30677202343940735 4456788 0 -1
-3.829130172729492 5.452879428863525 -0.3579006791114807 4456788 0 -1
-3.7807438373565674 5.492253303527832 -0.2556433379650116 4456788 0 -1
-3.7253737449645996 5.5207343101501465 -0.40902936458587646 4523353 0 -1
-3.847808837890625 5.47947883605957 -0.3596465289592743 4456788 0 -1
-3.794827699661255 5.512713432312012 -0.41102463006973267 4456788 0 -1
-3.7965047359466553 5.5151495933532715 -0.3596465289592743 4456788 0 -1
-3.7435462474823 5.547665119171143 -0.41102463006973267 4523353 0 -1
-3.9809317588806152 5.340216636657715 -0.7706711292266846 4590430 0 -1
-3.814934492111206 5.541922092437744 -0.36139240860939026 4456788 0 -1
-4.436704158782959 5.064212799072266 -0.25813743472099304 4456788 0 -1
-4.022686004638672 5.396227836608887 -0.30976492166519165 4456788 0 -1
-3.816394329071045 5.544042587280273 -0.30976492166519165 4456788 0 -1
-3.7648212909698486 5.579193115234375 -0.30976492166519165 4523353 0 -1
-5.850122451782227 3.6174428462982178 -2.2147443294525146 4456788 0 -1
-6.160468101501465 3.305302381515503 -1.8271640539169312 4456788 0 -1
-5.929415702819824 3.5466930866241455 -2.2247207164764404 4456788 0 -1
-6.100675106048584 3.7723729610443115 -1.1123603582382202 4456788 0 -1
-2.308988332748413 6.61657190322876 1.8910125494003296 4456788 0 -1
-6.215967655181885 3.3350799083709717 -1.8436249494552612 4456788 0 -1
-6.110114574432373 3.2782859802246094 -2.3569068908691406 4456788 0 -1
-1.5137115716934204 6.891059398651123 1.9640891551971436 4456788 0 -1
-6.162968635559082 3.43450665473938 -1.9640891551971436 4456788 0 -1
-6.173812389373779 3.312462329864502 -2.132439613342285 4456788 0 -1
-5.973389625549316 3.6936655044555664 -2.0763227939605713 4456788 0 -1
-1.449503779411316 6.854728698730469 2.132439613342285 4456788 0 -1
-4.489346504211426 5.786314487457275 0 4456788 0 -1
-6.216932773590088 3.4645798206329346 -1.8600859642028809 4456788 0 -1
-6.185916900634766 3.3189566135406494 -2.1982834339141846 4456788 0 -1
-6.0274553298950195 3.727097272872925 -1.972818374633789 4456788 0 -1
-1.5815004110336304 6.939194679260254 1.8600859642028809 4456788 0 -1
-6.38622522354126 3.292222261428833 -1.5782546997070312 4456788 0 -1
-6.4447126388549805 3.4578094482421875 -0.7891273498535156 4456788 0 -1
-4.393338680267334 5.893439769744873 0.28183120489120483 4456788 0 -1
-4.280689239501953 5.975764274597168 0.28183120489120483 4456788 0 -1
-4.508107662200928 5.810495376586914 0.16909871995449066 4456788 0 -1
-4.390237808227539 5.889279842376709 0.3945636749267578 4523353 0 -1
-5.748681545257568 4.58840274810791 -0.11273247748613358 4657508 0 -1
-4.106997489929199 6.086273193359375 0.4509299099445343 4657508 0 -1
-6.529234886169434 3.2266292572021484 -1.2455443143844604 4456788 0 -1
-1.5781522989273071 6.924503803253174 2.038163423538208 4456788 0 -1
-5.20481538772583 5.236715316772461 -0.28307825326919556 4456788 0 -1
-6.504649639129639 3.3532721996307373 -1.019081711769104 4456788 0 -1
-4.851619720458984 5.53781270980835 -0.6227721571922302 4456788 0 -1
-4.41394567489624 5.921082973480225 0.22646258771419525 4456788 0 -1
-4.1851277351379395 6.0796990394592285 0.33969390392303467 4456788 0 -1
-4.528055191040039 5.83620548248291 0.16984695196151733 4456788 0 -1
-4.3512067794799805 5.954433917999268 0.4529251754283905 4523353 0 -1
-5.450290203094482 4.9058332443237305 -0.905850350856781 4590430 0 -1
-4.8597893714904785 5.547137260437012 -0.4529251754283905 4657508 0 -1
-4.126993179321289 6.115905284881592 0.3963095247745514 4657508 0 -1
-6.0208892822265625 3.9644486904144287 -1.7628167867660522 4456788 0 -1
-5.893024444580078 4.349909782409668 -1.1941661834716797 4456788 0 -1
-5.167271137237549 5.311906337738037 -0.39805540442466736 4456788 0 -1
-4.885223865509033 5.576169490814209 -0.3411903381347656 4456788 0 -1
-2.8897979259490967 6.80685567855835 0.6255156397819519 4456788 0 -1
-4.658004283905029 5.767328262329102 -0.3411903381347656 4456788 0 -1
-4.549070835113525 5.863293170928955 0.05686505511403084 4456788 0 -1
-5.899886608123779 4.472683906555176 -0.5117855072021484 4523353 0 -1
-5.619334697723389 4.7122297286987305 -1.1373010873794556 4523353 0 -1
-4.776103973388672 5.679030418395996 -0.11373011022806168 4523353 0 -1
-5.242021083831787 5.274149417877197 -0.5140301585197449 4456788 0 -1
-4.375940799713135 5.988281726837158 -0.7424880266189575 4456788 0 -1
-3.076838493347168 6.769675254821777 0.5140301585197449 4456788 0 -1
-2.7349677085876465 6.914867401123047 -0.5140301585197449 4456788 0 -1
-6.374057292938232 3.8126564025878906 -0.6282591223716736 4456788 0 -1
-5.252607345581055 5.0588274002075195 -1.5420905351638794 4456788 0 -1
-2.9383089542388916 6.763756275177002 1.085174798965454 4456788 0 -1
-4.619612216949463 5.836009502410889 -0.39980125427246094 4456788 0 -1
-4.51204252243042 5.933054447174072 0 4456788 0 -1
-5.922441005706787 4.489782810211182 -0.5711446404457092 4523353 0 -1
-4.474250793457031 6.001978874206543 -0.05736387148499489 4456788 0 -1
-3.191082000732422 7.021033763885498 -0.1773291826248169 4456788 0 -1
-4.883776664733887 6.294694423675537 -1.2989176511764526 4456788 0 -1
-4.633571147918701 6.468381404876709 -1.36077082157135 4456788 0 -1
-4.3910627365112305 6.772363185882568 0.12370643764734268 4456788 0 -1
-4.452908992767334 6.731860160827637 0.12370643764734268 4456788 0 -1
-4.470207691192627 6.758012294769287 0.1863078773021698 4456788 0 -1
-4.627830982208252 6.722809791564941 -0.8170610666275024 4456788 0 -1
-4.462279319763184 6.882201194763184 -0.06285085529088974 4456788 0 -1
-4.523135185241699 6.8380279541015625 -0.25140342116355896 4456788 0 -1
-5.134970188140869 6.230809688568115 -1.445569634437561 4523353 0 -1
-4.9649739265441895 6.147404193878174 -2.199779748916626 4657508 0 -1
-4.624124526977539 6.717425346374512 -0.8799118995666504 4657508 0 -1
-4.478013515472412 6.906467914581299 -0.25240105390548706 4456788 0 -1
-4.860186576843262 6.6509504318237305 -1.017585277557373 4456788 0 -1
-6.323827743530273 5.302999019622803 -1.1492726802825928 4456788 0 -1
-4.932585716247559 6.616811752319336 -1.1492726802825928 4456788 0 -1
-4.597090721130371 6.949832916259766 0 4456788 0 -1
-5.009650707244873 6.720190525054932 -0.5147783756256104 4456788 0 -1
-3.3397672176361084 7.687880992889404 -0.5147783756256104 4456788 0 -1
-3.395441770553589 7.8160400390625 -0.32672467827796936 4456788 0 -1
-5.185479640960693 6.818582057952881 -1.465023398399353 4456788 0 -1
-4.8439154624938965 7.178332805633545 -0.7325116991996765 4456788 0 -1
-3.7363314628601074 7.69561767578125 -1.5316153764724731 4456788 0 -1
-4.455239772796631 7.447288513183594 -0.46614381670951843 4456788 0 -1
6.01259183883667 6.313863754272461 -0.8050894737243652 4341894 6 -1
5.959851264953613 6.39190149307251 -0.5367262959480286 3692940 6 -1
6.221099853515625 6.1247124671936035 -0.6709079146385193 3692940 6 -1
6.160745143890381 6.1985039710998535 -0.5367262959480286 3302798 6 -1
6.103648662567139 6.274493217468262 -0.2012723684310913 6343264 6 -1
6.1050825119018555 6.275967597961426 -0.06709078699350357 6933851 6 -1
5.903295993804932 6.465090274810791 -0.13418157398700714 8180304 6 -1
6.238710880279541 6.142050743103027 -0.13418157398700714 8180304 6 -1
6.03533411026001 6.3377461433410645 -0.2683631479740143 8705099 6 -1
5.971080303192139 6.403944492340088 0 10672695 6 -1
6.239443302154541 6.142772197723389 0 10672695 6 -1
6.0256452560424805 6.327571392059326 -0.9427627921104431 4536450 6 -1
6.039051532745361 6.341649532318115 -0.7407422065734863 4341894 6 -1
6.169053077697754 6.206862926483154 -0.8080824017524719 4212104 6 -1
5.984650135040283 6.4184980392456055 -0.47138139605522156 3692940 6 -1
6.250861167907715 6.154012680053711 -0.5387215614318848 3692940 6 -1
6.190749645233154 6.228692531585693 -0.33670100569725037 3302798 6 -1
6.054209232330322 6.357566833496094 -0.40404120087623596 2523534 6 -1
6.192387580871582 6.230340480804443 -0.2693607807159424 2328718 6 -1
6.119136810302734 6.290415287017822 -0.47138139605522156 6343264 6 -1
6.1234588623046875 6.294858455657959 -0.33670100569725037 6933851 6 -1
6.0604400634765625 6.364109516143799 -0.0673401951789856 7589974 6 -1
6.127957820892334 6.299483299255371 0 10016830 6 -1
6.059016227722168 6.362614631652832 -0.20202060043811798 10672695 6 -1
6.127957820892334 6.299483299255371 0 11197490 6 -1
6.052809715270996 6.356097221374512 -0.8786649107933044 4536450 6 -1
6.1961164474487305 6.234091758728027 -0.743485689163208 4212104 6 -1
6.080206871032715 6.384866714477539 0.2703584134578705 3238030 6 -1
6.076632499694824 6.381113529205322 -0.4055376350879669 2523534 6 -1
6.218061447143555 6.256171226501465 -0.06758960336446762 2328718 6 -1
6.074307918548584 6.3786725997924805 -0.47312724590301514 2199437 6 -1
6.0068159103393555 6.442270278930664 -0.47312724590301514 2271109 6 -1
6.279186725616455 6.181899547576904 -0.4055376350879669 2271109 6 -1
6.203440189361572 6.24146032333374 -0.6083064675331116 2468738 6 -1
6.078598499298096 6.383178234100342 -0.3379480242729187 2666112 6 -1
6.082350254058838 6.387117862701416 0.13517920672893524 4505456 6 -1
6.001153945922852 6.4361982345581055 -0.6083064675331116 4899181 6 -1
6.080206871032715 6.384866714477539 -0.2703584134578705 6933851 6 -1
6.150473594665527 6.322628974914551 -0.06758960336446762 7589974 6 -1
6.082886219024658 6.387680530548096 -0.06758960336446762 10016830 6 -1
6.078598499298096 6.383178234100342 -0.3379480242729187 10672695 6 -1
6.149931907653809 6.3220720291137695 -0.13517920672893524 11197490 6 -1
6.083785057067871 6.388624668121338 -0.7462291717529297 4456788 6 -1
6.194107532501221 6.2320709228515625 -1.0854241847991943 4456788 6 -1
6.226330757141113 6.264491558074951 -0.610551118850708 4212104 6 -1
6.155200958251953 6.327488899230957 -0.6783901453018188 2199437 6 -1
6.094029426574707 6.3993821144104 -0.5427120923995972 2271109 6 -1
6.226330757141113 6.264491558074951 -0.610551118850708 2468738 6 -1
6.090975761413574 6.396175861358643 -0.610551118850708 4505456 6 -1
6.104794502258301 6.410686492919922 -0.1356780230998993 7589974 6 -1
6.195226669311523 6.099240303039551 -1.838387370109558 4456788 0 -1
6.045443058013916 6.483697891235352 -0.6127958297729492 4505456 6 -1
6.430047988891602 6.056579113006592 -1.2300809621810913 4456788 0 -1
6.340915679931641 5.972623348236084 1.913459300994873 4456788 0 -1
6.42254114151001 6.049508094787598 -1.5089192390441895 4456788 0 -1
6.404662609100342 6.032668113708496 -1.646093726158142 4456788 0 -1
6.329996109008789 6.3687920570373535 0.275346577167511 2139270 6 -1
6.398800373077393 6.2996602058410645 0.275346577167511 7589974 6 -1
