VERSION .7
FIELDS x y z rgb label object
SIZE 4 4 4 4 4 4
TYPE F F F I I I
COUNT 1 1 1 1 1 1
WIDTH 678
HEIGHT 1
POINTS 678
VIEWPOINT 0 0 0 1 0 0 0
DATA ascii
-1.5856596231460571 2.169905185699463 -0.5028068423271179 4456788 0 -1
-1.58792245388031 2.173001766204834 -0.4818565249443054 4456788 0 -1
-1.4641882181167603 2.2582266330718994 0.4818565249443054 4726897 0 -1
-1.4641882181167603 2.2582266330718994 0.4818565249443054 4728182 0 -1
-1.4641882181167603 2.2582266330718994 0.4818565249443054 4729209 0 -1
-1.4661831855773926 2.261303186416626 0.4609062373638153 4212104 0 -1
-1.4641882181167603 2.2582266330718994 -0.4818565249443054 4017546 0 -1
-1.4641882181167603 2.2582266330718994 -0.4818565249443054 3887499 0 -1
-1.444897174835205 2.2284739017486572 -0.6494588255882263 3757452 0 -1
-1.4848105907440186 2.244720935821533 0.4818565249443054 3562893 0 -1
-1.511305332183838 2.23964524269104 0.41900569200515747 2977934 0 -1
-1.5032877922058105 2.2277636528015137 0.5028068423271179 2912910 0 -1
-1.5734137296676636 2.1964569091796875 0.41900569200515747 2782862 0 -1
-1.3864690065383911 2.2711892127990723 0.6285085082054138 2782862 0 -1
-1.4848105907440186 2.244720935821533 0.4818565249443054 2718350 0 -1
-1.5502254962921143 2.207601308822632 -0.6147910952568054 4456788 0 -1
-1.4750056266784668 2.2749102115631104 0.5511919856071472 4456788 0 -1
-1.4795078039169312 2.2818539142608643 0.5087926387786865 4456788 0 -1
-1.4816190004348755 2.2851102352142334 0.4875929057598114 4456788 0 -1
-1.5779826641082764 2.24712872505188 -0.3391950726509094 4456788 0 -1
-1.4855639934539795 2.2911946773529053 -0.4451935291290283 4456788 0 -1
-1.822691798210144 2.0804855823516846 -0.06359907984733582 4456788 0 -1
-1.8231199979782104 2.0809743404388428 0.02119969204068184 4456788 0 -1
-1.585958480834961 2.2139692306518555 -0.4875929057598114 4456788 0 -1
-1.4981105327606201 2.2648274898529053 0.5299922823905945 4726897 0 -1
-1.4836376905441284 2.2882235050201416 0.46639323234558105 4728182 0 -1
-1.4816190004348755 2.2851102352142334 0.4875929057598114 4729209 0 -1
-1.4750056266784668 2.2749102115631104 0.5511919856071472 4664956 0 -1
-1.4816190004348755 2.2851102352142334 0.4875929057598114 4212104 0 -1
-1.4795078039169312 2.2818539142608643 0.5087926387786865 4017546 0 -1
-1.4836376905441284 2.2882235050201416 0.46639323234558105 3887499 0 -1
-1.495780348777771 2.2613046169281006 0.5511919856071472 3757452 0 -1
-1.458669662475586 2.2952306270599365 0.5087926387786865 3692940 0 -1
-1.4606730937957764 2.3450121879577637 0.14839784801006317 2782862 0 -1
-1.5420222282409668 2.240082263946533 0.5087926387786865 2523534 0 -1
-1.449421763420105 2.2806789875030518 -0.5935913920402527 2523534 0 -1
-1.5420222282409668 2.240082263946533 0.5087926387786865 2458766 0 -1
-1.8445684909820557 2.1054563522338867 -0.021449100226163864 4456788 0 -1
-1.6084935665130615 2.2905781269073486 -0.04289820045232773 4726897 0 -1
-1.5842485427856445 2.301424026489258 -0.1715928018093109 4729209 0 -1
-1.6293658018112183 2.2745649814605713 -0.08579640090465546 4664956 0 -1
-1.5433765649795532 2.287172317504883 0.4718801975250244 4147337 0 -1
-1.4969137907028198 2.308699369430542 0.5147783756256104 4017546 0 -1
-1.9304189682006836 2.027146339416504 0 2782862 0 -1
-1.6800414323806763 2.2091495990753174 0.3646346926689148 2782862 0 -1
-1.2805452346801758 2.4735183715820312 0.27883830666542053 2782862 0 -1
-1.9089138507843018 2.047297716140747 0.021449100226163864 2588302 0 -1
-1.6782845258712769 2.2068393230438232 0.38608381152153015 2588302 0 -1
-1.5703223943710327 2.281193733215332 0.4075329005718231 2458766 0 -1
-1.5684845447540283 2.2785236835479736 0.4289819896221161 2199437 0 -1
-1.5720640420913696 2.2837235927581787 0.38608381152153015 2134668 0 -1
-1.6483118534088135 2.301013469696045 -0.08679403364658356 4456788 0 -1
-1.6473429203033447 2.2996606826782227 -0.13019104301929474 4456788 0 -1
-1.6467127799987793 2.298781156539917 -0.15188956260681152 4456788 0 -1
-1.648650884628296 2.3014867305755615 -0.06509552150964737 4456788 0 -1
-1.5419342517852783 2.3310797214508057 0.45566868782043457 4456788 0 -1
-1.6488929986953735 2.3018245697021484 0.04339701682329178 4664956 0 -1
-1.4951218366622925 2.352588415145874 0.49906569719314575 4017546 0 -1
-1.7488377094268799 2.209326982498169 0.28208062052726746 2977934 0 -1
-1.9528083801269531 2.0506575107574463 -0.02169850841164589 2782862 0 -1
-1.7012509107589722 2.2370386123657227 0.34717613458633423 2782862 0 -1
-1.7258638143539429 2.224464178085327 0.30377912521362305 2458766 0 -1
-1.565280556678772 2.3196325302124023 0.4339701533317566 2458766 0 -1
-1.6868114471435547 2.3083269596099854 -0.17558333277702332 4456788 0 -1
-1.573555588722229 2.3788845539093018 -0.2633749842643738 4456788 0 -1
-1.6839758157730103 2.3044464588165283 -0.24142707884311676 4456788 0 -1
-1.569777488708496 2.3731727600097656 -0.3292187452316284 4456788 0 -1
-1.6802375316619873 2.299330711364746 -0.3072708249092102 4456788 0 -1
-1.6755903959274292 2.29297137260437 -0.37311458587646484 4456788 0 -1
-1.663537859916687 2.2764780521392822 -0.5048021078109741 4456788 0 -1
-1.6679672002792358 2.2825393676757812 -0.4609062373638153 4456788 0 -1
-1.5813195705413818 2.3434011936187744 0.4609062373638153 4456788 0 -1
-1.688748836517334 2.3109781742095947 0.10973957926034927 4664956 0 -1
-1.6520999670028687 2.3063015937805176 0.39506250619888306 4471684 0 -1
-1.448392391204834 2.47078275680542 -0.04389583319425583 3757452 0 -1
-1.4474990367889404 2.4692587852478027 0.10973957926034927 3692940 0 -1
-1.7689392566680908 2.2347214221954346 0.285322904586792 2977934 0 -1
-1.6993310451507568 2.3254594802856445 -0.31076255440711975 4456788 0 -1
-1.5861510038375854 2.397926092147827 -0.35515719652175903 4456788 0 -1
-1.6946312189102173 2.319027900695801 -0.37735453248023987 4456788 0 -1
-1.6890044212341309 2.3113279342651367 -0.4439464807510376 4456788 0 -1
-1.690983533859253 2.3140363693237305 -0.42174917459487915 4456788 0 -1
-1.6847338676452637 2.305483818054199 -0.48834115266799927 4456788 0 -1
-1.665013313293457 2.3243284225463867 -0.46614381670951843 4456788 0 -1
-1.6847338676452637 2.305483818054199 -0.48834115266799927 4456788 0 -1
-1.6123454570770264 2.3893792629241943 -0.2885652184486389 4456788 0 -1
-1.6123454570770264 2.3893792629241943 -0.2885652184486389 4456788 0 -1
-1.635643482208252 2.376085042953491 -0.2663678824901581 4456788 0 -1
-1.5861510038375854 2.397926092147827 -0.35515719652175903 4590430 0 -1
-1.7073867321014404 2.3364832401275635 0.13318394124507904 4664956 0 -1
-1.6670693159103394 2.3271985054016113 0.4439464807510376 4471684 0 -1
-1.7079391479492188 2.3372392654418945 0.1109866201877594 3562893 0 -1
-1.4510220289230347 2.475268602371216 0.3995518386363983 3562893 0 -1
-1.7568881511688232 2.264451265335083 -0.6060617566108704 4456788 0 -1
-1.6858004331588745 2.353346824645996 -0.4489346444606781 4456788 0 -1
-1.772728443145752 2.2395083904266357 -0.6509552597999573 4456788 0 -1
-1.687775731086731 2.3561043739318848 -0.42648792266845703 4456788 0 -1
-1.7508429288864136 2.256659746170044 -0.6509552597999573 4456788 0 -1
-1.6674154996871948 2.374485731124878 -0.40404120087623596 4456788 0 -1
-1.650050163269043 2.3970134258270264 -0.33670100569725037 4456788 0 -1
-1.6858004331588745 2.353346824645996 -0.4489346444606781 4456788 0 -1
-1.7051502466201782 2.3803586959838867 -0.08978693187236786 4456788 0 -1
-1.7051502466201782 2.3803586959838867 -0.08978693187236786 4456788 0 -1
-1.6775143146514893 2.388867139816284 -0.2469140589237213 4456788 0 -1
-1.7027435302734375 2.3769991397857666 -0.17957386374473572 4456788 0 -1
-1.6023945808410645 2.422482967376709 -0.3815944492816925 4590430 0 -1
-1.8603968620300293 2.2574191093444824 0.15712712705135345 4724328 0 -1
-1.750022530555725 2.3475658893585205 -0.08978693187236786 4724328 0 -1
-1.750845193862915 2.3486692905426025 0 4729209 0 -1
-1.687775731086731 2.3561043739318848 0.42648792266845703 4664956 0 -1
-1.75063955783844 2.348393678665161 0.04489346593618393 4536450 0 -1
-1.8586434125900269 2.25529146194458 0.20202060043811798 3887499 0 -1
-1.6394128799438477 2.381560802459717 0.47138139605522156 3887499 0 -1
-1.881036639213562 2.2366483211517334 0.20202060043811798 3757452 0 -1
-1.7407418489456177 2.335116386413574 0.3142542541027069 3757452 0 -1
-1.763059139251709 2.318312644958496 0.3142542541027069 3692940 0 -1
-1.6708050966262817 2.3793129920959473 0.35914772748947144 3692940 0 -1
-1.8405780792236328 2.2789196968078613 0.022446732968091965 3562893 0 -1
-1.6093182563781738 2.432950019836426 0.2693607807159424 3562893 0 -1
-2.1024844646453857 2.0249195098876953 -0.2469140589237213 3107982 0 -1
-1.9750804901123047 2.163041353225708 -0.04489346593618393 3107982 0 -1
-1.8622034788131714 2.259611129760742 0.08978693187236786 3107982 0 -1
-1.6149781942367554 2.441506862640381 -0.11223366111516953 2468738 0 -1
-1.95005464553833 2.180436849594116 0.15712712705135345 5424489 0 -1
-1.8379825353622437 2.2757060527801514 0.15712712705135345 5424489 0 -1
-1.6717544794082642 2.3337388038635254 0.5836150646209717 5424489 0 -1
-1.7443163394927979 2.3870198726654053 -0.18156912922859192 4456788 0 -1
-1.7475515604019165 2.391447067260742 0.02269614115357399 4456788 0 -1
-1.7475515604019165 2.391447067260742 0.02269614115357399 4456788 0 -1
-1.7471410036087036 2.390885353088379 0.06808841973543167 4456788 0 -1
-1.7024292945861816 2.3765604496002197 0.4766189455986023 4664956 0 -1
-1.656626582145691 2.359121799468994 0.6808842420578003 4600703 0 -1
-1.7463197708129883 2.389761447906494 -0.11348070204257965 4536450 0 -1
-1.8835585117340088 2.2855234146118164 -0.04539228230714798 3562893 0 -1
-1.8518272638320923 2.2928481101989746 0.29504984617233276 2782862 0 -1
-1.8744105100631714 2.274423360824585 0.29504984617233276 4505456 0 -1
-1.2839208841323853 2.644456148147583 0.36313825845718384 4505456 0 -1
-1.1360671520233154 2.675981283187866 0.5674034953117371 4505456 0 -1
-1.684739589691162 2.351865768432617 0.6354919672012329 4899181 0 -1
-1.9435994625091553 2.218493938446045 0.2723536789417267 5424489 0 -1
-1.85561203956604 2.297534227371216 0.2269614040851593 5424489 0 -1
-0.5928816795349121 2.8037478923797607 0.7489726543426514 5424489 0 -1
-1.7897002696990967 2.400791645050049 0.022945549339056015 4664956 0 -1
-1.7844910621643066 2.393803596496582 0.22945548593997955 4600703 0 -1
-1.4681761264801025 2.5045316219329834 0.7342575788497925 3562893 0 -1
-2.054459571838379 2.0670511722564697 0.6883664727210999 2070155 0 -1
-1.6513034105300903 2.49642276763916 -0.09178219735622406 2072968 0 -1
-1.8072936534881592 2.4243922233581543 0.13916973769664764 4728182 0 -1
-1.808728575706482 2.426316976547241 0.06958486884832382 4664956 0 -1
-1.8507450819015503 2.4336142539978027 0.11722182482481003 4729209 0 -1
-1.8895487785339355 2.3870887756347656 0.30477675795555115 4664956 0 -1
-1.8278013467788696 2.451902151107788 0.09377746284008026 4664956 0 -1
-2.1546008586883545 2.167806386947632 -0.1406661868095398 2070155 0 -1
-1.9178612232208252 2.374608278274536 0.2109992951154709 2070155 0 -1
-2.132434844970703 2.1921231746673584 -0.09377746284008026 2070922 0 -1
-1.9918348789215088 2.320619821548462 0.09377746284008026 2070922 0 -1
-1.5682790279388428 2.5177664756774902 0.7502197027206421 2072968 0 -1
-2.023418426513672 2.1248056888580322 0.8674415349960327 2139270 0 -1
-1.8709287643432617 2.4601545333862305 -0.09477509558200836 4456788 0 -1
-1.8941102027893066 2.441316843032837 -0.11846886575222015 4456788 0 -1
-1.8927732706069946 2.439593553543091 0.16585642099380493 2070155 0 -1
-1.9149483442306519 2.468175172805786 -0.07182954251766205 4456788 0 -1
-1.9149483442306519 2.468175172805786 -0.07182954251766205 4456788 0 -1
-1.9353504180908203 2.4944710731506348 0.02419259026646614 4456788 0 -1
-1.9507046937942505 2.514261484146118 0.2199779748916626 4456788 0 -1
-1.9507046937942505 2.514261484146118 0.2199779748916626 4456788 0 -1
-2.002772331237793 2.479741334915161 0.12220998853445053 4456788 0 -1
-2.0151054859161377 2.3960628509521484 -0.6110499501228333 4724328 0 -1
-2.0407049655914307 2.476206064224243 0.2962968647480011 4726897 0 -1
-2.0621097087860107 2.451953172683716 0.3456796705722809 4728182 0 -1
-2.0652916431427 2.4557368755340576 0.2962968647480011 4729209 0 -1
-2.054471492767334 2.492910623550415 0.39905303716659546 4590430 0 -1
-2.0627212524414062 2.5029208660125732 0.2743489444255829 4726897 0 -1
-2.0829389095306396 2.4767203330993652 0.34917140007019043 4728182 0 -1
-2.086153268814087 2.4805421829223633 0.2992897629737854 4729209 0 -1
-2.8204801082611084 1.8007146120071411 0.20551231503486633 4456788 0 -1
-2.8491218090057373 1.8190008401870728 0.18156912922859192 4456788 0 -1
-2.8491218090057373 1.8190008401870728 0.18156912922859192 4456788 0 -1
-1.8609224557876587 2.8133227825164795 -0.285322904586792 4456788 0 -1
-2.8999314308166504 1.793182373046875 0.23569069802761078 4456788 0 -1
-2.9013853073120117 1.7940813302993774 0.20950284600257874 4456788 0 -1
-1.8746451139450073 2.834068536758423 -0.366629958152771 4456788 0 -1
-2.8999314308166504 1.793182373046875 0.23569069802761078 4523353 0 -1
-2.9275498390197754 1.81026029586792 0.2379353642463684 4456788 0 -1
-2.9275498390197754 1.81026029586792 0.2379353642463684 4456788 0 -1
-2.0621066093444824 2.7662105560302734 0 4456788 0 -1
-2.9275498390197754 1.81026029586792 0.2379353642463684 4523353 0 -1
-2.9275498390197754 1.81026029586792 0.2379353642463684 4523353 0 -1
-3.127486228942871 1.9967204332351685 0.02843252755701542 4657508 0 -1
-2.946512222290039 2.174954891204834 0.5970830917358398 4657508 0 -1
-2.2758305072784424 2.8750832080841064 0.5686505436897278 4657508 0 -1
3.2480716705322266 1.7427018880844116 -0.42648792266845703 4657508 0 -1
-3.3828330039978027 1.4462649822235107 -0.48335298895835876 4147337 0 -1
-3.2094783782958984 1.8544586896896362 -0.1705951690673828 4017546 0 -1
-2.384894371032715 2.8357605934143066 0.19902770221233368 4017546 0 -1
-2.2868735790252686 2.889033794403076 0.6596845388412476 4657508 0 -1
3.3438451290130615 1.6524674892425537 -0.31550130248069763 4657508 0 -1
-3.3874027729034424 1.525252103805542 -0.4589109718799591 4147337 0 -1
-1.2763350009918213 3.3062515258789062 1.204641342163086 4017546 0 -1
-3.307905435562134 1.7748048305511475 -0.40503883361816406 4147337 0 -1
-2.5887956619262695 2.7185120582580566 -0.40503883361816406 4147337 0 -1
-2.399538516998291 2.9116175174713135 -0.1446567177772522 4147337 0 -1
-2.955293655395508 2.41837477684021 -0.41202226281166077 4456788 0 -1
-2.904665470123291 2.4357776641845703 -0.6180333495140076 4523353 0 -1
-3.0128300189971924 2.2840161323547363 0.6768937110900879 4590430 0 -1
-2.9008989334106445 2.432619333267212 -0.6474635601043701 4590430 0 -1
-2.92990779876709 2.3976008892059326 -0.6474635601043701 4657508 0 -1
-2.9777705669403076 2.436768054962158 0.4451935291290283 4456788 0 -1
-2.9720957279205322 2.432124137878418 0.5045526623725891 4456788 0 -1
-2.9803385734558105 2.4388694763183594 0.4155139625072479 4456788 0 -1
-2.9750232696533203 2.4345197677612305 0.4748730957508087 4456788 0 -1
-2.942122459411621 2.4075965881347656 -0.7419891953468323 4456788 0 -1
-2.9777705669403076 2.436768054962158 0.4451935291290283 4523353 0 -1
-2.9750232696533203 2.4345197677612305 0.4748730957508087 4590430 0 -1
-2.9777705669403076 2.436768054962158 0.4451935291290283 4657508 0 -1
-3.002794027328491 2.457245111465454 0.4489346444606781 4456788 0 -1
-3.000023365020752 2.4549779891967773 0.4788636267185211 4456788 0 -1
-3.0077922344207764 2.4613354206085205 0.38907670974731445 4456788 0 -1
-3.000023365020752 2.4549779891967773 0.4788636267185211 4456788 0 -1
-2.9939370155334473 2.4499974250793457 0.5387215614318848 4456788 0 -1
-3.000023365020752 2.4549779891967773 0.4788636267185211 4523353 0 -1
-3.002794027328491 2.457245111465454 0.4489346444606781 4590430 0 -1
-3.0053834915161133 2.459364175796509 0.41900569200515747 4657508 0 -1
-3.002794027328491 2.457245111465454 0.4489346444606781 4724328 0 -1
-3.0278172492980957 2.47772216796875 0.45267578959465027 4456788 0 -1
-3.0278172492980957 2.47772216796875 0.45267578959465027 4456788 0 -1
-3.030428409576416 2.479858875274658 0.42249739170074463 4456788 0 -1
-3.0278172492980957 2.47772216796875 0.45267578959465027 4456788 0 -1
-3.0278172492980957 2.47772216796875 0.45267578959465027 4456788 0 -1
-3.0250236988067627 2.475435972213745 0.4828541576862335 4523353 0 -1
-3.030428409576416 2.479858875274658 0.42249739170074463 4590430 0 -1
-3.030428409576416 2.479858875274658 0.42249739170074463 4657508 0 -1
-3.0328571796417236 2.481846570968628 0.392318993806839 4724328 0 -1
-3.0226144790649414 2.534686803817749 0.45641690492630005 4456788 0 -1
-3.0198254585266113 2.532348155975342 0.4868446886539459 4456788 0 -1
-2.8669722080230713 2.640258312225342 0.7606948614120483 4456788 0 -1
-3.0438361167907715 2.490830659866333 0.5477002859115601 4456788 0 -1
-2.8625128269195557 2.6361517906188965 0.7911226153373718 4456788 0 -1
-3.0198254585266113 2.532348155975342 0.4868446886539459 4456788 0 -1
-2.8669722080230713 2.640258312225342 0.7606948614120483 4456788 0 -1
-2.879265069961548 2.6515791416168213 0.6694114804267883 4456788 0 -1
-3.0438361167907715 2.490830659866333 0.5477002859115601 4523353 0 -1
-2.8669722080230713 2.640258312225342 0.7606948614120483 4523353 0 -1
-3.0500237941741943 2.495894193649292 0.4868446886539459 4590430 0 -1
-2.8625128269195557 2.6361517906188965 0.7911226153373718 4590430 0 -1
-3.0528404712677 2.498199224472046 0.45641690492630005 4657508 0 -1
-2.8669722080230713 2.640258312225342 0.7606948614120483 4657508 0 -1
-3.0338337421417236 2.5440948009490967 0.3042779266834259 4724328 0 -1
-3.2330188751220703 2.3220369815826416 -0.42948082089424133 4456788 0 -1
-2.8250300884246826 2.5428237915039062 1.257765293121338 4456788 0 -1
-2.965099573135376 2.668900966644287 -0.33744922280311584 4456788 0 -1
-3.2380077838897705 2.325620174407959 -0.36812642216682434 4456788 0 -1
-2.8535940647125244 2.5685343742370605 1.135056495666504 4456788 0 -1
-2.960888624191284 2.6651105880737305 -0.39880362153053284 4523353 0 -1
-3.205247402191162 2.302090883255005 0.6748984456062317 4590430 0 -1
-2.9864420890808105 2.6264307498931885 -0.46015802025794983 4590430 0 -1
-2.825368642807007 2.6612658500671387 0.9816704392433167 4590430 0 -1
-2.791543483734131 2.869680404663086 -0.030677201226353645 4590430 0 -1
-2.9063949584960938 2.616060733795166 0.8589616417884827 4657508 0 -1
-2.5459086894989014 3.089224100112915 0.06135440245270729 4600703 0 -1
-2.20817494392395 3.3382952213287354 0.09203160554170609 4600703 0 -1
3.495558023452759 1.9480087757110596 -0.12270880490541458 4600703 0 -1
-3.0440666675567627 2.614689826965332 -0.4329725205898285 4456788 0 -1
-2.468238592147827 3.1813104152679443 0.2783394753932953 4590430 0 -1
-2.9772510528564453 2.6798384189605713 0.4948257505893707 4657508 0 -1
-2.481116533279419 3.072005033493042 0.8350184559822083 4657508 0 -1
-2.4097249507904053 3.23252272605896 0.18555966019630432 4729209 0 -1
-3.1545140743255615 2.517826557159424 0 4664956 0 -1
-2.99979305267334 2.7001287937164307 -0.03092660941183567 4664956 0 -1
-2.4819746017456055 2.891664981842041 -1.3298442363739014 4600703 0 -1
-2.4819746017456055 2.891664981842041 -1.3298442363739014 4600703 0 -1
-2.347038984298706 3.276423692703247 0.21648626029491425 4600703 0 -1
3.513087749481201 1.957777738571167 -0.3401927053928375 4600703 0 -1
-2.374518632888794 3.185295343399048 -0.7113119959831238 4536450 0 -1
-3.1795804500579834 2.5378334522247314 -0.06235203519463539 4456788 0 -1
-3.114305257797241 2.6115763187408447 -0.18705610930919647 4456788 0 -1
-3.273481845855713 2.4163060188293457 0 4456788 0 -1
-2.431443929672241 3.26165771484375 0.06235203519463539 4456788 0 -1
-2.4904911518096924 3.209991693496704 0.21823212504386902 4590430 0 -1
-3.1176018714904785 2.6143407821655273 0 4657508 0 -1
-2.667802572250366 3.0451254844665527 -0.4052882194519043 4536450 0 -1
-2.394838333129883 3.2772305011749268 -0.2805841565132141 4536450 0 -1
-3.1993653774261475 2.5536253452301025 0.25140342116355896 4456788 0 -1
-2.410041570663452 3.044633388519287 -1.3198678493499756 4456788 0 -1
-2.4720916748046875 3.2506461143493652 -0.37710511684417725 4456788 0 -1
-2.445347785949707 3.280308961868286 0.28282883763313293 4456788 0 -1
-2.4737744331359863 3.252858877182007 0.3456796705722809 4523353 0 -1
-2.349977731704712 3.346489906311035 0.3142542541027069 4523353 0 -1
-2.5104150772094727 3.2356715202331543 0.2199779748916626 4590430 0 -1
-2.3865787982940674 3.331620693206787 0.15712712705135345 4590430 0 -1
-2.4152071475982666 3.3051044940948486 0.25140342116355896 4657508 0 -1
-2.5427680015563965 3.212308168411255 0.18855255842208862 4664956 0 -1
-2.574993133544922 3.1882388591766357 0.15712712705135345 4600703 0 -1
-2.6070849895477295 3.1634557247161865 0.12570171058177948 4536450 0 -1
-2.419757843017578 3.3113317489624023 0 4536450 0 -1
-3.4779670238494873 2.1506125926971436 -0.3142542541027069 3757452 0 -1
-2.218330144882202 3.421344041824341 0.4399559497833252 3757452 0 -1
3.7709403038024902 1.6121928691864014 -0.03142542764544487 3757452 0 -1
-3.419978141784668 2.3201100826263428 0.09502450376749039 4456788 0 -1
-2.5265369415283203 3.256450891494751 0.31674835085868835 4456788 0 -1
-2.398721218109131 3.3485710620880127 0.34842318296432495 4456788 0 -1
-3.3843283653259277 2.3633346557617188 -0.22172383964061737 4456788 0 -1
-2.405691623687744 3.100693464279175 -1.2986681461334229 4456788 0 -1
-2.4443137645721436 3.2789223194122314 0.6018218398094177 4456788 0 -1
-3.2904224395751953 2.4288105964660645 -0.6018218398094177 4456788 0 -1
-2.4211111068725586 3.2477967739105225 0.8235456943511963 4456788 0 -1
-3.2436816692352295 2.5239007472991943 0.44344767928123474 4590430 0 -1
-2.5619683265686035 3.2365641593933105 0.22172383964061737 4590430 0 -1
-2.4331557750701904 3.3296661376953125 0.28507351875305176 4590430 0 -1
-2.467080593109131 3.309462547302246 0.22172383964061737 4657508 0 -1
-2.530339002609253 3.2613515853881836 0.22172383964061737 4664956 0 -1
-2.559553384780884 3.233513593673706 0.28507351875305176 4600703 0 -1
-2.4657461643218994 3.178097724914551 1.0854241847991943 4456788 0 -1
-3.478822946548462 2.2906274795532227 -0.09577272832393646 4590430 0 -1
-2.5839650630950928 3.264353036880493 0.1596212089061737 4590430 0 -1
-2.4535439014434814 3.3575663566589355 0.255393922328949 4590430 0 -1
-2.490017890930176 3.3402316570281982 -0.03192424029111862 4657508 0 -1
-2.4231960773468018 3.1232550144195557 1.4156405925750732 4657508 0 -1
-2.4231960773468018 3.1232550144195557 1.4156405925750732 4657508 0 -1
-2.6356146335601807 3.1980738639831543 0.6756466627120972 4724328 0 -1
-2.546095848083496 3.216512441635132 1.0375378131866455 4657508 0 -1
-2.3981640338897705 3.3477935791015625 0.9726917743682861 4657508 0 -1
-2.65932559967041 3.2268447875976562 0.6484611630439758 4724328 0 -1
-2.549522876739502 3.220841884613037 1.1435363292694092 4657508 0 -1
-2.700326681137085 3.2765960693359375 0.39206960797309875 4724328 0 -1
-0.07318809628486633 4.775217533111572 -0.2933039665222168 4456788 6 -1
0.4704081118106842 4.698938369750977 -0.7699229121208191 4456788 0 -1
-0.43771660327911377 4.740255832672119 -0.7382481098175049 4456788 6 -1
-0.18421493470668793 4.804736614227295 -0.295299232006073 4456788 6 -1
0.36334651708602905 4.7279839515686035 -0.8489853143692017 4456788 0 -1
0.7379012703895569 4.758185863494873 -0.1476496160030365 4456788 0 -1
-0.7079573273658752 4.565098762512207 -1.365759015083313 4456788 0 -1
-0.5047398209571838 4.6779961585998535 -1.033547282218933 4456788 0 -1
0.3996811509132385 4.725051403045654 -0.8489853143692017 4456788 0 -1
0.6233522891998291 4.744627952575684 -0.5536860823631287 4456788 0 -1
-0.6428314447402954 4.616232872009277 -1.218109369277954 4456788 0 -1
-0.36282873153686523 4.721246719360352 -0.885897696018219 4456788 0 -1
0.3265458643436432 4.723895072937012 -0.885897696018219 4456788 0 -1
0.6624699234962463 4.757258892059326 -0.36912405490875244 4456788 0 -1
-0.3305056095123291 4.781177520751953 -0.743236243724823 4456788 6 -1
-0.4370024800300598 4.732522010803223 -0.9662071466445923 4456788 0 -1
-0.18473684787750244 4.818349361419678 -0.5202654004096985 4456788 6 -1
-0.2214932143688202 4.81264066696167 -0.557427167892456 4456788 6 -1
-0.2944532334804535 4.794491291046143 -0.6689126491546631 4456788 6 -1
-0.2941270172595978 4.78917932510376 -0.7060744762420654 4456788 6 -1
-0.3300980031490326 4.775280952453613 -0.7803980708122253 4456788 6 -1
-0.671798825263977 4.8242506980896 0.33670100569725037 4456788 0 -1
0.37053677439689636 4.8215460777282715 0.6734020113945007 4456788 0 -1
0.550775945186615 4.760249137878418 0.9352805018424988 4456788 0 -1
-0.25937575101852417 4.828802108764648 -0.6734020113945007 4456788 6 -1
-0.22255480289459229 4.83570671081543 -0.6359907388687134 4456788 6 -1
0.03737166151404381 4.877119064331055 -0.22446732223033905 4456788 6 -1
-0.2618093490600586 4.87410831451416 0.11223366111516953 4456788 6 -1
-0.2618093490600586 4.87410831451416 -0.11223366111516953 4456788 6 -1
-0.2618477940559387 4.874824047088623 0.07482244074344635 4523353 6 -1
-0.2618477940559387 4.874824047088623 0.07482244074344635 4590430 6 -1
-0.22446073591709137 4.877119064331055 0.037411220371723175 4657508 6 -1
-0.22444096207618713 4.876689434051514 0.07482244074344635 4724328 6 -1
-0.22440801560878754 4.875973701477051 0.11223366111516953 4725613 6 -1
-0.22446732223033905 4.877262592315674 0 4726897 6 -1
0.3372598886489868 4.878886699676514 0.4895881712436676 4456788 0 -1
-0.037642937153577805 4.9125213623046875 -0.1506425142288208 4456788 6 -1
0.3383082449436188 4.894052505493164 0.3012850284576416 4456788 0 -1
-0.18763308227062225 4.8938889503479 -0.4142669141292572 4456788 6 -1
-0.18721655011177063 4.883025169372559 -0.5272487998008728 4456788 6 -1
-0.15028388798236847 4.900969982147217 -0.3389456570148468 4456788 6 -1
-0.263616681098938 4.907755374908447 0.0376606285572052 4456788 6 -1
-0.22595714032649994 4.909633159637451 0.0376606285572052 4456788 6 -1
-0.263616681098938 4.907755374908447 0.0376606285572052 4523353 6 -1
-0.263616681098938 4.907755374908447 0.0376606285572052 4590430 6 -1
-0.22595714032649994 4.909633159637451 0.0376606285572052 4724328 6 -1
-0.22593724727630615 4.909200668334961 0.0753212571144104 4725613 6 -1
-0.2259637713432312 4.909777641296387 0 4726897 6 -1
-0.22595714032649994 4.909633159637451 -0.0376606285572052 4728182 6 -1
-0.26110491156578064 4.8609938621521 -0.6778913140296936 2271109 6 -1
0.44286829233169556 4.796045780181885 -0.9791763424873352 12640037 0 -1
-0.22614766657352448 4.913773059844971 -0.53074049949646 4456788 6 -1
-0.1891937255859375 4.93459415435791 -0.3032802939414978 4456788 6 -1
-0.11356639862060547 4.939096450805664 -0.26537024974823 4456788 6 -1
-0.18845638632774353 4.91536283493042 -0.53074049949646 4456788 6 -1
-0.15142185986042023 4.938080787658691 -0.26537024974823 4456788 6 -1
-0.26524558663368225 4.938080787658691 -0.1516401469707489 4456788 6 -1
-0.1891937255859375 4.93459415435791 -0.3032802939414978 4456788 6 -1
-0.2274535447359085 4.942147254943848 0.037910036742687225 4456788 6 -1
-0.22703246772289276 4.932998180389404 0.3032802939414978 4456788 6 -1
-0.22740012407302856 4.940986633300781 0.11373011022806168 4456788 6 -1
-0.26533910632133484 4.939821720123291 0.07582007348537445 4523353 6 -1
-0.22743351757526398 4.941712379455566 0.07582007348537445 4724328 6 -1
-0.2274535447359085 4.942147254943848 0.037910036742687225 4725613 6 -1
-0.22746022045612335 4.9422926902771 0 4726897 6 -1
-0.2274535447359085 4.942147254943848 -0.037910036742687225 4728182 6 -1
-0.26661378145217896 4.963552951812744 -0.305275559425354 4456788 6 -1
-0.22828355431556702 4.960181713104248 -0.3815944492816925 4456788 6 -1
-0.22828355431556702 4.960181713104248 -0.3815944492816925 4456788 6 -1
-0.22852610051631927 4.965452194213867 -0.305275559425354 4456788 6 -1
-0.22871457040309906 4.969547271728516 -0.2289566695690155 4456788 6 -1
-0.18984827399253845 4.951666355133057 -0.49607279896736145 4456788 6 -1
-0.15227439999580383 4.965883255004883 -0.34343501925468445 4456788 6 -1
-0.15241806209087372 4.9705681800842285 -0.26711612939834595 4456788 6 -1
-0.15247638523578644 4.972470283508301 -0.2289566695690155 4456788 6 -1
-0.3427891433238983 4.958874225616455 -0.305275559425354 4456788 6 -1
-0.15218903124332428 4.963099479675293 -0.3815944492816925 4456788 6 -1
-0.11426305025815964 4.969394683837891 -0.305275559425354 4456788 6 -1
-0.3037572503089905 4.945985794067383 -0.49607279896736145 4456788 6 -1
-0.30437806248664856 4.956094264984131 -0.3815944492816925 4456788 6 -1
-0.07620903104543686 4.972320556640625 -0.26711612939834595 4456788 6 -1
-0.07613719999790192 4.967634201049805 -0.34343501925468445 4456788 6 -1
0.19074681401252747 4.975102424621582 0.11447833478450775 4456788 0 -1
-0.07620903104543686 4.972320556640625 -0.26711612939834595 4456788 6 -1
-1.025180697441101 4.848097324371338 -0.49607279896736145 4456788 0 -1
-0.7630993127822876 4.9206695556640625 -0.0763188898563385 4456788 0 -1
0.30483612418174744 4.963552951812744 0.26711612939834595 4456788 0 -1
-0.2161719799041748 4.697019577026367 -1.640856146812439 4725613 0 -1
-0.3790655732154846 4.932525634765625 0.5723916888237 6933851 6 -1
-0.30694591999053955 4.99790620803833 -0.23045311868190765 4456788 6 -1
-0.2684749364852905 4.998201847076416 -0.2688619792461395 4456788 6 -1
-0.23020943999290466 5.002027988433838 -0.23045311868190765 4456788 6 -1
-0.23012138903141022 5.000114440917969 -0.2688619792461395 4456788 6 -1
-0.23012138903141022 5.000114440917969 -0.2688619792461395 4456788 6 -1
-0.19158707559108734 4.997017860412598 -0.3456796705722809 4456788 6 -1
-0.3442152738571167 4.9795050621032715 -0.4609062373638153 4456788 6 -1
-0.2297755926847458 4.99260139465332 -0.38408854603767395 4456788 6 -1
0 5.007322788238525 -0.23045311868190765 4456788 6 -1
-0.2687356472015381 5.003055572509766 -0.1536354124546051 4456788 6 -1
-0.1148877963423729 4.996565341949463 -0.38408854603767395 4456788 6 -1
-0.07663482427597046 5.0001020431518555 -0.3456796705722809 4456788 6 -1
0.19195404648780823 5.006589412689209 0.1536354124546051 4456788 0 -1
-0.2680715322494507 4.990691661834717 -0.38408854603767395 4456788 6 -1
-0.22046774625778198 4.790358543395996 -1.4595364332199097 4456788 0 -1
-0.7294253706932068 4.9568867683410645 -0.1536354124546051 3887499 0 -1
-0.23126764595508575 5.025021076202393 -0.386582612991333 4456788 6 -1
-0.2317792773246765 5.036137580871582 -0.1932913064956665 4456788 6 -1
-0.19328562915325165 5.041320323944092 0.0386582612991333 4456788 6 -1
-0.4630267322063446 5.014351844787598 0.3092660903930664 4456788 6 -1
-0.1544104516506195 5.035542964935303 -0.2706078290939331 4456788 6 -1
-0.35007649660110474 5.064294815063477 0.11672300845384598 4456788 6 -1
-0.3890310227870941 5.062199115753174 -0.07781533896923065 4456788 6 -1
-0.37311261892318726 4.8550639152526855 -1.4395837783813477 4456788 0 -1
-0.23343916237354279 5.072204113006592 -0.038907669484615326 4456788 6 -1
-0.31117910146713257 5.06683349609375 -0.11672300845384598 4456788 6 -1
-0.27196162939071655 5.063113689422607 -0.2723536789417267 4456788 6 -1
-0.23338434100151062 5.071012496948242 0.11672300845384598 4456788 6 -1
-0.23319917917251587 5.066989421844482 0.23344601690769196 4456788 6 -1
-0.1945326328277588 5.073844909667969 0.038907669484615326 4456788 6 -1
-0.155626118183136 5.0751872062683105 -0.038907669484615326 4456788 6 -1
-0.155626118183136 5.0751872062683105 0.038907669484615326 4456788 6 -1
-0.155626118183136 5.0751872062683105 0.038907669484615326 4456788 6 -1
-0.3886652886867523 5.057440280914307 0.23344601690769196 4456788 6 -1
-0.19451551139354706 5.073398113250732 0.07781533896923065 4456788 6 -1
-0.3915247917175293 5.094649314880371 -0.0783141553401947 4456788 6 -1
-0.39138680696487427 5.092853546142578 0.1566283106803894 4456788 6 -1
-0.3521549701690674 5.094362735748291 0.19578538835048676 4456788 6 -1
-0.3520410656929016 5.092714786529541 0.2349424660205841 4456788 6 -1
-0.18587282299995422 4.847977638244629 -1.6054402589797974 4456788 0 -1
-0.39100712537765503 5.0879130363464355 0.27409955859184265 4456788 6 -1
-0.23438313603401184 5.092714786529541 0.35241371393203735 4456788 6 -1
-0.23469404876232147 5.099470138549805 0.2349424660205841 4456788 6 -1
-0.23438313603401184 5.092714786529541 0.35241371393203735 4456788 6 -1
-0.23410643637180328 5.086702346801758 0.43072786927223206 4456788 6 -1
-0.23438313603401184 5.092714786529541 0.35241371393203735 4456788 6 -1
-0.23425175249576569 5.089859962463379 0.3915707767009735 4456788 6 -1
-0.23483209311962128 5.102469444274902 0.1566283106803894 4456788 6 -1
-0.19550356268882751 5.09916877746582 0.27409955859184265 4456788 6 -1
-0.19569340348243713 5.10412073135376 0.1566283106803894 4456788 6 -1
-0.23450064659118652 5.0952677726745605 0.3132566213607788 4456788 6 -1
-0.23460426926612854 5.097519397735596 0.27409955859184265 4456788 6 -1
-0.3938797414302826 5.1252923011779785 0.1576259434223175 4456788 6 -1
-0.4326561689376831 5.1148834228515625 0.315251886844635 4456788 6 -1
-0.19674880802631378 5.13164758682251 0.27584540843963623 4456788 6 -1
-0.3544917404651642 5.128167152404785 0.1576259434223175 4456788 6 -1
-0.3141300678253174 5.1148834228515625 0.43347135186195374 4456788 6 -1
-0.2748638093471527 5.117143630981445 0.43347135186195374 4456788 6 -1
-0.39349761605262756 5.120319843292236 0.27584540843963623 4456788 6 -1
-0.23609855771064758 5.129987716674805 0.27584540843963623 4456788 6 -1
-0.2746768295764923 5.1136627197265625 0.4728778302669525 4456788 6 -1
-0.1947050243616104 5.078341007232666 0.7881297469139099 4456788 6 -1
-0.2354372888803482 5.115619659423828 0.4728778302669525 4456788 6 -1
-0.15557190775871277 5.07342004776001 -0.8275362253189087 4456788 6 -1
-0.15755188465118408 5.1379899978637695 -0.1576259434223175 4456788 6 -1
-0.27564287185668945 5.13164758682251 -0.19703243672847748 4456788 6 -1
-0.23643197119235992 5.137232303619385 0.039406485855579376 4456788 6 -1
-0.43589457869529724 5.153168201446533 0.198279470205307 4456788 6 -1
-0.4349323809146881 5.1417927742004395 0.396558940410614 4456788 6 -1
-0.39613962173461914 5.154698848724365 0.2379353642463684 4456788 6 -1
-0.4349323809146881 5.1417927742004395 0.396558940410614 4456788 6 -1
-0.39514780044555664 5.1417927742004395 0.4362148344516754 4456788 6 -1
-0.39514780044555664 5.1417927742004395 0.4362148344516754 4456788 6 -1
-0.3953930735588074 5.144984245300293 0.396558940410614 4456788 6 -1
-0.39514780044555664 5.1417927742004395 0.4362148344516754 4456788 6 -1
-0.35539111495018005 5.141177177429199 0.4758707284927368 4456788 6 -1
-0.4351763427257538 5.14467716217041 0.3569030463695526 4456788 6 -1
-0.27660346031188965 5.14953088760376 0.4362148344516754 4456788 6 -1
-0.3958131968975067 5.150451183319092 0.3172471523284912 4456788 6 -1
-0.3959881067276001 5.152727127075195 0.2775912582874298 4456788 6 -1
-0.31541648507118225 5.135829448699951 -0.5551825165748596 4456788 6 -1
-0.5026378035545349 5.020883083343506 -1.150020956993103 4456788 0 -1
-0.11879643052816391 5.166554927825928 -0.2775912582874298 4456788 6 -1
-0.27746084332466125 5.165492534637451 -0.1586235761642456 4456788 6 -1
-0.27738747000694275 5.164126396179199 -0.198279470205307 4456788 6 -1
-0.2772977352142334 5.162456035614014 -0.2379353642463684 4456788 6 -1
-0.3161182403564453 5.147256374359131 -0.4362148344516754 4456788 6 -1
-0.31679049134254456 5.158201694488525 -0.2775912582874298 4456788 6 -1
-0.35876795649528503 5.190027713775635 -0.23943181335926056 4456788 6 -1
-0.3588840365409851 5.191707134246826 0.19952651858329773 4456788 6 -1
-0.4376678168773651 5.174131393432617 0.39905303716659546 4456788 6 -1
-0.3983025848865509 5.1828436851501465 0.3192424178123474 4456788 6 -1
-0.3970682919025421 5.166782855987549 0.5187689065933228 4456788 6 -1
-0.39787983894348145 5.177342891693115 0.39905303716659546 4456788 6 -1
-0.39763301610946655 5.174131393432617 0.4389583170413971 4456788 6 -1
-0.3578697144985199 5.177033424377441 0.4389583170413971 4456788 6 -1
-0.3576262593269348 5.173511981964111 0.4788636267185211 4456788 6 -1
-0.3970682919025421 5.166782855987549 0.5187689065933228 4456788 6 -1
-0.39736253023147583 5.170611381530762 0.4788636267185211 4456788 6 -1
-0.31652238965034485 5.153836727142334 0.6783901453018188 4456788 6 -1
-0.3591371774673462 5.195368766784668 -0.039905302226543427 4456788 6 -1
-0.3174002468585968 5.168130397796631 -0.5586742162704468 4456788 6 -1
-0.19905149936676025 5.191707134246826 -0.35914772748947144 4456788 6 -1
-0.27920588850975037 5.197979927062988 -0.1596212089061737 4456788 6 -1
-0.3184823989868164 5.185750961303711 -0.35914772748947144 4456788 6 -1
-0.3192049264907837 5.197515487670898 -0.07981060445308685 4456788 6 -1
-0.32029324769973755 5.215236663818359 -0.4015471041202545 4456788 6 -1
-0.3611270785331726 5.224155426025391 0.20077355206012726 4456788 6 -1
-0.3981257975101471 5.180543899536133 0.6826300621032715 4456788 6 -1
-0.3595949709415436 5.201991558074951 0.5220112204551697 4456788 6 -1
-0.3593069911003113 5.1978254318237305 0.5621659755706787 4456788 6 -1
-0.3496481776237488 5.058098793029785 -1.3251054286956787 4456788 0 -1
-0.3995499610900879 5.199075222015381 0.5220112204551697 4456788 6 -1
-0.3981257975101471 5.180543899536133 0.6826300621032715 4456788 6 -1
-0.24021995067596436 5.219537734985352 0.4015471041202545 4456788 6 -1
-0.3612968921661377 5.226612091064453 -0.12046413123607635 4456788 6 -1
-0.3613499701023102 5.22737979888916 -0.0803094208240509 4456788 6 -1
-0.3613499701023102 5.22737979888916 -0.0803094208240509 4456788 6 -1
-0.3198768198490143 5.208456039428711 -0.4818565249443054 4456788 6 -1
-0.32063356041908264 5.220777988433838 -0.3212376832962036 4456788 6 -1
-0.28025659918785095 5.217541217803955 -0.4015471041202545 4456788 6 -1
-0.3212282657623291 5.2304606437683105 0.04015471041202545 4456788 6 -1
-0.31881436705589294 5.191156387329102 -0.6424753665924072 4456788 6 -1
-0.3166404962539673 5.155759811401367 -0.8834036588668823 4456788 6 -1
-0.31620967388153076 5.148744583129883 -0.9235583543777466 4456788 0 -1
-0.36234307289123535 5.241746425628662 0.44444531202316284 4456788 6 -1
-0.20068177580833435 5.234228134155273 0.6060617566108704 4456788 6 -1
-0.15989454090595245 5.214386940002441 0.7676782608032227 4456788 6 -1
-0.3190208673477173 5.19451904296875 0.8484864830970764 4456788 6 -1
-0.15989454090595245 5.214386940002441 0.7676782608032227 4456788 6 -1
-0.19912950694561005 5.193741321563721 0.8888906240463257 4456788 6 -1
-0.24059593677520752 5.227707386016846 0.6464658975601196 4456788 6 -1
-0.20008985698223114 5.218789577484131 0.7272741198539734 4456788 6 -1
-0.1993880569934845 5.2004852294921875 0.8484864830970764 4456788 6 -1
-0.3635943531990051 5.259847640991211 0.08080823719501495 4456788 6 -1
-0.2791432738304138 5.19681453704834 -0.8484864830970764 4456788 6 -1
-0.3186072111129761 5.1877827644348145 -0.8888906240463257 4456788 6 -1
-0.3231949806213379 5.262484550476074 -0.08080823719501495 4456788 6 -1
-0.3213677406311035 5.232731819152832 -0.5656576752662659 4456788 6 -1
-4.388524055480957 2.535719394683838 -1.4545482397079468 4456788 0 -1
-0.2017342448234558 5.261679172515869 0.650456428527832 4456788 6 -1
-0.4850272238254547 5.252606391906738 0.569149374961853 4456788 6 -1
-0.32013773918151855 5.212704181671143 0.9350311160087585 4456788 6 -1
-0.16105997562408447 5.25239372253418 0.731763482093811 4456788 6 -1
-0.40220388770103455 5.233608722686768 0.7724170088768005 4456788 6 -1
-0.20086658000946045 5.239048004150391 0.81307053565979 4456788 6 -1
-0.24103988707065582 5.237353801727295 0.81307053565979 4456788 6 -1
-0.28154271841049194 5.241484642028809 0.7724170088768005 4456788 6 -1
-0.2415899783372879 5.2493062019348145 0.731763482093811 4456788 6 -1
-0.24103988707065582 5.237353801727295 0.81307053565979 4456788 6 -1
-4.593713760375977 2.6542794704437256 0.0406535267829895 4456788 0 -1
-0.32443544268608093 5.282682418823242 -0.6953498721122742 4456788 6 -1
-0.4866531491279602 5.270214557647705 0.6953498721122742 4456788 6 -1
-0.28416064381599426 5.290222644805908 0.6544469594955444 4456788 6 -1
-0.40369924902915955 5.253067493438721 0.8589616417884827 4456788 6 -1
-0.24221955239772797 5.262985706329346 0.8589616417884827 4456788 6 -1
-0.3233582079410553 5.265142440795898 0.8180587291717529 4456788 6 -1
-0.32373711466789246 5.2713117599487305 0.7771557569503784 4456788 6 -1
-0.2832699716091156 5.273641109466553 0.7771557569503784 4456788 6 -1
-0.2832699716091156 5.273641109466553 0.7771557569503784 4456788 6 -1
-0.20315933227539062 5.2988481521606445 0.6135440468788147 4456788 6 -1
-0.04089813306927681 5.337334632873535 0.08180586993694305 4456788 6 -1
-1.0195670127868652 5.2238569259643555 0.40902936458587646 4456788 0 -1
-0.24535275995731354 5.331064701080322 -0.12270880490541458 4456788 6 -1
-0.08110886067152023 5.292014122009277 -0.6953498721122742 4456788 6 -1
-4.6220316886901855 2.6706416606903076 0 4456788 0 -1
-0.4854060113430023 5.25670862197876 -0.9876562356948853 4456788 0 -1
-0.32532989978790283 5.297246932983398 0.823046863079071 4456788 6 -1
-0.32571110129356384 5.3034539222717285 0.7818945050239563 4456788 6 -1
-0.28499722480773926 5.305797576904297 0.7818945050239563 4456788 6 -1
-0.28531330823898315 5.311682224273682 0.7407422065734863 4456788 6 -1
-0.16320686042308807 5.32240629196167 0.6995898485183716 4456788 6 -1
-0.16379067301750183 5.341445446014404 0.5349804759025574 4456788 6 -1
-2.866847515106201 4.24846076965332 -1.6049413681030273 4456788 0 -1
-2.7975196838378906 4.229260444641113 -1.7695508003234863 4456788 0 -1
-0.3231218755245209 5.261293888092041 1.02880859375 4456788 6 -1
-2.82757568359375 4.274698734283447 -1.6049413681030273 4456788 0 -1
-3.579307794570923 4.002172470092773 -0.12345702946186066 4456788 0 -1
-0.2831535041332245 5.271472930908203 0.9876562356948853 4456788 6 -1
-4.650214672088623 2.6869261264801025 0 4456788 0 -1
-3.5764682292938232 3.998997211456299 0.2469140589237213 4456788 0 -1
-3.577625274658203 4.000290870666504 -0.20576171576976776 4657508 0 -1
-0.2860356867313385 5.325130939483643 0.8694368004798889 4456788 6 -1
-0.3276851177215576 5.335596084594727 0.7866332530975342 4456788 6 -1
-0.2457638382911682 5.339996337890625 0.7866332530975342 4456788 6 -1
-0.20544715225696564 5.358520030975342 0.6624280214309692 4456788 6 -1
-0.2048031985759735 5.341724395751953 0.7866332530975342 4456788 6 -1
-2.898319721221924 4.295100212097168 -1.5318647623062134 4456788 0 -1
-2.844712495803833 4.300605773925781 -1.6146682500839233 4456788 0 -1
-0.3245745599269867 5.284947395324707 1.0764455795288086 4456788 6 -1
-4.674962997436523 2.701225757598877 0.20700876414775848 4456788 0 -1
-3.536954402923584 4.037206172943115 -0.6210262775421143 4456788 0 -1
-3.8485538959503174 3.788926124572754 0.1656070053577423 4657508 0 -1
-3.0678658485412598 4.282684803009033 1.2006508111953735 4664956 0 -1
-3.078458309173584 4.29747200012207 1.1178473234176636 4600703 0 -1
-2.870424747467041 4.516641139984131 0.7452315092086792 4600703 0 -1
-0.41296279430389404 5.373607635498047 0.7080697417259216 4456788 6 -1
-0.45160603523254395 5.33890962600708 0.9163255095481873 4456788 6 -1
-0.45425906777381897 5.370274066925049 0.7080697417259216 4456788 6 -1
-0.28811413049697876 5.36382532119751 0.833023190498352 4456788 6 -1
-0.24695497751235962 5.365877628326416 0.833023190498352 4456788 6 -1
-0.24724434316158295 5.372165203094482 0.7913720607757568 4456788 6 -1
-0.20626546442508698 5.379863262176514 0.7497208714485168 4456788 6 -1
-4.699805736541748 2.7155802249908447 0.2915581166744232 4456788 0 -1
-3.905399799346924 3.596569299697876 1.1662324666976929 4456788 0 -1
-3.8621697425842285 3.80233097076416 -0.416511595249176 4456788 0 -1
-3.4520697593688965 4.1887664794921875 0.2915581166744232 4456788 0 -1
-3.4032416343688965 4.213738441467285 -0.45816275477409363 4726897 0 -1
-3.156181812286377 4.405972480773926 0.416511595249176 4664956 0 -1
-3.430967330932617 4.163160800933838 0.6664185523986816 4600703 0 -1
-3.2765023708343506 4.308395862579346 0.49981391429901123 4600703 0 -1
-3.0917749404907227 4.316061496734619 1.1662324666976929 4600703 0 -1
-3.1477456092834473 4.30755090713501 1.0412789583206177 4147337 0 -1
-2.928969621658325 4.517367839813232 0.7497208714485168 4147337 0 -1
-0.24926137924194336 5.415991306304932 0.7123096585273743 4456788 6 -1
-4.736385822296143 2.541233539581299 -1.0056136846542358 4456788 0 -1
-4.549001216888428 2.9042763710021973 -0.8799118995666504 4456788 0 -1
-3.4276669025421143 4.243980884552002 -0.37710511684417725 4726897 0 -1
-3.4546995162963867 4.191957473754883 0.6285085082054138 4600703 0 -1
-3.17584490776062 4.346003532409668 0.9637130498886108 4147337 0 -1
-3.014968156814575 4.4679646492004395 0.9218124747276306 4147337 0 -1
-2.1643900871276855 4.982255935668945 0.6285085082054138 2718350 0 -1
-3.28151535987854 4.401985168457031 0.3371998071670532 4536450 0 -1
-3.1176328659057617 4.528957843780518 0.1685999035835266 4536450 0 -1
-3.5810647010803223 4.172178268432617 0.1685999035835266 2718350 0 -1
-3.1430063247680664 4.475803375244141 0.5900996923446655 2718350 0 -1
-3.1616039276123047 4.5022873878479 0.5935913920402527 3692940 0 -1
-2.9806690216064453 4.597104072570801 -0.9809222221374512 4456788 0 -1
-2.9515738487243652 4.462157726287842 -1.5353565216064453 4456788 0 -1
-0.334871768951416 5.452613830566406 1.0662198066711426 4456788 6 -1
-3.213691234588623 4.486254692077637 0.725029468536377 3692940 0 -1
-4.584257125854492 3.844240427017212 -0.275346577167511 4456788 0 -1
-4.585740566253662 3.8454840183258057 -0.22945548593997955 4456788 0 -1
-4.567776203155518 3.9234745502471924 0.046140506863594055 4456788 0 -1
-3.4510552883148193 5.1142144203186035 -0.42648792266845703 4726897 0 -1
-3.4692187309265137 5.141131401062012 -0.42873260378837585 4726897 0 -1
-3.3775765895843506 5.005324363708496 -1.7328877449035645 3432845 0 -1
-3.1075093746185303 5.0904436111450195 -1.9735666513442993 3432845 0 -1
-3.09909725189209 5.076663494110107 -2.021702289581299 3302798 0 -1
-3.387192964553833 5.019575119018555 -1.790251612663269 3562893 0 -1
-3.169545888900757 5.0884928703308105 -1.9837923049926758 3562893 0 -1
-3.387192964553833 5.019575119018555 -1.790251612663269 3432845 0 -1
-3.4027276039123535 5.042596340179443 -1.6934813261032104 3302798 0 -1
-3.4027276039123535 5.042596340179443 -1.6934813261032104 3238030 0 -1
-3.123610496520996 5.116818904876709 -1.9837923049926758 3238030 0 -1
-3.4125773906707764 5.057192802429199 -1.750845193862915 3432845 0 -1
-3.420267343521118 5.068589210510254 -1.702210545539856 3302798 0 -1
-3.4277243614196777 5.079639434814453 -1.6535760164260864 3238030 0 -1
-4.534106731414795 4.76129674911499 -0.05038044601678848 4456788 0 -1
-4.605152130126953 4.734053134918213 0.20251941680908203 4456788 0 -1
-4.574291706085205 4.803494930267334 0.305275559425354 4456788 0 -1
-4.008300304412842 5.166294097900391 1.3293453454971313 4456788 0 -1
-4.469761371612549 4.997825622558594 0.05137807875871658 4456788 0 -1
-4.491459369659424 5.0220866203308105 0.05162748694419861 4456788 0 -1
-4.51116943359375 5.044125080108643 0.20750758051872253 4456788 0 -1
-4.580511569976807 5.016421318054199 0.3648841083049774 4456788 0 -1
-5.307485580444336 4.34321928024292 0.36837583780288696 4456788 0 -1
-5.307485580444336 4.34321928024292 0.36837583780288696 4456788 0 -1
-5.302483081817627 4.339125633239746 0.473626047372818 4523353 0 -1
-5.299510478973389 4.336693286895752 0.5262511968612671 4590430 0 -1
-5.37401008605957 4.289353370666504 0.5816197991371155 4456788 0 -1
-5.321323871612549 4.354543685913086 0.5816197991371155 4456788 0 -1
-5.324626922607422 4.357246398925781 0.5287452340126038 4523353 0 -1
-5.370354652404785 4.286435127258301 0.6344943046569824 4590430 0 -1
