VERSION .7
FIELDS x y z rgb label object
SIZE 4 4 4 4 4 4
TYPE F F F I I I
COUNT 1 1 1 1 1 1
WIDTH 680
HEIGHT 1
POINTS 680
VIEWPOINT 0 0 0 1 0 0 0
DATA ascii
-1.0980064868927002 2.4158389568328857 0.2863205373287201 4456788 0 -1
-1.8193254470825195 1.9512146711349487 -0.08180586993694305 4456788 0 -1
-1.3866112232208252 2.2714221477508545 -0.20451468229293823 4456788 0 -1
-1.247393012046814 2.3592824935913086 0.04090293496847153 4456788 0 -1
-1.9535759687423706 1.7990915775299072 -0.2658690810203552 4456788 0 -1
-1.7579998970031738 2.0066440105438232 0.08180586993694305 4456788 0 -1
-1.3293453454971313 2.314458131790161 0 4456788 0 -1
-1.891011118888855 1.8617125749588013 -0.2863205373287201 4456788 0 -1
-1.778807520866394 1.9889583587646484 -0.06135440245270729 4456788 0 -1
-1.308279037475586 2.3249924182891846 -0.08180586993694305 4456788 0 -1
-1.9668898582458496 1.7704074382781982 -0.3476749360561371 4456788 0 -1
-1.5394567251205444 2.1490535736083984 -0.36812642216682434 4456788 0 -1
-1.3892292976379395 2.2757110595703125 -0.12270880490541458 4456788 0 -1
-2.1230618953704834 1.4402832984924316 -0.7362528443336487 4456788 0 -1
-1.6620956659317017 1.976316213607788 -0.6748984456062317 4456788 0 -1
-1.568008542060852 2.103403329849243 -0.4908352196216583 4456788 0 -1
-1.501991868019104 2.1819305419921875 -0.3272234797477722 4456788 0 -1
-1.5236949920654297 2.1698203086853027 -0.30677202343940735 4456788 0 -1
-1.5561614036560059 2.129538059234619 -0.40902936458587646 4456788 0 -1
-1.5406932830810547 2.108370780944824 -0.5521896481513977 4456788 0 -1
-1.9909614324569702 1.7509539127349854 -0.30677202343940735 4725613 0 -1
-1.5613455772399902 2.1366324424743652 -0.3476749360561371 4725613 0 -1
-1.39004647731781 2.2770495414733887 -0.08180586993694305 4725613 0 -1
-1.8531994819641113 1.9050716161727905 -0.24541760981082916 4726897 0 -1
-1.3848084211349487 2.2684690952301025 -0.24541760981082916 4726897 0 -1
-1.5479059219360352 2.1182408332824707 -0.4908352196216583 3302798 0 -1
-1.3826748132705688 2.2649738788604736 -0.2863205373287201 3302798 0 -1
-1.466267704963684 2.2166879177093506 -0.24541760981082916 2782862 0 -1
-1.3293453454971313 2.314458131790161 0 2782862 0 -1
-1.6607472896575928 2.015162706375122 0.5521896481513977 10672695 0 -1
-1.8007646799087524 2.013509511947632 -0.04140175133943558 4456788 0 -1
-1.8404297828674316 1.9738489389419556 -0.12420525401830673 4456788 0 -1
-1.4035210609436035 2.2991225719451904 -0.20700876414775848 4456788 0 -1
-1.2626051902770996 2.388054132461548 0.04140175133943558 4456788 0 -1
-1.9979979991912842 1.798408031463623 -0.26911139488220215 4456788 0 -1
-1.4276893138885498 2.2920591831207275 -0.08280350267887115 4456788 0 -1
-1.1946792602539062 2.4081132411956787 0.26911139488220215 4456788 0 -1
-1.8964126110076904 1.9080356359481812 -0.24841050803661346 4456788 0 -1
-1.78022301197052 2.032010316848755 -0.02070087566971779 4456788 0 -1
-1.78022301197052 2.032010316848755 -0.02070087566971779 4456788 0 -1
-1.3445690870285034 2.340963363647461 -0.10350438207387924 4456788 0 -1
-2.0319254398345947 1.7453148365020752 -0.3519148826599121 4456788 0 -1
-1.6009109020233154 2.1475400924682617 -0.3519148826599121 4456788 0 -1
-1.3662577867507935 2.3306710720062256 0 4456788 0 -1
-1.589395523071289 2.1320929527282715 -0.47612014412879944 4456788 0 -1
-1.4456114768981934 2.2746834754943848 -0.1863078773021698 4456788 0 -1
-1.5436066389083862 2.1981756687164307 -0.28981226682662964 4456788 0 -1
-1.6245313882827759 2.136157274246216 -0.31051313877105713 4456788 0 -1
-1.591560959815979 2.134997844696045 -0.45541927218437195 4456788 0 -1
-1.566782832145691 2.144073009490967 -0.49682101607322693 4456788 0 -1
-1.9017391204833984 1.9133946895599365 -0.14490613341331482 4725613 0 -1
-1.4268500804901123 2.2907116413116455 -0.12420525401830673 4725613 0 -1
-1.880237102508545 1.932866096496582 -0.1656070053577423 4726897 0 -1
-1.4061710834503174 2.3034634590148926 -0.12420525401830673 4726897 0 -1
-1.4273117780685425 2.2914528846740723 -0.10350438207387924 4728182 0 -1
-1.9231457710266113 1.8933494091033936 -0.12420525401830673 4341894 0 -1
-1.9231457710266113 1.8933494091033936 -0.12420525401830673 4341894 0 -1
-1.40728759765625 2.3052923679351807 -0.062102627009153366 4341894 0 -1
-2.102757692337036 1.5940934419631958 -0.5796245336532593 3302798 0 -1
-1.9140721559524536 1.8844163417816162 -0.28981226682662964 3302798 0 -1
-1.5769846439361572 2.158033847808838 -0.3933166265487671 3302798 0 -1
-1.5769846439361572 2.158033847808838 -0.3933166265487671 3302798 0 -1
-1.365615963935852 2.329576253890991 -0.08280350267887115 2782862 0 -1
-1.8835585117340088 1.936280369758606 0.04140175133943558 10672695 0 -1
-1.6365079879760742 2.1092936992645264 0.41401752829551697 10672695 0 -1
-2.3243889808654785 1.4372937679290771 0.08380113542079926 4456788 0 -1
-1.864356279373169 1.9995099306106567 0.04190056771039963 4456788 0 -1
-1.0914280414581299 2.4559295177459717 0.5028068423271179 4456788 0 -1
-1.9996215105056763 1.8414957523345947 -0.2933039665222168 4456788 0 -1
-1.843408465385437 2.01883864402771 -0.04190056771039963 4456788 0 -1
-1.756514310836792 2.0885848999023438 0.1676022708415985 4456788 0 -1
-1.756514310836792 2.0885848999023438 0.1676022708415985 4456788 0 -1
-1.230830430984497 2.428471326828003 0.25140342116355896 4456788 0 -1
-1.9217596054077148 1.9335378408432007 -0.20950284600257874 4456788 0 -1
-1.3817036151885986 2.3570199012756348 -0.10475142300128937 4456788 0 -1
-2.150437116622925 1.6302390098571777 -0.4399559497833252 4456788 0 -1
-1.6201989650726318 2.1734142303466797 -0.35615482926368713 4456788 0 -1
-1.5055837631225586 2.276125431060791 -0.1676022708415985 4456788 0 -1
-1.3826781511306763 2.35868239402771 0.020950283855199814 4456788 0 -1
-2.0012242794036865 1.8429718017578125 -0.2723536789417267 4456788 0 -1
-1.6629557609558105 2.1008312702178955 -0.5447073578834534 4456788 0 -1
-1.483928918838501 2.288672685623169 -0.18855255842208862 4456788 0 -1
-1.483928918838501 2.288672685623169 -0.18855255842208862 4456788 0 -1
-1.5608582496643066 2.222742795944214 -0.3142542541027069 4456788 0 -1
-1.64410400390625 2.1618940830230713 -0.3142542541027069 4456788 0 -1
-1.5921504497528076 2.1787877082824707 -0.4399559497833252 4456788 0 -1
-1.58792245388031 2.173001766204834 -0.4818565249443054 4456788 0 -1
-1.58792245388031 2.173001766204834 -0.4818565249443054 4523353 0 -1
-2.0127556324005127 1.8116915225982666 -0.37710511684417725 4725613 0 -1
-2.0127556324005127 1.8116915225982666 -0.37710511684417725 4725613 0 -1
-1.5338032245635986 2.228142499923706 -0.39805540442466736 4725613 0 -1
-1.4225685596466064 2.330324411392212 -0.1466519832611084 4725613 0 -1
-1.5048292875289917 2.2749850749969482 -0.18855255842208862 4726897 0 -1
-1.4242428541183472 2.3330671787261963 -0.06285085529088974 4728182 0 -1
-1.2755639553070068 2.412564277648926 0.1676022708415985 4728182 0 -1
-1.9437378644943237 1.913622498512268 -0.18855255842208862 4341894 0 -1
-1.606252670288086 2.1547060012817383 -0.5028068423271179 4212104 0 -1
-1.5646148920059204 2.228092670440674 -0.25140342116355896 3302798 0 -1
-1.4246193170547485 2.333683729171753 0 3302798 0 -1
-2.3910601139068604 1.3815709352493286 -0.1695975363254547 4456788 0 -1
-1.6504663228988647 2.2140161991119385 0.1695975363254547 4456788 0 -1
-2.2677676677703857 1.5836210250854492 0.06359907984733582 4456788 0 -1
-1.8229594230651855 2.0807912349700928 -0.04239938408136368 4456788 0 -1
-1.8642032146453857 2.041612386703491 -0.1059984639286995 4456788 0 -1
-1.9467037916183472 1.9586350917816162 -0.1695975363254547 4456788 0 -1
-1.8443732261657715 2.062270164489746 0 4456788 0 -1
-1.8231199979782104 2.0809743404388428 -0.02119969204068184 4456788 0 -1
-1.7164305448532104 1.9591952562332153 -0.9327864646911621 4456788 0 -1
-1.5836983919143677 2.2108142375946045 -0.5087926387786865 4456788 0 -1
-1.8223170042037964 2.0800578594207764 -0.08479876816272736 4657508 0 -1
-1.689940333366394 2.1781623363494873 0.23319661617279053 4657508 0 -1
-1.8223170042037964 2.0800578594207764 -0.08479876816272736 4725613 0 -1
-1.6707885265350342 2.1969826221466064 0.19079722464084625 4725613 0 -1
-1.3354237079620361 2.422708511352539 -0.04239938408136368 4725613 0 -1
-1.588809609413147 2.262547016143799 0.1059984639286995 3887499 0 -1
-1.6511956453323364 2.2149946689605713 0.14839784801006317 2523534 0 -1
-1.883224368095398 2.0197458267211914 -0.1695975363254547 2666112 0 -1
-1.7375580072402954 2.151365041732788 0.08479876816272736 2666112 0 -1
-1.6619423627853394 2.2294108867645264 0.32173651456832886 4456788 0 -1
-1.6706215143203735 2.241053342819214 0.15014369785785675 4456788 0 -1
-1.8437559604644775 2.1045291423797607 -0.08579640090465546 4456788 0 -1
-1.844406008720398 2.105271100997925 -0.04289820045232773 4456788 0 -1
-1.5872334241867065 2.305760145187378 0 4590430 0 -1
-1.522841453552246 2.3486876487731934 -0.021449100226163864 4724328 0 -1
-1.5860681533813477 2.304067373275757 -0.10724549740552902 3107982 0 -1
-1.5442898273468018 2.3346409797668457 0.021449100226163864 2977934 0 -1
-1.5864877700805664 2.3046767711639404 -0.08579640090465546 2912910 0 -1
-1.5871868133544922 2.305692434310913 -0.021449100226163864 2718350 0 -1
-1.5849485397338867 2.302441120147705 -0.15014369785785675 2588302 0 -1
-1.586814045906067 2.3051509857177734 -0.0643472969532013 2523534 0 -1
-1.5688526630401611 2.3249261379241943 -0.3905731439590454 4456788 0 -1
-1.5546568632125854 2.303889036178589 -0.5424627065658569 4456788 0 -1
-1.5443893671035767 2.2886734008789062 -0.6292567253112793 4456788 0 -1
-1.4993380308151245 2.3124382495880127 -0.6509552597999573 4456788 0 -1
-1.5832469463348389 2.346257448196411 -0.08679403364658356 4456788 0 -1
-1.496801495552063 2.4030139446258545 0.06509552150964737 4456788 0 -1
-1.4964936971664429 2.402519941329956 0.08679403364658356 4456788 0 -1
-1.5181820392608643 2.388873815536499 0.08679403364658356 4657508 0 -1
-1.5376968383789062 2.3715994358062744 -0.17358806729316711 4724328 0 -1
-1.5188510417938232 2.3899264335632324 0.02169850841164589 4726897 0 -1
-1.5404131412506104 2.375788688659668 0.04339701682329178 4728182 0 -1
-1.627197027206421 2.3172125816345215 -0.04339701682329178 3107982 0 -1
-1.6056424379348755 2.332502841949463 -0.02169850841164589 2977934 0 -1
-1.582828164100647 2.3456368446350098 -0.10849253833293915 2912910 0 -1
-1.6052653789520264 2.3319549560546875 -0.06509552150964737 2718350 0 -1
-1.6056896448135376 2.332571268081665 0 2588302 0 -1
-1.5832469463348389 2.346257448196411 -0.08679403364658356 2523534 0 -1
-1.6049352884292603 2.3314754962921143 -0.08679403364658356 2458766 0 -1
-1.5651472806930542 2.366173028945923 0.39506250619888306 4456788 0 -1
-1.577120304107666 2.3371782302856445 -0.5048021078109741 4456788 0 -1
-1.525680422782898 2.3065073490142822 -0.7462291717529297 4456788 0 -1
-1.6240981817245483 2.3593132495880127 -0.021947916597127914 4456788 0 -1
-1.5581190586090088 2.4030966758728027 -0.04389583319425583 4456788 0 -1
-1.5352262258529663 2.4156930446624756 0.10973957926034927 4456788 0 -1
-1.5341426134109497 2.4139881134033203 0.1536354124546051 4456788 0 -1
-1.5553715229034424 2.3988590240478516 0.17558333277702332 4657508 0 -1
-1.6005038022994995 2.371830940246582 0.1316874921321869 4724328 0 -1
-1.5581190586090088 2.4030966758728027 0.04389583319425583 4726897 0 -1
-1.4920639991760254 2.4441654682159424 -0.06584374606609344 4728182 0 -1
-1.6005038022994995 2.371830940246582 -0.1316874921321869 2718350 0 -1
-1.6448851823806763 2.3424015045166016 0.10973957926034927 2588302 0 -1
-1.5299959182739258 2.4563052654266357 -0.13318394124507904 4456788 0 -1
-1.548283576965332 2.436239004135132 0.24417057633399963 4456788 0 -1
-1.5927691459655762 2.3603687286376953 -0.5327357649803162 4456788 0 -1
-1.5935087203979492 2.4090495109558105 0.2219732403755188 4456788 0 -1
-1.6421679258346558 2.3855631351470947 0.06659197062253952 4456788 0 -1
-1.5752695798873901 2.4295480251312256 0.08878929913043976 4456788 0 -1
-1.6386914253234863 2.3805127143859863 0.19977591931819916 4456788 0 -1
-1.551576018333435 2.4414196014404297 0.15538127720355988 4456788 0 -1
-1.551576018333435 2.4414196014404297 0.15538127720355988 4456788 0 -1
-1.5737414360046387 2.4271910190582275 0.15538127720355988 4523353 0 -1
-1.61997652053833 2.4006879329681396 0.06659197062253952 4724328 0 -1
-1.5758249759674072 2.4304046630859375 0.04439464956521988 4726897 0 -1
-1.5312106609344482 2.4582557678222656 -0.06659197062253952 4728182 0 -1
-1.5713766813278198 2.423543930053711 -0.2219732403755188 4729209 0 -1
-1.4865220785140991 2.484840154647827 -0.08878929913043976 4664956 0 -1
-1.5752695798873901 2.4295480251312256 -0.08878929913043976 4017546 0 -1
-1.5743435621261597 2.4281198978424072 -0.13318394124507904 3432845 0 -1
-1.5405738353729248 2.424107551574707 0.37735453248023987 2134668 0 -1
-1.548642635345459 2.486241579055786 -0.04489346593618393 4456788 0 -1
-1.6579344272613525 2.4084670543670654 0.17957386374473572 4456788 0 -1
-1.517569899559021 2.4859471321105957 0.3142542541027069 4456788 0 -1
-1.5484153032302856 2.4858765602111816 -0.0673401951789856 4456788 0 -1
-1.5422632694244385 2.4759998321533203 -0.2693607807159424 4456788 0 -1
-1.7455363273620605 2.295271158218384 -0.5162748694419861 4456788 0 -1
-1.624650001525879 2.407613754272461 -0.3815944492816925 4456788 0 -1
-1.5709104537963867 2.4228248596191406 0.4938281178474426 4456788 0 -1
-1.5907208919525146 2.453378677368164 0.17957386374473572 4456788 0 -1
-1.6593018770217896 2.4104533195495605 0.1346803903579712 4456788 0 -1
-1.5899238586425781 2.4521493911743164 0.20202060043811798 4456788 0 -1
-1.6123172044754028 2.437483787536621 0.20202060043811798 4456788 0 -1
-1.6144558191299438 2.4407172203063965 0.1346803903579712 4456788 0 -1
-1.5907208919525146 2.453378677368164 0.17957386374473572 4523353 0 -1
-1.5712251663208008 2.4723377227783203 0.022446732968091965 4726897 0 -1
-1.6608631610870361 2.4127213954925537 0.04489346593618393 4728182 0 -1
-1.548642635345459 2.486241579055786 -0.04489346593618393 4728182 0 -1
-1.6374084949493408 2.426520824432373 -0.11223366111516953 4729209 0 -1
-1.6598386764526367 2.4112331867218018 -0.11223366111516953 4147337 0 -1
-1.570533037185669 2.4712488651275635 -0.08978693187236786 4147337 0 -1
-1.6149781942367554 2.441506862640381 -0.11223366111516953 4017546 0 -1
-1.6830600500106812 2.3967645168304443 -0.0673401951789856 3432845 0 -1
-1.5914238691329956 2.454462766647339 -0.15712712705135345 3432845 0 -1
-1.6381784677505493 2.4276621341705322 -0.0673401951789856 3302798 0 -1
-1.6606192588806152 2.412367105484009 0.0673401951789856 2523534 0 -1
-1.678281307220459 2.4380247592926025 0.11348070204257965 4456788 0 -1
-1.539663314819336 2.5221385955810547 0.2042652666568756 4456788 0 -1
-1.5604610443115234 2.5052151679992676 -0.2496575564146042 4456788 0 -1
-1.6566237211227417 2.4549965858459473 0.04539228230714798 4456788 0 -1
-1.5356616973876953 2.5155832767486572 -0.29504984617233276 4456788 0 -1
-1.4069955348968506 2.6061031818389893 0.04539228230714798 4456788 0 -1
-1.6201989650726318 2.449399471282959 -0.38583439588546753 4456788 0 -1
-1.606252670288086 2.4283156394958496 0.5447073578834534 4456788 0 -1
-1.6128277778625488 2.438255786895752 0.4766189455986023 4456788 0 -1
-1.6167114973068237 2.444127321243286 0.4312266707420349 4456788 0 -1
-1.6840745210647583 2.3982090950012207 0.4312266707420349 4456788 0 -1
-1.587049961090088 2.4972381591796875 0.13617683947086334 4456788 0 -1
-1.7401994466781616 2.3813860416412354 0.2723536789417267 4456788 0 -1
-1.644319772720337 2.436763048171997 0.36313825845718384 4456788 0 -1
-1.6302317380905151 2.464566946029663 0.2042652666568756 4456788 0 -1
-1.678281307220459 2.4380247592926025 0.11348070204257965 4523353 0 -1
-1.6777385473251343 2.4372360706329346 -0.13617683947086334 4726897 0 -1
-1.5887298583984375 2.4998815059661865 0 4726897 0 -1
-1.7014108896255493 2.4228971004486084 -0.09078456461429596 4017546 0 -1
-1.6333544254302979 2.469287872314453 -0.09078456461429596 4017546 0 -1
-1.6567696332931519 2.4552128314971924 -0.02269614115357399 3302798 0 -1
-1.5328320264816284 2.562250852584839 -0.22945548593997955 4456788 0 -1
-1.628436803817749 2.461853504180908 -0.5048021078109741 4456788 0 -1
-1.623903751373291 2.455000400543213 0.550693154335022 4456788 0 -1
-1.6305512189865112 2.465049982070923 0.4818565249443054 4456788 0 -1
-1.8100889921188354 2.3801538944244385 -0.1606188416481018 4456788 0 -1
-1.6979706287384033 2.4666271209716797 0 4456788 0 -1
-1.6971728801727295 2.465468168258667 -0.09178219735622406 4456788 0 -1
-1.7438105344772339 2.4343278408050537 0.022945549339056015 4523353 0 -1
-1.6472225189208984 2.490253448486328 -0.22945548593997955 4523353 0 -1
-1.51947820186615 2.4890730381011963 0.8118234872817993 4456788 0 -1
-1.6535497903823853 2.402097225189209 0.8118234872817993 4456788 0 -1
-1.718744158744812 2.3993356227874756 0.6726537346839905 4456788 0 -1
-1.718744158744812 2.3993356227874756 0.6726537346839905 4456788 0 -1
-1.7074053287506104 2.4314334392547607 0.5798739194869995 4456788 0 -1
-1.6365596055984497 2.4741334915161133 0.6030688881874084 4456788 0 -1
-1.8091535568237305 2.426887035369873 -0.02319495752453804 4456788 0 -1
-1.716225266456604 2.49314546585083 0.04638991504907608 4456788 0 -1
-1.7858020067214966 2.443791151046753 0.04638991504907608 4523353 0 -1
-1.6695955991744995 2.5240769386291504 -0.06958486884832382 4523353 0 -1
-1.6466485261917114 2.5396361351013184 -0.04638991504907608 4590430 0 -1
-1.7665905952453613 2.466128349304199 0.3985542058944702 4456788 0 -1
-1.7809346914291382 2.486152410507202 0.09377746284008026 4456788 0 -1
-1.6877961158752441 2.5515921115875244 0.04688873142004013 4523353 0 -1
-1.7699637413024902 2.470837116241455 -0.3516654670238495 4724328 0 -1
-1.643458366394043 2.484562873840332 0.8292820453643799 4456788 0 -1
-1.5555391311645508 2.548144817352295 0.8055883049964905 4456788 0 -1
-1.5640325546264648 2.510948896408081 0.9003633856773376 4456788 0 -1
-1.7871426343917847 2.494818687438965 -0.37910038232803345 4456788 0 -1
-1.6792501211166382 2.53867244720459 -0.5449568033218384 4456788 0 -1
-1.7988227605819702 2.5111238956451416 0.14216263592243195 4456788 0 -1
-1.8715883493423462 2.461021661758423 0.04738754779100418 4523353 0 -1
-1.8002510070800781 2.513117551803589 0.07108131796121597 4590430 0 -1
-2.1019837856292725 2.3020217418670654 -0.21548862755298615 4456788 0 -1
-1.6223427057266235 2.657576560974121 -0.2633749842643738 4456788 0 -1
-1.601883888244629 2.6776766777038574 -0.1676022708415985 4456788 0 -1
-2.1986303329467773 2.2121055126190186 -0.19154545664787292 4456788 0 -1
-2.1517844200134277 2.259603500366211 -0.1676022708415985 4456788 0 -1
-1.6637309789657593 2.465528964996338 0.9577272534370422 4456788 0 -1
-1.580496072769165 2.5373799800872803 0.9098408818244934 4456788 0 -1
-1.7785764932632446 2.532784938812256 -0.4309772551059723 4456788 0 -1
-1.8279167413711548 2.5014233589172363 0.40703409910202026 4456788 0 -1
-1.9393408298492432 2.4499917030334473 0.023943182080984116 2199437 0 -1
-1.6392420530319214 2.6852595806121826 -0.26611849665641785 4456788 0 -1
-1.7930114269256592 2.5533409118652344 -0.4838517904281616 4456788 0 -1
-1.8450261354446411 2.524836778640747 0.43546661734580994 4456788 0 -1
-1.8450261354446411 2.524836778640747 0.43546661734580994 4456788 0 -1
-1.8450261354446411 2.524836778640747 0.43546661734580994 4456788 0 -1
-1.7353309392929077 2.6764116287231445 -0.024441998451948166 4456788 0 -1
-1.8297024965286255 2.6055908203125 0.19553598761558533 4456788 0 -1
-1.8483529090881348 2.5802671909332275 0.31774598360061646 4456788 0 -1
-1.8312114477157593 2.6077399253845215 0.1466519832611084 4456788 0 -1
-1.793489933013916 2.5540223121643066 -0.6599339246749878 4456788 0 -1
-1.8468725681304932 2.578200578689575 0.3421879708766937 4456788 0 -1
-1.8640469312667847 2.550865888595581 0.4399559497833252 4456788 0 -1
-1.8619818687438965 2.5480399131774902 0.46439796686172485 4456788 0 -1
-1.8816324472427368 2.524113893508911 0.5132819414138794 4456788 0 -1
-1.8695613145828247 2.5584120750427246 0.366629958152771 4456788 0 -1
-1.8468725681304932 2.578200578689575 0.3421879708766937 4456788 0 -1
-1.8509854078292847 2.635899066925049 0.09876562654972076 4456788 0 -1
-1.8760509490966797 2.6189332008361816 -0.07407421618700027 4456788 0 -1
-1.9003450870513916 2.6005382537841797 0.09876562654972076 4456788 0 -1
-1.8498972654342651 2.6343493461608887 0.14814843237400055 4456788 0 -1
-1.8672137260437012 2.6065964698791504 0.320988267660141 4456788 0 -1
-1.8672137260437012 2.6065964698791504 0.320988267660141 4456788 0 -1
-1.8868958950042725 2.5821337699890137 0.39506250619888306 4456788 0 -1
-1.854380488395691 2.58868145942688 0.4938281178474426 4456788 0 -1
-1.8944728374481201 2.5925023555755615 0.2716054618358612 4456788 0 -1
-1.7758549451828003 2.528909206390381 1.0225733518600464 4456788 0 -1
-1.8581645488739014 2.646122455596924 0.37411221861839294 4456788 0 -1
-1.8447858095169067 2.7338390350341797 -0.3815944492816925 4456788 0 -1
-1.9169386625289917 2.676011562347412 -0.43247371912002563 4456788 0 -1
-1.8441649675369263 2.523658275604248 1.1193437576293945 4456788 0 -1
-1.7757387161254883 2.6845428943634033 0.8140681982040405 4456788 0 -1
-1.9313675165176392 2.6961541175842285 0.152637779712677 4657508 0 -1
-1.864478349685669 2.7630221843719482 -0.3596465289592743 4456788 0 -1
-1.8628718852996826 2.760641574859619 -0.3853355646133423 4456788 0 -1
-1.890019178390503 2.745614528656006 -0.3596465289592743 4456788 0 -1
-1.8929357528686523 2.7498512268066406 -0.3082684576511383 4456788 0 -1
-1.9000957012176514 2.7602524757385254 -0.10275615751743317 4456788 0 -1
-1.8974138498306274 2.756356716156006 -0.20551231503486633 4456788 0 -1
-1.8441729545593262 2.78800106048584 -0.2568903863430023 4456788 0 -1
-1.917095422744751 2.7300429344177246 -0.3339574933052063 4456788 0 -1
-1.8430290222167969 2.786271572113037 -0.2825794219970703 4456788 0 -1
-1.8942242860794067 2.751723051071167 -0.2825794219970703 4523353 0 -1
-1.886648416519165 2.740717649459839 -0.41102463006973267 4725613 0 -1
-1.921013593673706 2.7356226444244385 -0.2568903863430023 4726897 0 -1
-1.853461742401123 2.692507743835449 -0.744982123374939 2782862 0 -1
-1.3654954433441162 3.0043697357177734 -0.590847909450531 2782862 0 -1
-2.792415142059326 1.7827967405319214 0.5137807726860046 2006409 0 -1
-1.8825801610946655 2.7898476123809814 -0.36313825845718384 4456788 0 -1
-1.9126148223876953 2.7784388065338135 -0.285322904586792 4456788 0 -1
-1.8867686986923218 2.7960546016693115 -0.285322904586792 4456788 0 -1
-1.9174154996871948 2.7854127883911133 -0.1556306779384613 4456788 0 -1
-1.9148753881454468 2.7817227840423584 -0.23344601690769196 4456788 0 -1
-1.8631219863891602 2.816648006439209 -0.23344601690769196 4456788 0 -1
-1.9384609460830688 2.7604687213897705 -0.285322904586792 4456788 0 -1
-1.8921164274215698 2.8039796352386475 -0.1296922266483307 4456788 0 -1
-1.8609224557876587 2.8133227825164795 -0.285322904586792 4456788 0 -1
-1.913801908493042 2.780163526535034 -0.2593844532966614 4523353 0 -1
-1.9083689451217651 2.772270917892456 -0.36313825845718384 4725613 0 -1
-1.9148753881454468 2.7817227840423584 -0.23344601690769196 4726897 0 -1
-1.9083689451217651 2.772270917892456 -0.36313825845718384 4341894 0 -1
-2.0545146465301514 2.4929628372192383 -1.0115994215011597 2782862 0 -1
-1.855549693107605 2.7497904300689697 -0.6743996143341064 2782862 0 -1
-2.841649055480957 1.7571431398391724 0.5447073578834534 2006409 0 -1
-1.8122652769088745 2.632661819458008 1.1153532266616821 2006409 0 -1
-1.8828113079071045 2.846414089202881 -0.1833149790763855 4456788 0 -1
-1.8819797039031982 2.8451569080352783 -0.20950284600257874 4456788 0 -1
-1.9322038888931274 2.8068957328796387 -0.2618785500526428 4456788 0 -1
-1.9096919298171997 2.8300254344940186 -0.15712712705135345 4456788 0 -1
-1.881036639213562 2.843731164932251 -0.23569069802761078 4456788 0 -1
-1.9071621894836426 2.8262765407562256 -0.23569069802761078 4523353 0 -1
-2.090603828430176 2.8608992099761963 0.9864091873168945 4456788 0 -1
-2.1223716735839844 2.847053289413452 0.9582260847091675 4456788 0 -1
-3.1137304306030273 2.236360788345337 -0.23544128239154816 4456788 0 -1
-2.942929744720459 2.467865228652954 0.02943016029894352 4456788 0 -1
-2.6871497631073 2.7036190032958984 0.4708825647830963 4456788 0 -1
3.416851758956909 1.4608091115951538 -0.9711952805519104 4456788 0 -1
-3.082747459411621 2.2141079902648926 0.5886031985282898 4456788 0 -1
3.370130777359009 1.8081908226013184 -0.35316193103790283 4456788 0 -1
-3.164992570877075 2.147128105163574 0.35316193103790283 4456788 0 -1
3.417353391647339 1.6887938976287842 -0.4708825647830963 4456788 0 -1
-2.896951913833618 2.429309368133545 -0.6768937110900879 4523353 0 -1
-2.1960878372192383 2.945939540863037 1.118346095085144 4725613 0 -1
3.5601084232330322 1.4387120008468628 -0.08829048275947571 4725613 0 -1
3.514054536819458 1.502366304397583 -0.3825920820236206 4726897 0 -1
-2.93748140335083 2.463296413421631 -0.23544128239154816 2782862 0 -1
-3.7080914974212646 1.0006256103515625 0.02943016029894352 2271109 0 -1
-3.519052267074585 1.5045028924942017 0.32373178005218506 2271109 0 -1
-2.4045066833496094 2.801409959793091 1.0594857931137085 2271109 0 -1
-3.49385142326355 1.5731829404830933 0.2648714482784271 4899181 0 -1
-3.2822718620300293 1.8965193033218384 0.6180333495140076 4899181 0 -1
-3.645331859588623 1.2928828001022339 0.20775698125362396 4456788 0 -1
-2.9648187160491943 2.486220598220825 0.17807741463184357 4456788 0 -1
-2.662189245223999 2.7367055416107178 0.6529505252838135 4456788 0 -1
-3.1445562839508057 2.258500814437866 0.11871827393770218 4456788 0 -1
3.48844313621521 1.4097504615783691 -0.9200666546821594 4456788 0 -1
-2.344571113586426 2.9029409885406494 1.0387848615646362 4456788 0 -1
-3.1223015785217285 2.2425169944763184 0.4748730957508087 4456788 0 -1
-2.4765617847442627 2.9447576999664307 0.4451935291290283 4456788 0 -1
3.61824893951416 1.3745567798614502 -0.14839784801006317 4456788 0 -1
-2.967869758605957 2.488779306411743 0.029679568484425545 4456788 0 -1
-2.9508302211761475 2.4744904041290283 0.4155139625072479 4456788 0 -1
-2.953195571899414 2.476473808288574 0.38583439588546753 4456788 0 -1
-2.9482877254486084 2.472358226776123 0.4451935291290283 4523353 0 -1
-2.953195571899414 2.476473808288574 0.38583439588546753 4590430 0 -1
-3.6715049743652344 1.204929232597351 0.26711612939834595 4726897 0 -1
-2.9132423400878906 2.502318859100342 0.5045526623725891 4726897 0 -1
-3.4918928146362305 1.6497730016708374 0.29679569602012634 2782862 0 -1
-2.744272232055664 2.701753616333008 0.4155139625072479 2782862 0 -1
-3.5564215183258057 1.520479440689087 0.20775698125362396 2271109 0 -1
-3.5214850902557373 1.5856256484985352 0.29679569602012634 4899181 0 -1
-2.2714858055114746 2.92771577835083 1.1278235912322998 4899181 0 -1
-2.9857726097106934 2.5037920475006104 0.2693607807159424 4456788 0 -1
-2.9897329807281494 2.507113218307495 0.17957386374473572 4456788 0 -1
-3.1421735286712646 2.3193812370300293 -0.05985795333981514 4456788 0 -1
-2.8610100746154785 2.634767770767212 0.35914772748947144 4456788 0 -1
-3.141066074371338 2.318563938140869 0.11971590667963028 4456788 0 -1
-2.970320224761963 2.4908342361450195 -0.4788636267185211 4456788 0 -1
-3.0693752765655518 2.2045040130615234 0.9876562356948853 4456788 0 -1
-2.395019292831421 2.7903566360473633 -1.3168749809265137 4456788 0 -1
-2.26194167137146 2.9743120670318604 1.1373010873794556 4456788 0 -1
3.560047149658203 1.3524460792541504 0.8679403066635132 4456788 0 -1
-3.022737979888916 2.4735655784606934 0.02992897666990757 4456788 0 -1
-2.9756271839141846 2.4952845573425293 0.41900569200515747 4456788 0 -1
-2.9756271839141846 2.4952845573425293 0.41900569200515747 4456788 0 -1
-3.0053834915161133 2.459364175796509 0.41900569200515747 4523353 0 -1
-2.9756271839141846 2.4952845573425293 0.41900569200515747 4590430 0 -1
-3.013939619064331 2.4663658142089844 0.2992897629737854 4726897 0 -1
-3.013939619064331 2.4663658142089844 0.2992897629737854 4341894 0 -1
-3.6808319091796875 1.3054734468460083 0.05985795333981514 2782862 0 -1
-3.48685622215271 1.7231409549713135 0.35914772748947144 2782862 0 -1
-3.316331386566162 1.983670949935913 0.5686505436897278 2782862 0 -1
-2.732694625854492 2.7494430541992188 0.4788636267185211 2782862 0 -1
-3.516658306121826 1.6614736318588257 0.35914772748947144 4899181 0 -1
-2.985466718673706 2.5643556118011475 0.15089192986488342 4456788 0 -1
-3.015622854232788 2.5288238525390625 0.15089192986488342 4456788 0 -1
-2.9862565994262695 2.5650341510772705 0.12071353942155838 4456788 0 -1
-3.167893171310425 2.3383660316467285 -0.09053515642881393 4456788 0 -1
-2.913625955581665 2.443291664123535 1.0260651111602783 4456788 0 -1
-3.168943166732788 2.08658766746521 1.0562435388565063 4456788 0 -1
-3.0121631622314453 2.5259225368499756 0.24142707884311676 4456788 0 -1
-3.0436291694641113 2.490661382675171 0.21124869585037231 4456788 0 -1
-3.035104513168335 2.4836854934692383 0.36214062571525574 4456788 0 -1
-3.030428409576416 2.479858875274658 0.42249739170074463 4456788 0 -1
-3.0278172492980957 2.47772216796875 0.45267578959465027 4456788 0 -1
-3.030428409576416 2.479858875274658 0.42249739170074463 4523353 0 -1
-2.9978389739990234 2.5139105319976807 0.45267578959465027 4590430 0 -1
-3.0407605171203613 2.488313913345337 0.2716054618358612 4725613 0 -1
-3.0422849655151367 2.4895613193511963 0.24142707884311676 4726897 0 -1
-3.0407605171203613 2.488313913345337 0.2716054618358612 4341894 0 -1
-3.71150541305542 1.3163524866104126 0.06035676971077919 2782862 0 -1
-3.3476762771606445 2.002419948577881 0.5432109236717224 2782862 0 -1
-2.787990093231201 2.7447941303253174 0.45267578959465027 2782862 0 -1
-3.510496139526367 1.7348233461380005 0.42249739170074463 4899181 0 -1
-2.7137937545776367 2.7897543907165527 0.6035677194595337 4899181 0 -1
-3.0101399421691895 2.5855486392974854 0.15213896334171295 4456788 0 -1
-2.026898145675659 3.3881216049194336 0.4259890913963318 4456788 0 -1
-0.4366406500339508 3.7738001346588135 1.1562561988830566 4456788 0 -1
-3.16300368309021 2.397862434387207 0.12171117216348648 4456788 0 -1
-3.1951329708099365 2.103832244873047 1.0649727582931519 4456788 0 -1
-2.9263484477996826 2.6340208053588867 0.5172724723815918 4456788 0 -1
-3.0528404712677 2.498199224472046 0.45641690492630005 4456788 0 -1
-2.8492727279663086 2.683781623840332 0.6694114804267883 4456788 0 -1
-2.8371078968048096 2.67232346534729 0.7606948614120483 4456788 0 -1
-3.0500237941741943 2.495894193649292 0.4868446886539459 4456788 0 -1
-2.8326950073242188 2.6681668758392334 0.7911226153373718 4456788 0 -1
-3.0500237941741943 2.495894193649292 0.4868446886539459 4523353 0 -1
-2.8326950073242188 2.6681668758392334 0.7911226153373718 4523353 0 -1
-3.02079439163208 2.471975326538086 0.7302670478820801 4590430 0 -1
-3.047022581100464 2.493438243865967 0.5172724723815918 4725613 0 -1
-2.828101873397827 2.6638405323028564 0.8215504288673401 4725613 0 -1
-3.0622713565826416 2.5059165954589844 0.33470574021339417 4726897 0 -1
-3.579923629760742 1.69136381149292 0.3042779266834259 2782862 0 -1
-2.7555413246154785 2.772429943084717 0.6998392343521118 2782862 0 -1
-2.3397791385650635 3.0157389640808105 1.0954005718231201 2782862 0 -1
-2.5198869705200195 2.8175899982452393 -1.3191196918487549 4456788 0 -1
-2.3171374797821045 2.9865562915802 1.3191196918487549 4456788 0 -1
-3.1525166034698486 2.2642180919647217 0.9816704392433167 4456788 0 -1
-2.8032727241516113 2.5815961360931396 -1.2270880937576294 4456788 0 -1
-2.860722064971924 2.634502410888672 0.9509932398796082 4456788 0 -1
-2.855109214782715 2.62933349609375 0.9816704392433167 4523353 0 -1
-3.251688003540039 2.3354454040527344 -0.030677201226353645 4590430 0 -1
-3.895890235900879 0.9218564629554749 0.030677201226353645 4725613 0 -1
-2.96694016456604 2.670557737350464 0.30677202343940735 4725613 0 -1
-3.609267473220825 1.7052274942398071 0.30677202343940735 2782862 0 -1
-3.0604169368743896 2.5663869380950928 0.27609482407569885 2782862 0 -1
-2.7138609886169434 2.849844217300415 0.7362528443336487 2782862 0 -1
-2.4183106422424316 3.055079936981201 0.9203160405158997 2782862 0 -1
-2.5622572898864746 2.924652099609375 -1.0824313163757324 4456788 0 -1
-2.3033061027526855 3.2153735160827637 -0.8040918707847595 4456788 0 -1
-3.1603336334228516 2.3327860832214355 0.9277982711791992 4456788 0 -1
-3.2773544788360596 2.353879928588867 0.09277983009815216 4456788 0 -1
-2.9990885257720947 2.6994946002960205 -0.09277983009815216 4456788 0 -1
-3.2778356075286865 2.3542253971099854 0.06185321882367134 4456788 0 -1
-3.2781243324279785 2.3544328212738037 0.03092660941183567 4523353 0 -1
-2.414342164993286 3.1747093200683594 -0.6185321807861328 4725613 0 -1
-2.374976873397827 3.2500510215759277 -0.592344343662262 4456788 0 -1
-3.238877534866333 2.4553821086883545 -0.18705610930919647 4456788 0 -1
-3.022697925567627 2.658315896987915 0.592344343662262 4726897 0 -1
-2.310581684112549 3.2903878688812256 0.6235203742980957 4726897 0 -1
-3.0322017669677734 2.6666743755340576 0.49881628155708313 4728182 0 -1
-2.377610921859741 3.253655433654785 0.5611683130264282 4728182 0 -1
-2.377610921859741 3.253655433654785 0.5611683130264282 4728182 0 -1
-2.295551061630249 3.3347270488739014 0.4052882194519043 4729209 0 -1
-2.3265719413757324 3.3131589889526367 0.4052882194519043 4664956 0 -1
-2.2024881839752197 3.396911144256592 0.4052882194519043 4664956 0 -1
-3.126912832260132 2.6221487522125244 -0.4085305333137512 4456788 0 -1
-2.8242170810699463 2.9657297134399414 -0.2199779748916626 4456788 0 -1
-2.385128974914551 3.2639434337615967 0.6913593411445618 4456788 0 -1
-2.336198091506958 3.196984052658081 1.0684645175933838 4456788 0 -1
-2.577500104904175 3.1275572776794434 0.6285085082054138 4456788 0 -1
-3.362421751022339 2.348036766052246 0.03142542764544487 4456788 0 -1
-2.2890830039978027 3.325330972671509 0.7227848172187805 4523353 0 -1
-2.336825370788574 3.3277602195739746 0.5342322587966919 4726897 0 -1
-3.056459426879883 2.6880078315734863 0.5028068423271179 4728182 0 -1
-2.3966317176818848 3.2796847820281982 0.5656576752662659 4728182 0 -1
-3.115767240524292 2.612802267074585 0.5342322587966919 4729209 0 -1
-2.3156301975250244 3.3638956546783447 0.37710511684417725 4729209 0 -1
-3.160522222518921 2.5863170623779297 0.37710511684417725 4664956 0 -1
-2.2602381706237793 3.417004108428955 0.18855255842208862 4664956 0 -1
-2.403721809387207 3.2893869876861572 0.47138139605522156 4600703 0 -1
-2.291630268096924 3.3960304260253906 0.18855255842208862 4600703 0 -1
-1.0650792121887207 3.7113125324249268 1.3827186822891235 4600703 0 -1
3.668691635131836 1.7333029508590698 -0.5970830917358398 4600703 0 -1
-2.2885947227478027 3.3915317058563232 0.28282883763313293 4536450 0 -1
-2.363409996032715 3.234222173690796 0.8799118995666504 2458766 0 -1
-2.374945640563965 3.2500083446502686 0.7856356501579285 2328718 0 -1
-3.1581711769104004 2.6483612060546875 -0.31674835085868835 4456788 0 -1
-2.6833834648132324 2.87791109085083 1.2669934034347534 4456788 0 -1
-2.3728370666503906 3.3124372959136963 0.6968463659286499 4456788 0 -1
-3.217146396636963 2.567817449569702 0.38009801506996155 4456788 0 -1
-2.4943246841430664 3.214932680130005 0.7285211682319641 4456788 0 -1
-3.355954885482788 2.4103329181671143 -0.12669934332370758 4456788 0 -1
-2.4834351539611816 3.2655622959136963 0.5067973732948303 4523353 0 -1
-2.3072502613067627 3.351722478866577 0.7285211682319641 4523353 0 -1
-2.306758165359497 3.4184486865997314 0.28507351875305176 4600703 0 -1
3.6779990196228027 1.8176002502441406 -0.5067973732948303 4600703 0 -1
-2.395216226577759 3.213060140609741 1.0135947465896606 2458766 0 -1
-3.1830387115478516 2.6692142486572266 -0.3192424178123474 4456788 0 -1
-3.044416904449463 2.80367112159729 0.4788636267185211 4456788 0 -1
-2.777409076690674 3.1055362224578857 0 4456788 0 -1
-2.425957441329956 3.3865926265716553 -0.06384848058223724 4456788 0 -1
-1.9609440565109253 3.5575191974639893 0.925803005695343 4456788 0 -1
3.504190683364868 2.024745464324951 -0.9896515011787415 4456788 0 -1
-2.3567698001861572 3.423658847808838 0.2873181700706482 4600703 0 -1
3.6549551486968994 1.8841999769210815 -0.670409083366394 4600703 0 -1
-3.1302945613861084 2.6887550354003906 0.5746363401412964 4147337 0 -1
3.6678199768066406 1.8908319473266602 -0.5746363401412964 4147337 0 -1
-3.244860887527466 2.6553332805633545 0.22521555423736572 4456788 0 -1
-2.4449102878570557 3.413050413131714 -0.0643472969532013 4456788 0 -1
-3.1866161823272705 2.6722145080566406 0.579125702381134 4664956 0 -1
3.6787331104278564 1.8964579105377197 -0.7078202962875366 4600703 0 -1
-2.333111524581909 3.4575023651123047 0.4826047420501709 4536450 0 -1
-2.4382474422454834 3.4721906185150146 0.42474207282066345 4456788 0 -1
2.940415620803833 4.023828983306885 0.537723958492279 4456788 5 -1
2.9378821849823 4.02036190032959 0.5761328339576721 4456788 5 -1
2.9322831630706787 4.012700080871582 0.6529505252838135 4456788 5 -1
2.9292166233062744 4.008503437042236 0.6913593411445618 4456788 5 -1
2.7446560859680176 4.233099937438965 -0.0386582612991333 4456788 5 -1
2.7059988975524902 4.257915019989014 -0.0386582612991333 4456788 5 -1
2.7446560859680176 4.233099937438965 0.0386582612991333 4456788 5 -1
2.744736671447754 4.233223915100098 0 4456788 5 -1
2.744736671447754 4.233223915100098 0 4456788 5 -1
2.7040915489196777 4.254913806915283 0.1932913064956665 4456788 5 -1
2.7331089973449707 4.2152910232543945 0.4638991355895996 4456788 5 -1
2.995361328125 4.018124103546143 0.5798739194869995 4456788 5 -1
2.954231023788452 4.042734622955322 0.6185321807861328 4456788 5 -1
2.951323986053467 4.038756370544434 0.6571904420852661 4456788 5 -1
2.954231023788452 4.042734622955322 0.6185321807861328 4456788 5 -1
2.954231023788452 4.042734622955322 0.6185321807861328 4456788 5 -1
2.951323986053467 4.038756370544434 0.6571904420852661 4456788 5 -1
2.9979443550109863 4.021589279174805 0.5412156581878662 4456788 5 -1
2.9449713230133057 4.030063152313232 0.7345069646835327 4456788 5 -1
2.9449713230133057 4.030063152313232 0.7345069646835327 4456788 5 -1
2.7604165077209473 4.257407188415527 -0.19453835487365723 4456788 5 -1
2.801023244857788 4.234557151794434 -0.07781533896923065 4456788 5 -1
2.762120246887207 4.260035037994385 0.07781533896923065 4456788 5 -1
2.801023244857788 4.234557151794434 -0.07781533896923065 4456788 5 -1
2.7604165077209473 4.257407188415527 -0.19453835487365723 4456788 5 -1
2.7604165077209473 4.257407188415527 0.19453835487365723 4456788 5 -1
2.7617146968841553 4.259409427642822 0.11672300845384598 4456788 5 -1
2.762120246887207 4.260035037994385 0.07781533896923065 4456788 5 -1
2.719616413116455 4.279342174530029 0.2723536789417267 4456788 5 -1
2.791383743286133 4.21998405456543 0.427984356880188 4456788 5 -1
2.970364809036255 4.064813137054443 0.6614304184913635 4456788 5 -1
3.0089409351348877 4.036340713500977 0.6614304184913635 4456788 5 -1
2.931788682937622 4.092723369598389 0.6614304184913635 4456788 5 -1
3.023998975753784 4.056540489196777 0.427984356880188 4456788 5 -1
3.0172860622406006 4.047534942626953 0.5447073578834534 4456788 5 -1
2.896062135696411 4.124142169952393 0.6225227117538452 4456788 5 -1
2.757249593734741 4.252522945404053 0.3112613558769226 4657508 5 -1
2.9952516555786133 4.017977237701416 0.8170610666275024 4657508 0 -1
2.6429240703582764 4.32940149307251 0.23344601690769196 4725613 5 -1
2.7358407974243164 4.304871559143066 -0.3132566213607788 4456788 5 -1
2.7370498180389404 4.306774139404297 0.27409955859184265 4456788 5 -1
2.7358407974243164 4.304871559143066 -0.3132566213607788 4456788 5 -1
2.7749242782592773 4.279782772064209 -0.3132566213607788 4456788 5 -1
2.7772128582000732 4.2833123207092285 -0.2349424660205841 4456788 5 -1
2.7772128582000732 4.2833123207092285 -0.2349424660205841 4456788 5 -1
2.8192269802093506 4.262077331542969 0.03915707767009735 4456788 5 -1
2.6598658561706543 4.35715389251709 0.2349424660205841 4456788 5 -1
2.773533821105957 4.2776384353637695 0.35241371393203735 4456788 5 -1
2.9474964141845703 4.114651679992676 0.7048274278640747 4456788 5 -1
2.9054911136627197 4.137569904327393 0.7439844608306885 4456788 5 -1
2.9505820274353027 4.118958950042725 0.6656703352928162 4456788 5 -1
2.8052875995635986 4.24100399017334 0.5090420246124268 4657508 5 -1
3.0021626949310303 4.027247905731201 0.9397698640823364 4657508 0 -1
3.0021626949310303 4.027247905731201 0.9397698640823364 4657508 0 -1
2.505758762359619 4.4530792236328125 -0.0783141553401947 4725613 5 -1
2.699854850769043 4.334434986114502 0.19578538835048676 4725613 5 -1
3.0991907119750977 3.9945437908172607 0.7439844608306885 4725613 5 -1
3.63893461227417 3.582554578781128 0.19578538835048676 4725613 0 -1
3.9127280712127686 3.201862096786499 0.7439844608306885 4725613 0 -1
2.755537271499634 4.335864067077637 -0.23643891513347626 4456788 5 -1
2.755537271499634 4.335864067077637 -0.23643891513347626 4456788 5 -1
2.7949020862579346 4.31059455871582 -0.23643891513347626 4456788 5 -1
2.795806407928467 4.3119893074035645 -0.19703243672847748 4456788 5 -1
2.8319313526153564 4.281283378601074 -0.315251886844635 4456788 5 -1
2.7532665729522705 4.332291126251221 -0.315251886844635 4456788 5 -1
2.7949020862579346 4.31059455871582 -0.23643891513347626 4456788 5 -1
2.8319313526153564 4.281283378601074 -0.315251886844635 4456788 5 -1
2.8342669010162354 4.284814357757568 -0.23643891513347626 4456788 5 -1
2.600522756576538 4.436178207397461 0.07881297171115875 4456788 5 -1
2.901576519012451 4.215095043182373 0.5122843384742737 4456788 5 -1
2.944969415664673 4.193789005279541 0.43347135186195374 4456788 5 -1
2.9750454425811768 4.153109073638916 0.5910972952842712 4456788 5 -1
2.9662704467773438 4.140859603881836 0.7093167304992676 4456788 5 -1
2.9750454425811768 4.153109073638916 0.5910972952842712 4456788 5 -1
2.7311110496520996 4.384614944458008 -0.3172471523284912 4456788 5 -1
2.812591314315796 4.337876796722412 -0.2379353642463684 4456788 5 -1
2.7746083736419678 4.365872859954834 -0.1586235761642456 4456788 5 -1
2.772977352142334 4.363306522369385 -0.2379353642463684 4456788 5 -1
2.8135013580322266 4.339280605316162 -0.198279470205307 4456788 5 -1
2.8115155696868896 4.336217880249023 -0.2775912582874298 4456788 5 -1
2.8135013580322266 4.339280605316162 -0.198279470205307 4456788 5 -1
2.8102736473083496 4.3343024253845215 -0.3172471523284912 4456788 5 -1
2.6519484519958496 4.432942867279053 0.3172471523284912 4456788 5 -1
2.7759125232696533 4.36792516708374 0 4456788 5 -1
2.919940948486328 4.241772651672363 0.5155266523361206 4456788 5 -1
2.991112470626831 4.175538539886475 0.6344943046569824 4456788 5 -1
2.860685110092163 4.239328384399414 0.793117880821228 4456788 0 -1
3.035883665084839 4.154472827911377 0.5551825165748596 4456788 5 -1
2.746910810470581 4.409980297088623 -0.35914772748947144 4456788 5 -1
2.7893500328063965 4.389069080352783 -0.2793371081352234 4456788 5 -1
2.826531410217285 4.359376430511475 -0.35914772748947144 4456788 5 -1
2.8319454193115234 4.367726802825928 -0.1596212089061737 4456788 5 -1
2.8701436519622803 4.339052677154541 -0.23943181335926056 4456788 5 -1
2.824946880340576 4.356932640075684 -0.39905303716659546 4456788 5 -1
2.7134809494018555 4.444981575012207 -0.039905302226543427 4456788 5 -1
2.7920589447021484 4.393331050872803 -0.1596212089061737 4456788 5 -1
2.8701436519622803 4.339052677154541 0.23943181335926056 4456788 5 -1
2.667290210723877 4.458588123321533 0.35914772748947144 4456788 5 -1
2.746910810470581 4.409980297088623 0.35914772748947144 4456788 5 -1
2.8911116123199463 4.28441858291626 0.6384848356246948 4456788 5 -1
2.78515887260437 4.382473945617676 0.39905303716659546 4456788 5 -1
2.9359521865844727 4.2650322914123535 0.5586742162704468 4456788 5 -1
2.8962771892547607 4.2920732498168945 0.5586742162704468 4456788 5 -1
2.987269401550293 4.254025936126709 0.3192424178123474 4456788 5 -1
2.9516050815582275 4.287770748138428 0.1596212089061737 4456788 5 -1
2.9007463455200195 4.298696517944336 -0.4788636267185211 4456788 5 -1
2.7084574699401855 4.4367523193359375 0.3192424178123474 4657508 5 -1
2.7693734169006348 4.446042537689209 -0.1606188416481018 4456788 5 -1
2.8468804359436035 4.390761375427246 -0.28108298778533936 4456788 5 -1
2.8078575134277344 4.418190956115723 -0.2409282624721527 4456788 5 -1
2.848891258239746 4.393862724304199 -0.20077355206012726 4456788 5 -1
2.886977434158325 4.364501476287842 -0.28108298778533936 4456788 5 -1
2.7703497409820557 4.447609901428223 -0.0803094208240509 4456788 5 -1
2.806783676147461 4.416500568389893 0.28108298778533936 4456788 5 -1
2.8635082244873047 4.329020977020264 0.7227848172187805 4456788 5 -1
2.789625644683838 4.38950252532959 0.6424753665924072 4456788 5 -1
2.9543018341064453 4.291688442230225 0.5621659755706787 4456788 5 -1
2.906318426132202 4.3069539070129395 0.6826300621032715 4456788 5 -1
2.970052480697632 4.314569473266602 -0.1606188416481018 4456788 5 -1
2.964374542236328 4.306321144104004 -0.36139240860939026 4456788 5 -1
2.964374542236328 4.306321144104004 -0.36139240860939026 4456788 5 -1
2.9608747959136963 4.301237106323242 -0.44170182943344116 4456788 5 -1
3.00274920463562 4.2760701179504395 -0.4015471041202545 4456788 5 -1
-4.933000087738037 1.3311662673950195 -1.1644866466522217 4456788 0 -1
2.991644859313965 4.260257244110107 -0.602320671081543 4456788 5 -1
4.617976188659668 2.2821199893951416 -0.9637130498886108 4456788 0 -1
2.7253854274749756 4.464482307434082 0.3212376832962036 4726897 5 -1
2.91186785697937 4.3151774406433105 0.602320671081543 3692940 5 -1
2.834806442260742 4.3721394538879395 -0.8080824017524719 4456788 5 -1
2.977238655090332 4.325008869171143 -0.4848494231700897 4456788 5 -1
2.621192455291748 4.471438407897949 0.9696988463401794 4456788 0 -1
2.82379150390625 4.355151176452637 0.929294764995575 4456788 5 -1
2.826211929321289 4.447071552276611 -0.20202060043811798 4456788 5 -1
2.7878129482269287 4.386650562286377 -0.8888906240463257 4456788 5 -1
2.826211929321289 4.447071552276611 -0.20202060043811798 4456788 5 -1
2.78788423538208 4.475760459899902 0 4456788 5 -1
2.8252978324890137 4.4456329345703125 0.24242471158504486 4456788 5 -1
2.9473352432250977 4.367737770080566 0.20202060043811798 4456788 5 -1
2.9842820167541504 4.335240364074707 -0.3232329487800598 4456788 5 -1
3.0174715518951416 4.2970356941223145 -0.4848494231700897 4456788 5 -1
3.0128226280212402 4.290415287017822 -0.5656576752662659 4456788 5 -1
-4.523135185241699 2.7055232524871826 0.1616164743900299 4456788 0 -1
2.785837411880493 4.472474575042725 0.20202060043811798 4523353 5 -1
3.0577046871185303 4.268500328063965 0.4848494231700897 4523353 5 -1
2.7796878814697266 4.462601661682129 0.40404120087623596 4726897 5 -1
2.9877097606658936 4.340219974517822 0.20202060043811798 4726897 5 -1
2.975034236907959 4.32180643081665 0.5252535343170166 2912910 5 -1
2.7102394104003906 4.530381202697754 -0.5284958481788635 4456788 5 -1
2.872044563293457 4.429572105407715 -0.5284958481788635 4456788 5 -1
2.8454127311706543 4.477283954620361 -0.081307053565979 4456788 5 -1
2.7578585147857666 4.517676830291748 0.3658817410469055 4456788 5 -1
2.801055431365967 4.49690580368042 0.2845746874809265 4456788 5 -1
3.004030466079712 4.36392879486084 -0.2845746874809265 4456788 5 -1
2.965528726577759 4.3946990966796875 -0.2032676339149475 4456788 5 -1
2.879528760910034 4.441114902496338 -0.3658817410469055 4456788 5 -1
-4.593713760375977 2.6542794704437256 0.0406535267829895 4456788 0 -1
3.0011990070343018 4.35981559753418 0.3658817410469055 4725613 5 -1
3.0027036666870117 4.362001419067383 0.325228214263916 4726897 5 -1
2.767565965652466 4.533578872680664 -0.5317381620407104 4456788 5 -1
2.8618602752685547 4.503164291381836 -0.1636117398738861 4456788 5 -1
