VERSION .7
FIELDS x y z rgb label object
SIZE 4 4 4 4 4 4
TYPE F F F I I I
COUNT 1 1 1 1 1 1
WIDTH 682
HEIGHT 1
POINTS 682
VIEWPOINT 0 0 0 1 0 0 0
DATA ascii
-1.766679048538208 2.466251850128174 1.0864218473434448 4456788 0 -1
-1.9696983098983765 2.488342523574829 0.723283588886261 4456788 0 -1
-2.0488767623901367 2.4861221313476562 0.6549457907676697 4590430 0 -1
-1.9237959384918213 2.68558406829834 -0.33071520924568176 4456788 0 -1
-1.6789662837982178 2.864114284515381 0.025439631193876266 4456788 0 -1
-1.9440746307373047 2.6603801250457764 -0.40703409910202026 4456788 0 -1
-1.3633769750595093 2.999708652496338 -0.40703409910202026 4456788 0 -1
-1.1951009035110474 3.095820426940918 -0.10175852477550507 4456788 0 -1
-2.7983593940734863 1.7865917682647705 0 4456788 0 -1
-1.9475436210632324 2.612530469894409 -0.6359907388687134 4456788 0 -1
-2.7884016036987305 1.7802343368530273 -0.27983593940734863 4456788 0 -1
-1.6523619890213013 2.8768465518951416 0.12719815969467163 4456788 0 -1
-1.9440746307373047 2.6603801250457764 -0.40703409910202026 4456788 0 -1
-1.7792295217514038 2.6898202896118164 -0.7886285185813904 4456788 0 -1
-2.083503007888794 2.477391004562378 0.7377492785453796 4523353 0 -1
-2.7653043270111084 1.7654880285263062 -0.5087926387786865 4724328 0 -1
-1.9440746307373047 2.6603801250457764 -0.40703409910202026 4724328 0 -1
-1.1956275701522827 3.097184658050537 0.025439631193876266 4724328 0 -1
-2.6636788845062256 1.7006059885025024 1.017585277557373 4725613 0 -1
-2.6835408210754395 1.7132867574691772 0.9412662982940674 4729209 0 -1
-2.622182846069336 1.9878679513931274 -0.642225980758667 4456788 0 -1
-1.9357322454452515 2.702246904373169 -0.43671366572380066 4456788 0 -1
-2.070575475692749 2.5636918544769287 -0.6165369153022766 4456788 0 -1
-1.9612023830413818 2.683818817138672 -0.43671366572380066 4456788 0 -1
-2.002988338470459 2.6338045597076416 -0.539469838142395 4456788 0 -1
-1.8389376401901245 2.7800862789154053 -0.3596465289592743 4456788 0 -1
-1.9631341695785522 2.68646240234375 -0.41102463006973267 4456788 0 -1
-1.6954765319824219 2.8922786712646484 0 4456788 0 -1
-1.9612023830413818 2.683818817138672 -0.43671366572380066 4456788 0 -1
-1.6946799755096436 2.8909199237823486 -0.10275615751743317 4456788 0 -1
-2.8204801082611084 1.8007146120071411 -0.20551231503486633 4456788 0 -1
-1.8389376401901245 2.7800862789154053 -0.3596465289592743 4456788 0 -1
-1.8389376401901245 2.7800862789154053 -0.3596465289592743 4456788 0 -1
-1.8404115438461304 2.7823145389556885 -0.3339574933052063 4456788 0 -1
-1.8277626037597656 2.7631919384002686 -0.5137807726860046 4523353 0 -1
-1.8508626222610474 2.742844581604004 -0.539469838142395 4590430 0 -1
-2.792415142059326 1.7827967405319214 -0.5137807726860046 4724328 0 -1
-1.9649471044540405 2.688943386077881 -0.3853355646133423 4724328 0 -1
-2.8244667053222656 1.8032598495483398 -0.10275615751743317 4725613 0 -1
-2.755145788192749 1.759002447128296 0.744982123374939 4600703 0 -1
-2.781564950942993 1.7758694887161255 0.590847909450531 4341894 0 -1
-2.6515917778015137 2.010162591934204 -0.6225227117538452 4456788 0 -1
-1.9545257091522217 2.728482484817505 -0.4409535825252533 4456788 0 -1
-1.98024320602417 2.7098753452301025 -0.4409535825252533 4456788 0 -1
-2.001642942428589 2.6851017475128174 -0.4928304851055145 4456788 0 -1
-1.8455078601837158 2.7900190353393555 -0.5187689065933228 4456788 0 -1
-1.856791377067566 2.807077407836914 -0.36313825845718384 4456788 0 -1
-2.0875630378723145 2.5847253799438477 -0.6484611630439758 4456788 0 -1
-1.9821937084197998 2.7125444412231445 -0.41501516103744507 4456788 0 -1
-1.8516559600830078 2.79931378364563 -0.4409535825252533 4456788 0 -1
-1.6859990358352661 2.935410499572754 0 4456788 0 -1
-1.98024320602417 2.7098753452301025 -0.4409535825252533 4456788 0 -1
-1.8907809257507324 2.8020005226135254 -0.18156912922859192 4456788 0 -1
-1.856791377067566 2.807077407836914 -0.36313825845718384 4456788 0 -1
-1.8582795858383179 2.8093273639678955 -0.3371998071670532 4456788 0 -1
-1.859656572341919 2.8114089965820312 -0.3112613558769226 4456788 0 -1
-1.849719524383545 2.796386241912842 -0.4668920338153839 4523353 0 -1
-1.8516559600830078 2.79931378364563 -0.4409535825252533 4590430 0 -1
-1.9840242862701416 2.7150495052337646 -0.38907670974731445 4724328 0 -1
-2.8788294792175293 1.780133843421936 0.051876895129680634 4725613 0 -1
-1.880958080291748 2.7874438762664795 -0.38907670974731445 4725613 0 -1
-2.003101348876953 2.7411558628082275 -0.39281782507896423 4456788 0 -1
-1.8694603443145752 2.82623028755188 -0.4451935291290283 4456788 0 -1
-1.8694603443145752 2.82623028755188 -0.4451935291290283 4456788 0 -1
-1.675825834274292 2.9781739711761475 -0.052375711500644684 4456788 0 -1
-1.8730299472808838 2.8316266536712646 -0.39281782507896423 4456788 0 -1
-2.003101348876953 2.7411558628082275 -0.39281782507896423 4456788 0 -1
-1.8675053119659424 2.823274612426758 -0.47138139605522156 4456788 0 -1
-2.8439626693725586 1.7585738897323608 -0.7070720791816711 4456788 0 -1
-1.9992839097976685 2.735931873321533 -0.4451935291290283 4456788 0 -1
-1.934256911277771 2.80987811088562 -0.20950284600257874 4456788 0 -1
-1.8775379657745361 2.838441848754883 -0.3142542541027069 4456788 0 -1
-1.876147747039795 2.8363401889801025 -0.34044212102890015 4456788 0 -1
-1.8799822330474854 2.842137098312378 -0.2618785500526428 4456788 0 -1
-1.8746451139450073 2.834068536758423 -0.366629958152771 4523353 0 -1
-2.8765172958374023 1.8364912271499634 0.1833149790763855 4590430 0 -1
-2.896507978439331 1.7910654544830322 0.28806641697883606 4724328 0 -1
-2.0064356327056885 2.7457187175750732 -0.34044212102890015 4724328 0 -1
-1.8609551191329956 2.8133721351623535 -0.5499449372291565 4724328 0 -1
-2.903778314590454 1.7955609560012817 0.15712712705135345 4725613 0 -1
-1.8775379657745361 2.838441848754883 -0.3142542541027069 4725613 0 -1
-2.0401358604431152 2.7367382049560547 0.5023080110549927 4456788 0 -1
-2.0727884769439697 2.7255873680114746 0.4229962229728699 4456788 0 -1
-2.0764918327331543 2.730457067489624 0.37012168765068054 4456788 0 -1
-2.0882985591888428 2.7459821701049805 -0.052874527871608734 4456788 0 -1
-1.9242463111877441 2.8515939712524414 -0.2643726170063019 4456788 0 -1
-1.9014701843261719 2.874622344970703 -0.1586235761642456 4456788 0 -1
-2.034712791442871 2.784414768218994 -0.10574905574321747 4523353 0 -1
-1.8989512920379639 2.870814323425293 -0.2379353642463684 4523353 0 -1
-2.952268362045288 1.7659058570861816 0.2643726170063019 4590430 0 -1
-2.845064163208008 1.930088996887207 0.29080989956855774 4590430 0 -1
-2.978627920150757 1.7210716009140015 0.2643726170063019 4724328 0 -1
-2.027045488357544 2.7739222049713135 -0.3172471523284912 4724328 0 -1
-2.061666488647461 2.765620470046997 0.48036009073257446 4456788 0 -1
-2.9242427349090576 1.7491421699523926 -0.7205401062965393 4456788 0 -1
-2.966359853744507 1.7743346691131592 0.4269867241382599 4523353 0 -1
-3.02081561088562 1.7454479932785034 -0.4309772551059723 4456788 0 -1
-2.9008989334106445 2.432619333267212 -0.6474635601043701 4456788 0 -1
-2.874483346939087 2.4104678630828857 -0.8240445256233215 4523353 0 -1
-2.9116599559783936 2.441643238067627 -0.559173047542572 4590430 0 -1
-2.9623754024505615 2.4841718673706055 0.23743654787540436 4456788 0 -1
-2.9507174491882324 2.4146296977996826 0.6826300621032715 4456788 0 -1
-2.982727527618408 2.440824270248413 0.38583439588546753 4456788 0 -1
-2.9849376678466797 2.4426329135894775 0.35615482926368713 4523353 0 -1
-2.9720957279205322 2.432124137878418 0.5045526623725891 4590430 0 -1
-2.957395553588867 2.4799959659576416 0.32647526264190674 4724328 0 -1
-3.018475294113159 2.4700775146484375 0.20950284600257874 4456788 0 -1
-3.0171420574188232 2.4689862728118896 0.23943181335926056 4456788 0 -1
-2.9906201362609863 2.4472830295562744 0.5686505436897278 4456788 0 -1
-3.0053834915161133 2.459364175796509 0.41900569200515747 4456788 0 -1
-3.0077922344207764 2.4613354206085205 0.38907670974731445 4523353 0 -1
-3.000023365020752 2.4549779891967773 0.4788636267185211 4590430 0 -1
-3.010021209716797 2.4631590843200684 0.35914772748947144 4657508 0 -1
-3.0077922344207764 2.4613354206085205 0.38907670974731445 4724328 0 -1
-3.0171420574188232 2.4689862728118896 0.23943181335926056 4726897 0 -1
-2.9845011234283447 2.563526153564453 0.18107031285762787 4456788 0 -1
-3.0328571796417236 2.481846570968628 0.392318993806839 4456788 0 -1
-3.035104513168335 2.4836854934692383 0.36214062571525574 4456788 0 -1
-3.0328571796417236 2.481846570968628 0.392318993806839 4456788 0 -1
-3.0220468044281006 2.4730000495910645 0.5130325555801392 4456788 0 -1
-3.0004241466522217 2.516078472137451 0.42249739170074463 4456788 0 -1
-3.030428409576416 2.479858875274658 0.42249739170074463 4456788 0 -1
-3.0278172492980957 2.47772216796875 0.45267578959465027 4523353 0 -1
-2.9978389739990234 2.5139105319976807 0.45267578959465027 4590430 0 -1
-3.030428409576416 2.479858875274658 0.42249739170074463 4657508 0 -1
-3.0250236988067627 2.475435972213745 0.4828541576862335 4724328 0 -1
-3.0070996284484863 2.521676540374756 0.3319622278213501 4729209 0 -1
-2.5643258094787598 2.98760986328125 0.5172724723815918 4456788 0 -1
-3.0554730892181396 2.5003535747528076 0.4259890913963318 4456788 0 -1
-2.8371078968048096 2.67232346534729 0.7606948614120483 4456788 0 -1
-3.0103602409362793 2.5244107246398926 0.5781280994415283 4456788 0 -1
-3.179028034210205 2.346585273742676 0.3955613076686859 4456788 0 -1
-2.9802567958831787 2.559880495071411 0.5781280994415283 4456788 0 -1
-2.841341257095337 2.6763110160827637 0.7302670478820801 4456788 0 -1
-2.841341257095337 2.6763110160827637 0.7302670478820801 4456788 0 -1
-2.314030647277832 3.104154109954834 0.8824059963226318 4456788 0 -1
-3.0739729404449463 2.4535412788391113 0.5477002859115601 4456788 0 -1
-2.841341257095337 2.6763110160827637 0.7302670478820801 4456788 0 -1
-2.828101873397827 2.6638405323028564 0.8215504288673401 4523353 0 -1
-3.1813836097717285 2.3483240604400635 0.36513352394104004 4590430 0 -1
-3.0103602409362793 2.5244107246398926 0.5781280994415283 4590430 0 -1
-2.8371078968048096 2.67232346534729 0.7606948614120483 4590430 0 -1
-3.047022581100464 2.493438243865967 0.5172724723815918 4657508 0 -1
-2.828101873397827 2.6638405323028564 0.8215504288673401 4657508 0 -1
-3.316629409790039 2.1838314533233643 0 4724328 0 -1
-3.0802221298217773 2.458528995513916 0.4868446886539459 4724328 0 -1
-2.8371078968048096 2.67232346534729 0.7606948614120483 4724328 0 -1
-2.709023952484131 2.78485107421875 0.8215504288673401 4724328 0 -1
-3.040463924407959 2.4880712032318115 0.5781280994415283 4729209 0 -1
-3.0991694927215576 2.4736523628234863 0.5521896481513977 4456788 0 -1
-2.567589044570923 2.9307379722595215 0.9203160405158997 4456788 0 -1
-2.4157633781433105 3.1136748790740967 0.7055756449699402 4456788 0 -1
-2.894784927368164 2.6658718585968018 0.7362528443336487 4456788 0 -1
-3.2493958473205566 2.333799362182617 -0.15338601171970367 4456788 0 -1
-2.9363532066345215 2.704152822494507 -0.30677202343940735 4456788 0 -1
-3.1024138927459717 2.4762418270111084 0.5215124487876892 4456788 0 -1
-2.2010984420776367 3.1344778537750244 1.1657336950302124 4456788 0 -1
-2.843313455581665 2.6184706687927246 1.0430248975753784 4523353 0 -1
-3.248344898223877 2.3330445289611816 -0.18406321108341217 4590430 0 -1
-3.108337640762329 2.4809699058532715 -0.46015802025794983 4590430 0 -1
-2.843313455581665 2.6184706687927246 1.0430248975753784 4590430 0 -1
-3.170484781265259 2.277123212814331 0.8896388411521912 4724328 0 -1
-2.4723122119903564 3.186560869216919 0.1546330451965332 4456788 0 -1
-3.0862667560577393 2.4633536338806152 0.8350184559822083 4456788 0 -1
-2.898554563522339 2.7916207313537598 0.3092660903930664 4456788 0 -1
-2.5474748611450195 2.8484373092651367 1.2989176511764526 4456788 0 -1
-2.349318027496338 3.2796053886413574 -0.12370643764734268 4456788 0 -1
-2.3498013019561768 3.2802798748016357 -0.09277983009815216 4456788 0 -1
-2.3479371070861816 3.277677536010742 0.18555966019630432 4456788 0 -1
-2.350353240966797 3.281050443649292 -0.03092660941183567 4523353 0 -1
-2.3226583003997803 3.242388963699341 -0.6185321807861328 4590430 0 -1
-2.313633441925049 3.229790210723877 -0.7113119959831238 4724328 0 -1
-3.084385633468628 2.586486339569092 -0.592344343662262 4456788 0 -1
-2.3318793773651123 3.0662758350372314 1.3093926906585693 4456788 0 -1
-2.332634687423706 3.3217926025390625 0.2805841565132141 4456788 0 -1
-2.363736629486084 3.2997334003448486 0.2805841565132141 4456788 0 -1
-2.344132900238037 3.272367238998413 0.592344343662262 4523353 0 -1
-2.3354694843292236 3.260272979736328 0.6858723759651184 4590430 0 -1
-2.3354694843292236 3.260272979736328 -0.6858723759651184 4724328 0 -1
-3.0975699424743652 2.5975425243377686 0.6913593411445618 4456788 0 -1
-2.3807456493377686 3.1305317878723145 1.162740707397461 4456788 0 -1
-3.2464053630828857 2.2670204639434814 1.0684645175933838 4456788 0 -1
-2.608233690261841 3.1648497581481934 -0.03142542764544487 4456788 0 -1
-3.327572822570801 2.3899481296539307 -0.18855255842208862 4456788 0 -1
-2.4762520790100098 3.00470232963562 1.2884424924850464 4523353 0 -1
-3.0987672805786133 2.661674976348877 0.6334967017173767 4456788 0 -1
-2.5076446533203125 3.104851007461548 1.076944351196289 4456788 0 -1
-2.3747799396514893 3.1856460571289062 1.140294075012207 4456788 0 -1
3.578835964202881 2.067876100540161 -0.06334967166185379 4456788 0 -1
-2.4987099170684814 3.285647392272949 -0.22172383964061737 4456788 0 -1
-3.3526992797851562 2.407994508743286 -0.22172383964061737 4456788 0 -1
-2.9073731899261475 2.8623275756835938 -0.6651715040206909 4523353 0 -1
-2.4996659755706787 3.2869045734405518 -0.19004900753498077 4523353 0 -1
-2.49495530128479 3.280710220336914 -0.31674835085868835 4590430 0 -1
-2.531477212905884 3.198044538497925 0.997383177280426 4456788 0 -1
-3.2886664867401123 2.8922226428985596 0.9981313943862915 4456788 0 -1
-3.2886664867401123 2.8922226428985596 0.9981313943862915 4523353 0 -1
-3.293724536895752 2.8966708183288574 1.1093673706054688 4456788 0 -1
-3.2870306968688965 2.8907840251922607 1.1440351009368896 4523353 0 -1
-3.2778382301330566 4.058469772338867 -0.7676782608032227 4456788 0 -1
-3.288144588470459 4.071230411529541 -0.6464658975601196 4456788 0 -1
-4.557079315185547 2.6331117153167725 0.3232329487800598 4456788 0 -1
-3.3098416328430176 4.016185760498047 -0.8484864830970764 4523353 0 -1
-3.33131742477417 4.042244911193848 -0.6060617566108704 4590430 0 -1
-3.5364415645599365 3.9542417526245117 -0.081307053565979 4456788 0 -1
-3.3622355461120605 4.079761028289795 -0.4471887946128845 4456788 0 -1
-3.536752939224243 3.954590082168579 0.0406535267829895 4456788 0 -1
-3.3643226623535156 4.082293510437012 -0.406535267829895 4456788 0 -1
-3.530205488204956 3.9472689628601074 -0.325228214263916 4456788 0 -1
-3.5342602729797363 3.9518027305603027 -0.2032676339149475 4456788 0 -1
-4.593308925628662 2.654045581817627 0.081307053565979 4456788 0 -1
-3.339362382888794 3.733879566192627 1.7481017112731934 4729209 0 -1
-3.5568835735321045 3.9770987033843994 -0.1636117398738861 4456788 0 -1
-3.380561590194702 4.1019978523254395 -0.4908352196216583 4456788 0 -1
-3.5585553646087646 3.9789681434631348 0 4456788 0 -1
-3.390056610107422 4.113519191741943 -0.2863205373287201 4456788 0 -1
-3.551863193511963 3.9714853763580322 -0.3272234797477722 4456788 0 -1
-3.554792642593384 3.9747607707977295 -0.24541760981082916 4456788 0 -1
-3.3287389278411865 4.121492385864258 -0.6544469594955444 4456788 0 -1
-4.62148904800415 2.670328140258789 0.08180586993694305 4456788 0 -1
-3.551863193511963 3.9714853763580322 -0.3272234797477722 4523353 0 -1
-3.3287389278411865 4.121492385864258 -0.6544469594955444 4523353 0 -1
-3.5534329414367676 3.973240375518799 -0.2863205373287201 4590430 0 -1
-3.5559427738189697 3.9760468006134033 0.20451468229293823 4657508 0 -1
-3.394544839859009 4.1189656257629395 -0.08180586993694305 4657508 0 -1
-3.5568835735321045 3.9770987033843994 -0.1636117398738861 4729209 0 -1
-3.5751001834869385 3.997467517852783 -0.28806641697883606 4456788 0 -1
-3.577625274658203 4.000290870666504 -0.20576171576976776 4456788 0 -1
-3.5785717964172363 4.001349449157715 -0.1646093726158142 4456788 0 -1
-3.5751001834869385 3.997467517852783 -0.28806641697883606 4456788 0 -1
-3.577625274658203 4.000290870666504 -0.20576171576976776 4456788 0 -1
-4.605678558349609 2.754896879196167 0.20576171576976776 4456788 0 -1
-3.5764682292938232 3.998997211456299 -0.2469140589237213 4523353 0 -1
-3.577625274658203 4.000290870666504 -0.20576171576976776 4590430 0 -1
-3.580148696899414 4.00311279296875 0.04115234315395355 4657508 0 -1
-3.579307794570923 4.002172470092773 -0.12345702946186066 4729209 0 -1
-3.5538547039031982 4.056497097015381 -0.3312140107154846 4456788 0 -1
-4.674962997436523 2.701225757598877 0.20700876414775848 4456788 0 -1
-3.850249767303467 3.790595769882202 0.04140175133943558 4456788 0 -1
-3.847536087036133 3.78792405128479 0.20700876414775848 4523353 0 -1
-3.986755847930908 3.671491861343384 -0.416511595249176 4456788 0 -1
-3.975437879562378 3.661068916320801 -0.5831162333488464 4523353 0 -1
-3.8662734031677246 3.806370973587036 -0.3332092761993408 4523353 0 -1
-3.981572389602661 3.6667184829711914 -0.49981391429901123 4590430 0 -1
-3.981572389602661 3.6667184829711914 -0.49981391429901123 4590430 0 -1
-4.189933776855469 3.513570785522461 0.04190056771039963 4456788 0 -1
-4.021982192993164 3.703932523727417 -0.08380113542079926 4456788 0 -1
-4.175146579742432 3.5011706352233887 -0.4609062373638153 4456788 0 -1
-4.185626029968262 3.509958505630493 -0.25140342116355896 4456788 0 -1
-4.005414009094238 3.6886749267578125 -0.5028068423271179 4456788 0 -1
-4.556288719177246 3.0000839233398438 0.37710511684417725 4456788 0 -1
-3.9776315689086914 3.74660325050354 -0.20950284600257874 4456788 0 -1
-4.180081367492676 3.5053088665008545 -0.37710511684417725 4523353 0 -1
-4.020564556121826 3.702627182006836 -0.1676022708415985 4523353 0 -1
-4.185626029968262 3.509958505630493 -0.25140342116355896 4590430 0 -1
-4.172847747802734 3.584252119064331 0 4456788 0 -1
-4.172357559204102 3.583831310272217 -0.0842999517917633 4456788 0 -1
-4.534478187561035 2.985722780227661 -0.8851494789123535 4456788 0 -1
-4.172847747802734 3.584252119064331 0 4523353 0 -1
-4.1263298988342285 3.628906726837158 -0.2528998553752899 4590430 0 -1
-4.74524450302124 2.838378429412842 -0.211996927857399 4456788 0 -1
-3.6035244464874268 4.198345184326172 0.08479876816272736 4456788 0 -1
-3.5695042610168457 4.158709526062012 0.763188898563385 4456788 0 -1
-4.539035320281982 2.8979134559631348 -1.2719814777374268 4456788 0 -1
-3.580063819885254 4.171011924743652 0.6359907388687134 4456788 0 -1
-3.52360200881958 4.189742088317871 0.8055883049964905 4456788 0 -1
-4.628748893737793 2.955190658569336 -0.6783901453018188 4456788 0 -1
-3.565549612045288 4.154102325439453 0.8055883049964905 4523353 0 -1
-4.644174575805664 2.965038776397705 -0.5087926387786865 4590430 0 -1
-3.5105793476104736 4.174257278442383 0.9327864646911621 4590430 0 -1
-4.6302337646484375 2.9561383724212646 -0.8956246376037598 4456788 0 -1
-3.590501308441162 4.183172225952148 0.7676782608032227 4456788 0 -1
-3.573268175125122 4.163094520568848 0.9382734298706055 4523353 0 -1
-3.7416296005249023 4.632715225219727 -0.13692507147789001 4456788 0 -1
-3.738661289215088 4.629039764404297 -0.27385014295578003 4456788 0 -1
-3.733708620071411 4.622907638549805 -0.41077521443367004 4456788 0 -1
-3.772212028503418 4.5772294998168945 -0.5477002859115601 4523353 0 -1
-3.787259340286255 4.595487594604492 -0.13692507147789001 4729209 0 -1
-3.7603073120117188 4.655840873718262 -0.22945548593997955 4456788 0 -1
-3.7626280784606934 4.658714294433594 0.09178219735622406 4456788 0 -1
-3.5285279750823975 4.828634738922119 -0.3212376832962036 4456788 0 -1
-3.755993366241455 4.65049934387207 -0.36712878942489624 4456788 0 -1
-3.755993366241455 4.65049934387207 -0.36712878942489624 4456788 0 -1
-3.757652997970581 4.652554512023926 -0.3212376832962036 4456788 0 -1
-3.521040439605713 4.818387985229492 -0.5048021078109741 4456788 0 -1
-3.755993366241455 4.65049934387207 -0.36712878942489624 4523353 0 -1
-3.708329439163208 4.684775352478027 -0.41301989555358887 4590430 0 -1
-3.7629594802856445 4.659124851226807 0.04589109867811203 4657508 0 -1
-3.7603073120117188 4.655840873718262 -0.22945548593997955 4729209 0 -1
-3.726393222808838 4.7075958251953125 -0.46140506863594055 4456788 0 -1
-3.551880121231079 4.860590934753418 -0.13842152059078217 4456788 0 -1
-3.718792676925659 4.697993755340576 -0.5998265743255615 4456788 0 -1
-3.5490622520446777 4.856734752655029 -0.27684304118156433 4456788 0 -1
-3.7284834384918213 4.710236072540283 -0.4152645468711853 4456788 0 -1
-3.5292739868164062 4.829655647277832 -0.692107617855072 4456788 0 -1
-3.718792676925659 4.697993755340576 -0.5998265743255615 4456788 0 -1
-3.5401763916015625 4.844574928283691 -0.5075455904006958 4456788 0 -1
-3.7240817546844482 4.704675674438477 -0.5075455904006958 4523353 0 -1
-3.5423738956451416 4.84758186340332 -0.46140506863594055 4523353 0 -1
-3.721548318862915 4.701475143432617 -0.5536860823631287 4590430 0 -1
-3.683197021484375 4.747269153594971 -0.7422386407852173 4456788 0 -1
-3.499037265777588 4.884592533111572 -0.7422386407852173 4456788 0 -1
-3.675724744796753 4.737637996673584 -0.8350184559822083 4523353 0 -1
-3.50528883934021 4.893319606781006 -0.6494588255882263 4523353 0 -1
-3.7024240493774414 4.8684563636779785 0.6599339246749878 4456788 0 -1
-3.9435746669769287 5.185554504394531 0.6015724539756775 4523353 0 -1
-3.9570882320404053 5.203323841094971 0.7053261995315552 4456788 0 -1
-3.9570882320404053 5.203323841094971 0.7053261995315552 4456788 0 -1
-3.9602599143981934 5.207494735717773 0.6549457907676697 4456788 0 -1
-3.9602599143981934 5.207494735717773 0.6549457907676697 4456788 0 -1
-3.946143865585327 5.1889328956604 0.8564675450325012 4456788 0 -1
-3.9631943702697754 5.211353302001953 0.6045653223991394 4456788 0 -1
-3.9570882320404053 5.203323841094971 0.7053261995315552 4523353 0 -1
-3.9602599143981934 5.207494735717773 0.6549457907676697 4590430 0 -1
-3.9570882320404053 5.203323841094971 0.7053261995315552 4657508 0 -1
-3.979865074157715 5.233273983001709 0.6581881046295166 4456788 0 -1
-3.9732513427734375 5.2245774269104 0.7594478130340576 4456788 0 -1
-3.976677656173706 5.229083061218262 0.7088179588317871 4456788 0 -1
-3.9732513427734375 5.2245774269104 0.7594478130340576 4456788 0 -1
-3.965679168701172 5.214620590209961 0.8607075214385986 4456788 0 -1
-3.932398796081543 5.275112152099609 0.6075582504272461 4456788 0 -1
-3.9732513427734375 5.2245774269104 0.7594478130340576 4523353 0 -1
-3.976677656173706 5.229083061218262 0.7088179588317871 4590430 0 -1
-3.9732513427734375 5.2245774269104 0.7594478130340576 4657508 0 -1
-3.969585418701172 5.219757080078125 0.8100776672363281 4724328 0 -1
-3.945681571960449 5.292930603027344 0.7123096585273743 4456788 0 -1
-3.945681571960449 5.292930603027344 0.7123096585273743 4456788 0 -1
-3.945681571960449 5.292930603027344 0.7123096585273743 4456788 0 -1
-3.945681571960449 5.292930603027344 0.7123096585273743 4456788 0 -1
-3.945681571960449 5.292930603027344 0.7123096585273743 4456788 0 -1
-3.94228196144104 5.288370132446289 0.763188898563385 4523353 0 -1
-3.9306540489196777 5.272771835327148 0.915826678276062 4590430 0 -1
-3.94228196144104 5.288370132446289 0.763188898563385 4657508 0 -1
-3.9455459117889404 5.29274845123291 -0.9714447259902954 4456788 0 -1
-3.7795207500457764 5.490477085113525 -0.30677202343940735 4456788 0 -1
-3.7647037506103516 5.468952178955078 -0.6646726727485657 4456788 0 -1
-4.549249172210693 4.879039764404297 0.15338601171970367 4456788 0 -1
-3.7817440032958984 5.493706703186035 -0.20451468229293823 4456788 0 -1
-3.7834105491638184 5.496127605438232 0.05112867057323456 4523353 0 -1
-3.7076776027679443 5.386111259460449 1.3293453454971313 4590430 0 -1
-3.9879190921783447 5.349589824676514 -0.05112867057323456 4725613 0 -1
-3.6752331256866455 5.338979244232178 1.5849887132644653 4725613 0 -1
-3.741670608520508 5.544885158538818 -0.46240270137786865 4456788 0 -1
-3.731945753097534 5.530473709106445 -0.6679149866104126 4456788 0 -1
-3.731945753097534 5.530473709106445 -0.6679149866104126 4456788 0 -1
-4.572514533996582 4.903992176055908 0.05137807875871658 4456788 0 -1
-3.748837471008301 5.555506229400635 -0.20551231503486633 4456788 0 -1
-3.741670608520508 5.544885158538818 -0.46240270137786865 4523353 0 -1
-3.731945753097534 5.530473709106445 -0.6679149866104126 4590430 0 -1
-4.007019519805908 5.375211715698242 0.10275615751743317 4657508 0 -1
-3.748837471008301 5.555506229400635 -0.20551231503486633 4657508 0 -1
-3.734710931777954 5.534571647644043 -0.6165369153022766 4729209 0 -1
-3.7062506675720215 5.603070259094238 -0.5162748694419861 4456788 0 -1
-3.9711129665374756 5.434292793273926 -0.30976492166519165 4456788 0 -1
-3.7660393714904785 5.580997943878174 -0.25813743472099304 4456788 0 -1
-3.7577261924743652 5.568678379058838 -0.5162748694419861 4456788 0 -1
-3.759834051132202 5.571802139282227 -0.4646473824977875 4456788 0 -1
-4.594846248626709 4.927942276000977 0 4456788 0 -1
-4.019371032714844 5.391780853271484 0.41301989555358887 4456788 0 -1
-3.767035722732544 5.582474708557129 -0.20650994777679443 4456788 0 -1
-3.761718988418579 5.5745954513549805 -0.41301989555358887 4523353 0 -1
-3.759834051132202 5.571802139282227 -0.4646473824977875 4590430 0 -1
-3.9658522605895996 5.427093505859375 -0.4646473824977875 4657508 0 -1
-3.767035722732544 5.582474708557129 -0.20650994777679443 4657508 0 -1
-4.409018039703369 5.136798858642578 0.10375379025936127 4456788 0 -1
-4.201534748077393 5.307847499847412 0.10375379025936127 4523353 0 -1
-3.9934651851654053 5.46488094329834 -0.1556306779384613 4523353 0 -1
-3.7842328548431396 5.607959270477295 -0.2593844532966614 4523353 0 -1
-5.377346038818359 4.292015552520752 0.5287452340126038 4523353 0 -1
-4.469352722167969 5.876919269561768 0.28307825326919556 4456788 0 -1
-4.485872745513916 5.898642539978027 0.39805540442466736 4456788 0 -1
-4.511910438537598 5.932880401611328 0.05711446329951286 4456788 0 -1
-4.531612873077393 5.95878791809082 0.05736387148499489 4456788 0 -1
-4.447021007537842 6.722959041595459 -0.4329725205898285 4456788 0 -1
-4.453300952911377 6.732452869415283 0.06185321882367134 4456788 0 -1
-4.468106269836426 6.754835605621338 0.31051313877105713 4456788 0 -1
-4.523135185241699 6.8380279541015625 -0.25140342116355896 4456788 0 -1
-6.427680015563965 5.130356788635254 -1.340818166732788 4456788 0 -1
-4.752512454986572 6.767823219299316 -1.021575689315796 4456788 0 -1
-4.2767181396484375 7.1488752365112305 -0.19154545664787292 4456788 0 -1
-4.483248710632324 7.967351913452148 -0.2803347408771515 4456788 0 -1
-6.903058052062988 5.788727283477783 -1.7583273649215698 4456788 0 -1
-5.358232021331787 7.1877946853637695 -1.9693267345428467 4456788 0 -1
-4.498013496398926 7.993590831756592 -0.3516654670238495 4456788 0 -1
-4.686302185058594 8.863533973693848 -1.3961868286132812 4456788 0 -1
-4.249719619750977 8.753029823303223 -2.7923736572265625 4456788 0 -1
-4.110511779785156 9.249465942382812 -0.15513186156749725 4456788 0 -1
-2.5766713619232178 10.187755584716797 0.3222353160381317 2523534 4 -1
-2.585787773132324 10.223799705505371 0.08080823719501495 3302798 4 -1
-2.585559844970703 10.222899436950684 0.1616164743900299 3238030 4 -1
-2.8282053470611572 10.159411430358887 -0.08080823719501495 3107982 4 -1
-2.504981756210327 10.243898391723633 -0.08080823719501495 3107982 0 -1
-2.74739933013916 10.181560516357422 -0.08080823719501495 2328718 4 -1
-2.666593551635742 10.203022003173828 0.08080823719501495 2134668 4 -1
-2.585787773132324 10.223799705505371 0.08080823719501495 2072968 4 -1
-2.818216323852539 10.123529434204102 -1.215864658355713 4523353 4 -1
-2.7442848682403564 10.170019149780273 -0.9726917743682861 4725613 4 -1
-2.834017753601074 10.180291175842285 -0.48634588718414307 4726897 4 -1
-2.9180753231048584 10.168153762817383 0 4017546 4 -1
-2.8362679481506348 10.188373565673828 -0.24317294359207153 3692940 4 -1
-2.5938446521759033 10.255656242370605 0 3562893 4 -1
-2.59376859664917 10.255354881286621 0.08105764538049698 2977934 4 -1
-2.5935401916503906 10.254451751708984 0.16211529076099396 2782862 4 -1
-2.5938446521759033 10.255656242370605 0 2718350 4 -1
-2.6741955280303955 10.232109069824219 -0.24317294359207153 2523534 4 -1
-2.5931591987609863 10.252945899963379 0.24317294359207153 2199437 4 -1
-2.5935401916503906 10.254451751708984 0.16211529076099396 2134668 4 -1
-2.5938446521759033 10.255656242370605 0 2072968 4 -1
-2.6736457347869873 10.230005264282227 0.3242305815219879 2139270 4 -1
-2.6710517406463623 10.220080375671387 0.5674034953117371 2271109 4 -1
-2.8454127311706543 10.221223831176758 -0.162614107131958 4456788 4 -1
-3.7615807056427 9.285650253295898 -3.4962034225463867 4456788 0 -1
-2.8449950218200684 10.219722747802734 -0.243921160697937 4456788 4 -1
-2.5145180225372314 10.282896041870117 -0.731763482093811 4456788 0 -1
-4.38232421875 9.642010688781738 -0.650456428527832 4456788 0 -1
-2.8336915969848633 10.179119110107422 -0.975684642791748 4725613 4 -1
-2.842737913131714 10.211614608764648 -0.487842321395874 4726897 4 -1
-2.835620403289795 10.186047554016113 -0.894377589225769 4729209 4 -1
-2.6828176975250244 10.26509952545166 -0.162614107131958 2782862 4 -1
-2.6828176975250244 10.26509952545166 -0.162614107131958 2718350 4 -1
-2.7643587589263916 10.244410514831543 0.081307053565979 2523534 4 -1
-2.683053970336914 10.266003608703613 0.081307053565979 2458766 4 -1
-2.680295705795288 10.255450248718262 0.487842321395874 2199437 4 -1
-2.601138114929199 10.284493446350098 0.243921160697937 2134668 4 -1
-2.601520299911499 10.286004066467285 0.162614107131958 2070155 4 -1
-2.8449950218200684 10.219722747802734 -0.243921160697937 2070922 4 -1
-2.6824238300323486 10.263592720031738 -0.243921160697937 2006409 4 -1
-2.6828176975250244 10.26509952545166 0.162614107131958 2072968 4 -1
-2.6831328868865967 10.266304969787598 0 2139270 4 -1
-2.8443186283111572 10.217293739318848 -0.8971210718154907 4657508 4 -1
-2.8402791023254395 10.20278263092041 -1.0602340698242188 4725613 4 -1
-2.8523805141448975 10.24625301361084 -0.40778231620788574 4726897 4 -1
-2.8402791023254395 10.20278263092041 -1.0602340698242188 4729209 4 -1
-2.8491082191467285 10.234498023986816 -0.6524516940116882 4212104 4 -1
-2.6097302436828613 10.318465232849121 -0.08155646175146103 3302798 4 -1
-2.853135108947754 10.248963356018066 -0.3262258470058441 3107982 4 -1
-2.7721869945526123 10.273421287536621 0.24466939270496368 2523534 4 -1
-2.6912841796875 10.297494888305664 0.08155646175146103 2264205 4 -1
-2.9346532821655273 10.225920677185059 0.3262258470058441 2134668 4 -1
-2.6097302436828613 10.318465232849121 0.08155646175146103 2072968 4 -1
-2.6078908443450928 10.311192512512207 0.40778231620788574 2139270 4 -1
-3.1806979179382324 9.878125190734863 2.3651373386383057 3651704 0 -1
-2.9005110263824463 9.810953140258789 2.93603253364563 5949540 0 -1
-2.854787826538086 10.254899978637695 -0.8180587291717529 4657508 4 -1
-2.8489649295806885 10.233983993530273 -1.063476324081421 4724328 4 -1
-2.8489649295806885 10.233983993530273 -1.063476324081421 4725613 4 -1
-2.8442306518554688 10.2169771194458 -1.2270880937576294 4728182 4 -1
-2.8489649295806885 10.233983993530273 -1.063476324081421 4729209 4 -1
-2.8618602752685547 10.280305862426758 -0.3272234797477722 4212104 4 -1
-2.851076126098633 10.241567611694336 -0.9816704392433167 4147337 4 -1
-2.859083890914917 10.270333290100098 -0.5726410746574402 3302798 4 -1
-2.8628692626953125 10.283930778503418 -0.1636117398738861 3107982 4 -1
-2.8611032962799072 10.277586936950684 -0.40902936458587646 2977934 4 -1
-2.698880434036255 10.326559066772461 0.24541760981082916 2523534 4 -1
-2.779357433319092 10.299994468688965 0.40902936458587646 2328718 4 -1
-2.6983253955841064 10.32443618774414 0.3272234797477722 2264205 4 -1
-2.5341200828552246 10.363057136535645 0.40902936458587646 2139270 4 -1
-2.6983253955841064 10.32443618774414 0.3272234797477722 2271109 4 -1
-2.6608834266662598 9.860941886901855 3.1086230278015137 4045940 0 -1
-2.703327178955078 9.710826873779297 3.5176525115966797 5424489 0 -1
-2.691012144088745 9.97259521484375 2.6995937824249268 10672695 0 -1
-2.8597683906555176 10.272791862487793 -0.9846633672714233 4725613 4 -1
-2.8650975227355957 10.291934967041016 -0.7384974956512451 4341894 4 -1
-2.869826316833496 10.308920860290527 -0.4102763831615448 4212104 4 -1
-2.8576509952545166 10.265185356140137 -1.066718578338623 4017546 4 -1
-2.867800712585449 10.301645278930664 -0.5743869543075562 3302798 4 -1
-2.8715975284576416 10.31528377532959 0.16411055624485016 3107982 4 -1
-2.949737787246704 10.278483390808105 0.5743869543075562 2523534 4 -1
-2.625075101852417 10.379136085510254 0.24616584181785583 2523534 4 -1
-2.789142370223999 10.336255073547363 0.24616584181785583 2328718 4 -1
-2.6998631954193115 10.330320358276367 0.8205527663230896 2134668 4 -1
-2.584089994430542 9.887343406677246 3.2001559734344482 2994813 0 -1
3.856598138809204 9.990232467651367 0 2994813 5 -1
-2.570727586746216 9.836216926574707 3.3642663955688477 4045940 0 -1
-2.7191483974456787 9.767660140991211 3.446321725845337 4505456 0 -1
-2.60276460647583 9.958797454833984 2.9539899826049805 4899181 0 -1
-2.584089994430542 9.887343406677246 3.2001559734344482 10672695 0 -1
-2.8738059997558594 10.323217391967773 -0.7407422065734863 4341894 4 -1
-2.8684606552124023 10.30401611328125 -0.9876562356948853 4212104 4 -1
-2.858933210372925 10.269791603088379 -1.3168749809265137 4017546 4 -1
-2.87219500541687 10.31743049621582 -0.823046863079071 3302798 4 -1
-2.962620735168457 10.32337474822998 0.1646093726158142 2523534 4 -1
-3.0449159145355225 10.29940128326416 0.1646093726158142 2328718 4 -1
-3.0449159145355225 10.29940128326416 0.1646093726158142 2328718 4 -1
-2.7844414710998535 10.31883430480957 1.0699609518051147 2139270 4 -1
-2.627790689468384 10.054553031921387 2.716054677963257 10016830 0 -1
-2.882514476776123 10.354499816894531 -0.7429868578910828 4341894 4 -1
-3.0436322689056396 10.295060157775879 -0.9080950617790222 4212104 0 -1
-2.7985873222351074 10.371257781982422 -0.8255409598350525 4212104 4 -1
-2.475459337234497 10.480441093444824 0.3302163779735565 4212104 4 -1
-2.8702449798583984 10.3104248046875 -1.2383114099502563 4017546 4 -1
-3.0544118881225586 10.331521987915039 0.08255409449338913 2523534 4 -1
-2.7949485778808594 10.357772827148438 0.9906491637229919 2139270 4 -1
4.044675827026367 9.984484672546387 0.16510818898677826 2139270 5 -1
-3.0741705894470215 10.100445747375488 2.146406412124634 4505456 0 -1
-2.5721638202667236 9.84171199798584 3.549826145172119 6343264 0 -1
-2.6125059127807617 9.99606990814209 3.054501533508301 6933851 0 -1
-3.047269821166992 10.012060165405273 2.5591769218444824 10016830 0 -1
-2.844712495803833 9.912517547607422 3.2293365001678467 4341894 0 -1
-2.975320339202881 10.367626190185547 -0.6624280214309692 4212104 4 -1
-3.060490131378174 10.352081298828125 -0.49682101607322693 3692940 4 -1
-3.0637295246124268 10.363039016723633 0 2523534 4 -1
3.9741013050079346 10.047791481018066 0.1656070053577423 2271109 5 -1
-2.732435464859009 10.454948425292969 0.08280350267887115 4045940 4 -1
-2.587146282196045 9.899038314819336 3.4777472019195557 6343264 0 -1
-2.989553689956665 10.41722297668457 -0.16610582172870636 3432845 4 -1
-3.0160489082336426 10.201759338378906 -2.0763227939605713 2718350 0 -1
-2.7200708389282227 10.407638549804688 -1.3288465738296509 2718350 4 -1
-3.0707015991210938 10.386621475219727 -0.4152645468711853 2523534 4 -1
-2.656444549560547 10.503166198730469 -0.3322116434574127 2523534 4 -1
-2.6423568725585938 10.447465896606445 -1.162740707397461 2070155 4 -1
3.9864227771759033 10.078943252563477 -0.08305291086435318 2994813 5 -1
4.068517208099365 10.043338775634766 0.24915874004364014 3257723 5 -1
3.9016528129577637 10.106943130493164 -0.3322116434574127 5424489 5 -1
3.9016528129577637 10.106943130493164 -0.3322116434574127 5949540 5 -1
-2.7378480434417725 10.475659370422363 -0.4983174800872803 6933851 4 -1
-2.727114677429199 10.434590339660645 -1.0796878337860107 11918891 4 -1
-2.7309932708740234 10.449431419372559 -0.9135820269584656 12640037 4 -1
-3.0818238258361816 10.424242973327637 -0.1666046380996704 3562893 4 -1
-2.5035400390625 10.23800277709961 -2.6656742095947266 2070155 0 -1
3.998041868209839 10.108320236206055 -0.1666046380996704 2994813 5 -1
3.912334442138672 10.134613037109375 -0.416511595249176 5424489 5 -1
3.913369655609131 10.13729476928711 -0.3332092761993408 5949540 5 -1
-2.7482502460479736 10.515460014343262 -0.24990695714950562 6933851 4 -1
-2.7373311519622803 10.47368049621582 -0.9996278285980225 12640037 4 -1
-2.652416229248047 10.487238883972168 -1.0829302072525024 13164576 4 -1
3.9264700412750244 10.17123031616211 -0.16710345447063446 2666112 5 -1
3.925893545150757 10.169736862182617 -0.2506551742553711 2994813 5 -1
4.00942325592041 10.13709545135498 -0.2506551742553711 3651704 5 -1
3.9102954864501953 10.129331588745117 -1.0026206970214844 4899181 5 -1
3.919546365737915 10.153294563293457 -0.6684138178825378 5424489 5 -1
3.922778844833374 10.16166877746582 -0.5013103485107422 5949540 5 -1
-2.7434937953948975 10.497261047363281 -1.0861724615097046 12640037 4 -1
3.8543994426727295 10.23354434967041 -0.1676022708415985 2006409 5 -1
3.938537836074829 10.20249080657959 -0.08380113542079926 2994813 5 -1
3.9010112285614014 10.105280876159668 -1.508420467376709 4899181 5 -1
3.8873283863067627 10.069836616516113 -1.7598237991333008 5424489 0 -1
4.034426212310791 10.200311660766602 0 2468738 5 -1
3.864508628845215 10.260384559631348 0.3362021744251251 2994813 5 -1
3.9205751419067383 10.155960083007812 -1.3448086977005005 3257723 5 -1
3.8827035427093506 10.308692932128906 -1.36077082157135 8180304 5 -1
-2.211217164993286 10.876708984375 -0.8529758453369141 4456788 0 -1
0.08525750786066055 11.126372337341309 -0.3411903381347656 4456788 0 -1
-1.6198927164077759 11.008151054382324 -0.3411903381347656 4456788 0 -1
-1.0205618143081665 11.0521821975708 0.8529758453369141 4456788 0 -1
0.7654213309288025 11.07277774810791 0.8529758453369141 4456788 0 -1
-2.3782145977020264 10.826644897460938 -1.0235710144042969 4456788 0 -1
-1.7907758951187134 10.983964920043945 -0.2558927536010742 4456788 0 -1
1.0167876482009888 11.011310577392578 1.279463768005371 4456788 0 -1
-1.7907758951187134 10.983964920043945 -0.2558927536010742 4456788 0 -1
-0.3401872515678406 11.093987464904785 -0.8529758453369141 4456788 0 -1
3.8094356060028076 10.370412826538086 -1.3647613525390625 7589974 5 -1
3.897686004638672 10.348471641540527 -1.279463768005371 8180304 5 -1
3.81624174118042 10.388941764831543 -1.1941661834716797 11197490 5 -1
3.894089698791504 10.338923454284668 -1.3647613525390625 11918891 5 -1
3.897686004638672 10.348471641540527 -1.279463768005371 12640037 5 -1
3.8902578353881836 10.328749656677246 -1.450058937072754 13164576 5 -1
-2.2176826000213623 10.908512115478516 -0.8554699420928955 4456788 0 -1
0.4275340139865875 11.151040077209473 0.3421879708766937 4456788 0 -1
0.8512151837348938 11.07629108428955 1.1121108531951904 4456788 0 -1
-1.5398006439208984 11.057453155517578 0.08554699271917343 4456788 0 -1
0 11.163166999816895 -0.17109398543834686 4456788 0 -1
0.6830888986587524 11.122527122497559 0.6843759417533875 4456788 0 -1
7.862861156463623 7.406171798706055 2.8230507373809814 4456788 0 -1
-2.132387161254883 10.925505638122559 -0.8554699420928955 4456788 0 -1
-1.625201940536499 11.044230461120605 -0.17109398543834686 4456788 0 -1
-1.0246334075927734 11.096275329589844 0.6843759417533875 4456788 0 -1
0.8538611531257629 11.110721588134766 0.6843759417533875 4456788 0 -1
-3.592024326324463 10.567737579345703 -0.2566409707069397 4456788 0 -1
-2.3867921829223633 10.865693092346191 -0.9410169124603271 4456788 0 -1
-1.7962758541107178 11.017699241638184 -0.17109398543834686 4456788 0 -1
0.5977028012275696 11.12744140625 0.6843759417533875 4456788 0 -1
1.1835107803344727 10.968936920166016 1.710939884185791 4456788 0 -1
-2.623701810836792 10.729393005371094 -1.6253929138183594 4456788 0 -1
-1.6253451108932495 11.04520320892334 0.08554699271917343 4456788 0 -1
-1.6253451108932495 11.04520320892334 -0.08554699271917343 4456788 0 -1
-1.1088413000106812 11.07629108428955 0.8554699420928955 4456788 0 -1
0.5130407810211182 11.147433280944824 0.3421879708766937 4456788 0 -1
0.2565203905105591 11.15628433227539 0.3421879708766937 4456788 0 -1
0.8505334258079529 11.06742000579834 1.1976579427719116 4456788 0 -1
-4.98150110244751 9.828675270080566 -1.7964868545532227 4456788 0 -1
-4.446353912353516 10.235156059265137 -0.3421879708766937 4456788 0 -1
-1.6236741542816162 11.03384780883789 0.5132819414138794 4456788 0 -1
3.8467884063720703 10.472098350524902 -0.42773497104644775 4456788 5 -1
3.838296890258789 10.448982238769531 -0.8554699420928955 2718350 5 -1
3.8423752784729004 10.460083961486816 -0.6843759417533875 2588302 5 -1
3.840449810028076 10.454843521118164 -0.7699229121208191 2134668 5 -1
3.8467884063720703 10.472098350524902 -0.42773497104644775 2070922 5 -1
3.840449810028076 10.454843521118164 -0.7699229121208191 2006409 5 -1
3.7640676498413086 10.510821342468262 0 2994813 5 -1
3.8205742835998535 10.400735855102539 -1.368751883506775 4899181 5 -1
3.9277613162994385 10.428321838378906 -0.6843759417533875 5424489 5 -1
3.8274004459381104 10.419319152832031 -1.1976579427719116 11197490 5 -1
3.9124538898468018 10.387680053710938 -1.1976579427719116 11918891 5 -1
3.9124538898468018 10.387680053710938 -1.1976579427719116 12640037 5 -1
3.9124538898468018 10.387680053710938 -1.1976579427719116 13164576 5 -1
-0.3412052392959595 11.127185821533203 -1.201149582862854 4456788 0 -1
-0.3431856036186218 11.191767692565918 0 4456788 0 -1
-0.3417317569255829 11.144355773925781 -1.0295567512512207 4456788 0 -1
3.6201491355895996 10.108942031860352 3.174466848373413 4456788 0 -1
-1.5439271926879883 11.087085723876953 0.2573891878128052 4456788 0 -1
1.3565270900726318 10.981295585632324 1.7159279584884644 4456788 0 -1
-4.5310282707214355 10.195712089538574 -0.9437603950500488 4456788 0 -1
-2.2274954319000244 10.956779479980469 -0.600574791431427 4456788 0 -1
-1.6297008991241455 11.074803352355957 0.2573891878128052 4456788 0 -1
-1.6297008991241455 11.074803352355957 0.2573891878128052 4456788 0 -1
3.940953254699707 10.463347434997559 -0.600574791431427 4456788 5 -1
-4.435668468475342 10.210559844970703 -1.201149582862854 4456788 0 -1
-4.9960246086120605 9.857330322265625 -1.8017244338989258 4523353 0 -1
-4.5279459953308105 10.188776016235352 -1.0295567512512207 4523353 0 -1
3.9392125606536865 10.458724975585938 -0.6863712072372437 4523353 5 -1
3.8516464233398438 10.485323905944824 -0.7721676230430603 2718350 5 -1
3.8598177433013916 10.507568359375 -0.2573891878128052 2588302 5 -1
3.7275147438049316 10.14739990234375 2.9170775413513184 2523534 0 -1
3.759049415588379 10.496809005737305 -1.0295567512512207 2006409 5 -1
3.774930715560913 10.541155815124512 0.08579640090465546 2994813 5 -1
3.8590240478515625 10.505407333374023 -0.3431856036186218 4045940 5 -1
3.884861707687378 10.314422607421875 -1.973317265510559 4505456 0 -1
3.860837936401367 10.510345458984375 0 5424489 5 -1
3.8105270862579346 10.373384475708008 -1.8017244338989258 6343264 0 -1
3.9238603115081787 10.417964935302734 -1.201149582862854 12640037 5 -1
-0.3435359597206116 11.203193664550781 -0.6883664727210999 4456788 0 -1
-0.3429584801197052 11.18436050415039 -0.9465038776397705 4456788 0 -1
-0.3431713581085205 11.191302299499512 -0.8604580760002136 4456788 0 -1
-0.3429584801197052 11.18436050415039 -0.9465038776397705 4456788 0 -1
-4.284064769744873 10.32879638671875 -1.0325497388839722 4456788 0 -1
-3.527463912963867 10.659774780273438 0.17209161818027496 4456788 0 -1
-2.2318649291992188 10.978272438049316 -0.7744122743606567 4456788 0 -1
3.9486842155456543 10.483872413635254 -0.7744122743606567 4456788 5 -1
-0.33879607915878296 11.04861831665039 1.9790536165237427 4147337 0 -1
3.8045384883880615 10.10116195678711 3.097649097442627 4147337 0 -1
-0.7622911334037781 11.027496337890625 -1.9790536165237427 4017546 0 -1
3.7859044075012207 10.571799278259277 0.08604580909013748 2994813 5 -1
-1.2893223762512207 11.143362045288086 0.5162748694419861 5949540 0 -1
-0.4222615361213684 11.013522148132324 2.1511452198028564 5949540 0 -1
0.1719096451997757 11.216385841369629 -0.5162748694419861 5949540 0 -1
3.871947765350342 10.540589332580566 -0.08604580909013748 6933851 5 -1
-0.344683974981308 11.240632057189941 -0.6040664911270142 4456788 0 -1
-0.3441660404205322 11.22374153137207 -0.8629521727561951 4456788 0 -1
-0.34395256638526917 11.216778755187988 -0.9492473602294922 4456788 0 -1
-4.399893283843994 10.363851547241211 0.2588856518268585 4456788 0 -1
-3.850527048110962 9.974505424499512 -3.5381038188934326 4456788 0 -1
-4.392779350280762 10.347095489501953 -0.690361738204956 4456788 0 -1
-3.6866748332977295 10.036222457885742 -3.5381038188934326 4523353 0 -1
-0.7683821320533752 11.115609169006348 -1.6396090984344482 4147337 0 -1
4.032470703125 10.445816993713379 1.2081329822540283 5424489 0 -1
-0.859296441078186 11.18144702911377 1.035542607307434 6343264 0 -1
4.1109232902526855 10.393719673156738 1.380723476409912 6343264 0 -1
-0.7730258107185364 11.18278694152832 1.3847140073776245 4456788 0 -1
-0.8617799878120422 11.213764190673828 1.038535475730896 4456788 0 -1
-0.7722651362419128 11.171782493591309 1.4712586402893066 4456788 0 -1
-5.28897762298584 9.796493530273438 -1.9039818048477173 4523353 0 -1
-0.7730258107185364 11.18278694152832 -1.3847140073776245 4147337 0 -1
3.9753220081329346 10.554596900939941 0.6058123707771301 5949540 5 -1
-0.7774368524551392 11.246597290039062 0.6923570036888123 6343264 0 -1
4.075006008148193 10.556001663208008 0.520764172077179 2271109 5 -1
3.9895942211151123 10.592490196228027 0.4339701533317566 5949540 5 -1
-0.7803203463554382 11.288310050964355 0.520764172077179 6343264 0 -1
3.9883038997650146 10.589064598083496 0.520764172077179 6343264 5 -1
3.9028639793395996 10.62475299835205 0.4339701533317566 6933851 5 -1
-0.7767162322998047 11.236172676086426 -1.479738473892212 3432845 0 -1
3.9997644424438477 10.619492530822754 0.5222606658935547 5424489 5 -1
3.998234510421753 10.61543083190918 0.6093040704727173 5949540 5 -1
4.009690761566162 10.64584732055664 0.6110499501228333 5424489 5 -1
-0.8902561068534851 11.584304809570312 -0.8928811550140381 2994813 0 -1
-0.8909220099449158 11.592968940734863 -1.1639877557754517 2666112 0 -1
-0.8940863609313965 11.63414478302002 -0.6267626881599426 2994813 0 -1
-0.09007080644369125 11.754522323608398 -0.8125717043876648 4456788 0 -1
-0.08996447175741196 11.740645408630371 -0.9931432008743286 4456788 0 -1
-0.08990327268838882 11.732658386230469 -1.083428978919983 4456788 0 -1
-0.09021299332380295 11.773077964782715 -0.9958866834640503 4456788 0 -1
-0.09021299332380295 11.773077964782715 -0.9958866834640503 4456788 0 -1
-0.09036489576101303 11.792901992797852 -0.7242812514305115 4456788 0 -1
-0.09026898443698883 11.780385971069336 -0.9053515791893005 4456788 0 -1
-0.09001272171735764 11.746942520141602 -1.2674921751022339 4456788 0 -1
-0.09039997309446335 11.797479629516602 -1.0894147157669067 4456788 0 -1
-0.09033303707838058 11.788744926452637 -1.180199384689331 4456788 0 -1
-4.922206878662109 10.829863548278809 -0.6389836668968201 4523353 0 -1
0 11.91276741027832 0.09128338098526001 4523353 0 -1
-4.388927936553955 11.09660530090332 -0.549196720123291 4456788 0 -1
-9.731685638427734 8.160740852355957 -4.2027764320373535 4726897 0 -1
-1.526002049446106 13.18893814086914 1.6401079893112183 4726897 0 -1
