VERSION .7
FIELDS x y z rgb label object
SIZE 4 4 4 4 4 4
TYPE F F F I I I
COUNT 1 1 1 1 1 1
WIDTH 492
HEIGHT 1
POINTS 492
VIEWPOINT 0 0 0 1 0 0 0
DATA ascii
-1.7358297109603882 2.237309217453003 -0.02169850841164589 4456788 7 -1
-1.2575894594192505 2.534921407699585 0.10849253833293915 4456788 0 -1
-1.843885898590088 2.148249387741089 -0.06509552150964737 4456788 7 -1
-1.843885898590088 2.148249387741089 0.06509552150964737 4456788 7 -1
-1.7307772636413574 2.230797052383423 0.2169850766658783 4456788 7 -1
-1.0664223432540894 2.5711236000061035 0.520764172077179 4456788 0 -1
-1.82262122631073 2.167189359664917 0.02169850841164589 4456788 7 -1
-2.2582449913024902 1.7571349143981934 0.1316874921321869 4456788 0 -1
-1.9277844429016113 2.1112444400787354 -0.17558333277702332 4456788 7 -1
-1.1153606176376343 2.6272075176239014 0.24142707884311676 4456788 0 -1
-2.3450465202331543 1.6375861167907715 -0.1536354124546051 4456788 0 -1
-1.7954444885253906 2.2230374813079834 -0.19753125309944153 4456788 7 -1
-1.7954444885253906 2.2230374813079834 -0.19753125309944153 4456788 7 -1
-1.5359481573104858 2.4168291091918945 -0.06584374606609344 4456788 0 -1
-1.1991355419158936 2.5803534984588623 0.3292187452316284 4456788 0 -1
-0.8558682203292847 2.7331480979919434 -0.04389583319425583 4456788 0 -1
-0.35228025913238525 2.681370973587036 0.9437603950500488 4456788 0 -1
-0.35228025913238525 2.681370973587036 0.9437603950500488 4456788 0 -1
0.10617335885763168 2.769237995147705 0.7242812514305115 4456788 0 -1
0.1653033047914505 2.691582679748535 0.965708315372467 4456788 0 -1
1.9227904081344604 2.062180280685425 -0.5048021078109741 4456788 0 -1
-1.710680603981018 2.294790744781494 0.10973957926034927 4456788 7 -1
-1.705845594406128 2.2883048057556152 0.24142707884311676 4456788 7 -1
-1.6483381986618042 2.3010501861572266 0.4389583170413971 4456788 7 -1
-1.6656404733657837 2.3252038955688477 -0.1536354124546051 3302798 0 -1
-1.6569873094558716 2.313124179840088 -0.3292187452316284 3238030 0 -1
-1.8867172002792358 2.198150873184204 0.02219732478260994 4456788 7 -1
-1.728135347366333 2.3182053565979004 0.17757859826087952 4456788 7 -1
-1.8418910503387451 2.23496413230896 0.06659197062253952 4456788 7 -1
-1.5793287754058838 2.3876125812530518 0.4439464807510376 4456788 7 -1
-1.886772632598877 2.1982152462005615 0 4456788 7 -1
-1.728135347366333 2.3182053565979004 0.17757859826087952 4456788 7 -1
-1.9302599430084229 2.1583034992218018 -0.08878929913043976 4456788 7 -1
-1.6065983772277832 2.3808627128601074 0.37735453248023987 4456788 7 -1
-1.8199669122695923 2.2533998489379883 0.04439464956521988 4456788 7 -1
-1.6798501014709473 2.3450400829315186 0.2663678824901581 4456788 7 -1
-1.9302599430084229 2.1583034992218018 -0.08878929913043976 4456788 7 -1
-1.9930031299591064 2.0928664207458496 -0.19977591931819916 4456788 7 -1
-1.6978669166564941 2.323455810546875 0.3329598605632782 4456788 7 -1
-1.8148293495178223 2.2470388412475586 0.2219732403755188 4456788 7 -1
-1.6211971044540405 2.3550989627838135 0.46614381670951843 4456788 7 -1
-1.7199171781539917 2.3071811199188232 0.3329598605632782 4456788 7 -1
-1.863206386566162 2.215446949005127 0.1109866201877594 4456788 7 -1
-1.8397258520126343 2.2323367595672607 0.15538127720355988 4456788 7 -1
-1.9956468343734741 2.095642566680908 -0.13318394124507904 4456788 7 -1
-1.8175604343414307 2.250420331954956 0.15538127720355988 4456788 7 -1
-1.7313913106918335 2.322572946548462 0 3302798 7 -1
-1.6367568969726562 2.377702474594116 -0.24417057633399963 3302798 0 -1
-1.7222479581832886 2.3568203449249268 0.2469140589237213 4456788 7 -1
-1.8392807245254517 2.277313470840454 0.11223366111516953 4456788 7 -1
-1.7222479581832886 2.3568203449249268 0.2469140589237213 4456788 7 -1
-1.839767336845398 2.2779159545898438 0.08978693187236786 4456788 7 -1
-1.9956468343734741 2.1403181552886963 -0.1346803903579712 4456788 7 -1
-1.8168504238128662 2.29524827003479 0.11223366111516953 4456788 7 -1
-1.6007188558578491 2.419949769973755 0.40404120087623596 4456788 7 -1
-1.9301923513412476 2.203190565109253 -0.04489346593618393 4456788 7 -1
-1.7938398122787476 2.3120784759521484 0.1346803903579712 4456788 7 -1
-1.885027289390564 2.2413933277130127 0.0673401951789856 4456788 7 -1
-1.7210763692855835 2.3552169799804688 0.2693607807159424 4456788 7 -1
-1.7198020219802856 2.35347318649292 0.29180753231048584 4456788 7 -1
-1.8352206945419312 2.2722864151000977 0.22446732223033905 4456788 7 -1
-1.997231364250183 2.1420176029205322 -0.0673401951789856 4456788 7 -1
-1.8379825353622437 2.2757060527801514 0.15712712705135345 4456788 7 -1
-1.525919795036316 2.3068692684173584 0.9652094841003418 3238030 7 -1
-1.746781826019287 2.3903937339782715 0.09078456461429596 4456788 7 -1
-1.7424650192260742 2.384486436843872 0.2269614040851593 4456788 7 -1
-1.836443543434143 2.320000410079956 0.13617683947086334 4456788 7 -1
-1.7463197708129883 2.389761447906494 0.11348070204257965 4456788 7 -1
-1.7401994466781616 2.3813860416412354 0.2723536789417267 4456788 7 -1
-1.974042534828186 2.207258701324463 -0.06808841973543167 4456788 7 -1
-1.8370376825332642 2.3207509517669678 0.11348070204257965 4456788 7 -1
-1.7208001613616943 2.4022059440612793 0.2042652666568756 4456788 7 -1
-1.8597171306610107 2.302616834640503 0.11348070204257965 4456788 7 -1
-1.7187687158584595 2.399369955062866 0.2496575564146042 4456788 7 -1
-1.9289454221725464 2.247349500656128 -0.04539228230714798 4456788 7 -1
-1.6167114973068237 2.444127321243286 0.4312266707420349 4456788 7 -1
-1.7401994466781616 2.3813860416412354 0.2723536789417267 4456788 7 -1
-1.7401994466781616 2.3813860416412354 0.2723536789417267 4456788 7 -1
-1.6817818880081177 2.3477370738983154 0.6581881046295166 3757452 7 -1
-1.6817818880081177 2.3477370738983154 0.6581881046295166 3757452 7 -1
-1.5554745197296143 2.3515496253967285 0.9078456163406372 3432845 7 -1
-1.5842374563217163 2.395033359527588 0.7262765169143677 3238030 7 -1
-1.5633167028427124 2.363405466079712 0.8624533414840698 3107982 7 -1
-1.5554745197296143 2.3515496253967285 0.9078456163406372 2977934 7 -1
-1.7659772634506226 2.4166617393493652 0.09178219735622406 4456788 7 -1
-1.7642639875411987 2.4143173694610596 0.1606188416481018 4456788 7 -1
-1.6344776153564453 2.4709858894348145 0.4359654188156128 4456788 7 -1
-1.7649390697479248 2.415241241455078 0.1376732885837555 4456788 7 -1
-1.765510082244873 2.416022539138794 0.11472774296998978 4456788 7 -1
-1.7884387969970703 2.399099349975586 0.11472774296998978 4456788 7 -1
-1.7884387969970703 2.399099349975586 0.11472774296998978 4456788 7 -1
-1.7884387969970703 2.399099349975586 0.11472774296998978 4456788 7 -1
-1.6243987083435059 2.3597497940063477 0.8719308376312256 3757452 7 -1
-1.716239333152771 2.348597764968872 0.7113119959831238 3562893 7 -1
-1.5983916521072388 2.416431427001953 0.7572031021118164 3562893 7 -1
-1.5725675821304321 2.3773908615112305 0.9178219437599182 3432845 7 -1
-1.5553537607192993 2.351367235183716 1.0096042156219482 3302798 7 -1
-1.5983916521072388 2.416431427001953 0.7572031021118164 3238030 7 -1
-1.580496072769165 2.3893771171569824 0.8719308376312256 3107982 7 -1
-1.6943140029907227 2.318593978881836 0.8489853143692017 2328718 7 -1
-1.6728135347366333 2.2891714572906494 0.9637130498886108 2264205 7 -1
-1.6982576847076416 2.3239905834198 0.8260397911071777 2006409 7 -1
-1.8072936534881592 2.4243922233581543 0.13916973769664764 4456788 7 -1
-1.7851725816726685 2.442929744720459 0.09277983009815216 4456788 7 -1
-1.7847003936767578 2.4422836303710938 0.1159747838973999 4456788 7 -1
-1.8078783750534058 2.4251766204833984 0.1159747838973999 4456788 7 -1
-1.6251133680343628 2.360787868499756 0.9741882085800171 3757452 7 -1
-1.6198652982711792 2.4005231857299805 0.8814083933830261 2912910 7 -1
-1.716717004776001 2.3492515087127686 0.8350184559822083 2328718 7 -1
-1.7000538110733032 2.326448678970337 0.9277982711791992 2264205 7 -1
-1.8728493452072144 2.4139137268066406 0.16411055624485016 4456788 7 -1
-1.7784210443496704 2.4826433658599854 0.18755492568016052 4456788 7 -1
-1.8494387865066528 2.431896448135376 0.16411055624485016 4456788 7 -1
-1.7041884660720825 2.525484085083008 -0.2813323736190796 2588302 0 -1
-1.529603123664856 2.5056588649749756 0.9714447259902954 2588302 7 -1
-2.585111618041992 2.657470464706421 -0.5162748694419861 4456788 0 -1
-1.6265779733657837 3.2092950344085693 1.0325497388839722 4456788 0 -1
-2.8645997047424316 2.5784404277801514 0.38583439588546753 4456788 0 -1
-2.9465126991271973 2.411189079284668 0.7123096585273743 4456788 0 -1
-2.8514039516448975 2.5665628910064697 0.5342322587966919 4456788 0 -1
-2.8142566680908203 2.650799512863159 0.23743654787540436 4456788 0 -1
-2.910195827484131 2.499701976776123 0.5342322587966919 4456788 0 -1
-2.0219340324401855 3.181532382965088 0.8903870582580566 4212104 0 -1
-3.1993653774261475 2.1704466342926025 0.23743654787540436 2782862 0 -1
-2.6407835483551025 2.8322231769561768 -0.08903870731592178 2782862 0 -1
-2.9756271839141846 2.4952845573425293 0.41900569200515747 4456788 0 -1
-2.862957715988159 2.636561393737793 0.3292187452316284 4456788 0 -1
-2.1386306285858154 3.233158826828003 0.4788636267185211 4456788 0 -1
-3.0053834915161133 2.459364175796509 0.41900569200515747 4456788 0 -1
-2.856602191925049 2.6307082176208496 0.41900569200515747 4456788 0 -1
-3.767063617706299 1.0165393352508545 0.17957386374473572 4456788 0 -1
-3.1125221252441406 2.3595924377441406 0.02992897666990757 4456788 0 -1
-3.0053834915161133 2.459364175796509 0.41900569200515747 4456788 0 -1
-2.862957715988159 2.636561393737793 0.3292187452316284 4456788 0 -1
-3.6486544609069824 1.3861076831817627 0.1496448814868927 4456788 0 -1
-2.9756271839141846 2.4952845573425293 0.41900569200515747 4456788 0 -1
-2.067728042602539 3.253589630126953 0.6285085082054138 4456788 0 -1
-2.8453192710876465 2.6800577640533447 0.4828541576862335 4456788 0 -1
-3.137077569961548 2.3782079219818115 -0.12071353942155838 3692940 0 -1
-0.8420350551605225 5.164735317230225 -0.28108298778533936 4456788 0 -1
-1.4735583066940308 4.984298229217529 -0.8888906240463257 4456788 0 -1
-1.0100733041763306 5.175214767456055 0.04040411859750748 4456788 4 -1
-1.2267638444900513 5.193794250488281 0.12270880490541458 11197490 4 -1
-1.227052092552185 5.195014476776123 0.04090293496847153 11918891 4 -1
-1.2316311597824097 5.2144012451171875 -0.37037110328674316 2271109 4 -1
-1.192857265472412 5.233933925628662 -0.1646093726158142 3651704 4 -1
-1.1921560764312744 5.2308573722839355 -0.2469140589237213 4045940 4 -1
-1.2336639165878296 5.2230072021484375 -0.20576171576976776 4505456 4 -1
-1.27568519115448 5.216800212860107 -0.04115234315395355 7589974 4 -1
-1.3580273389816284 5.196135997772217 0 10672695 4 -1
-1.316527009010315 5.205341815948486 0.12345702946186066 11197490 4 -1
-1.3990153074264526 5.184597492218018 0.0823046863079071 11918891 4 -1
-1.3658968210220337 5.226246356964111 0.12420525401830673 3651704 4 -1
-1.2006155252456665 5.267975330352783 0.04140175133943558 3651704 4 -1
-1.3247004747390747 5.237658500671387 0.08280350267887115 4045940 4 -1
-1.3234552145004272 5.232734680175781 0.24841050803661346 7589974 4 -1
-1.3245059251785278 5.236889362335205 0.12420525401830673 8705099 4 -1
-1.1591129302978516 5.276774883270264 -0.08280350267887115 8705099 4 -1
-1.366097331047058 5.227014064788818 0.08280350267887115 10672695 4 -1
-1.3238834142684937 5.2344279289245605 0.20700876414775848 11197490 4 -1
-0.9985708594322205 5.337411403656006 0.24990695714950562 4456788 4 -1
-1.3704472780227661 5.243658065795898 0.416511595249176 3238030 4 -1
-1.3327980041503906 5.269674777984619 0.0416511595249176 2468738 4 -1
-1.3328371047973633 5.269829273223877 0 2666112 4 -1
-1.3734791278839111 5.255258560180664 0.208255797624588 2994813 4 -1
-1.3734791278839111 5.255258560180664 0.208255797624588 3651704 4 -1
-1.3725097179412842 5.251549243927002 0.2915581166744232 4045940 4 -1
-1.373034954071045 5.25355863571167 0.24990695714950562 6343264 4 -1
-1.373034954071045 5.25355863571167 0.24990695714950562 7589974 4 -1
-1.2035853862762451 5.281006336212158 0.45816275477409363 7589974 4 -1
-1.291148066520691 5.280034065246582 -0.0416511595249176 8180304 4 -1
-1.331427812576294 5.264257431030273 0.24990695714950562 11197490 4 -1
2.8767597675323486 4.618443965911865 -0.5447073578834534 4212104 5 -1
2.88425612449646 4.630479335784912 -0.37710511684417725 3238030 5 -1
2.8408620357513428 4.6536455154418945 -0.41900569200515747 3107982 5 -1
2.8438804149627686 4.658590316772461 -0.335204541683197 2977934 5 -1
-1.3407788276672363 5.301229476928711 0.04190056771039963 2468738 4 -1
-1.3406606912612915 5.30076265335083 0.08380113542079926 2666112 4 -1
-1.3812566995620728 5.285017013549805 0.25140342116355896 3651704 4 -1
-1.3807283639907837 5.282995700836182 0.2933039665222168 4045940 4 -1
-1.2533214092254639 5.30623197555542 0.41900569200515747 5949540 4 -1
-1.4649691581726074 5.26242733001709 0.25140342116355896 6343264 4 -1
-1.250765085220337 5.295409202575684 0.5447073578834534 7589974 4 -1
-1.2516919374465942 5.299333095550537 0.5028068423271179 8180304 4 -1
-1.378653645515442 5.275057315826416 0.41900569200515747 10672695 4 -1
-1.3801183700561523 5.2806620597839355 0.335204541683197 11197490 4 -1
-1.3812566995620728 5.285017013549805 0.25140342116355896 11918891 4 -1
2.893883466720581 4.64593505859375 -0.5479496717453003 4212104 5 -1
2.8960278034210205 4.649377346038818 -0.5057997107505798 3238030 5 -1
2.857771873474121 4.6813459396362305 -0.42149975895881653 3107982 5 -1
2.857771873474121 4.6813459396362305 -0.42149975895881653 2977934 5 -1
2.857771873474121 4.6813459396362305 -0.42149975895881653 2912910 5 -1
-1.1796448230743408 5.370244979858398 0.1685999035835266 2134668 4 -1
-1.2607816457748413 5.3378167152404785 0.42149975895881653 3257723 4 -1
-1.262121319770813 5.3434882164001465 0.3371998071670532 3651704 4 -1
-1.261488914489746 5.340810775756836 0.37934979796409607 4045940 4 -1
-1.2607816457748413 5.3378167152404785 0.42149975895881653 5949540 4 -1
-1.3028078079223633 5.3277153968811035 0.42149975895881653 6343264 4 -1
-1.2607816457748413 5.3378167152404785 0.42149975895881653 8180304 4 -1
-1.4296873807907104 5.298264503479004 0.37934979796409607 11197490 4 -1
-1.4296873807907104 5.298264503479004 0.37934979796409607 11918891 4 -1
2.913163900375366 4.676888465881348 -0.5087926387786865 3238030 5 -1
2.8746817111968994 4.709046363830566 -0.423993855714798 3107982 5 -1
2.8762941360473633 4.7116875648498535 -0.3815944492816925 2977934 5 -1
-1.183692455291748 5.388671875 0.423993855714798 2134668 4 -1
-1.2259671688079834 5.37921142578125 0.423993855714798 2139270 4 -1
-1.2266548871994019 5.382228851318359 0.3815944492816925 2468738 4 -1
-1.2674552202224731 5.366070747375488 0.46639323234558105 3257723 4 -1
-1.2701505422592163 5.377481937408447 0.29679569602012634 3651704 4 -1
-1.2695894241333008 5.3751068115234375 0.3391950726509094 4045940 4 -1
-1.3119090795516968 5.36493444442749 0.3391950726509094 6343264 4 -1
-1.3950661420822144 5.337855339050293 0.423993855714798 8180304 4 -1
-1.4373408555984497 5.326627731323242 0.423993855714798 8705099 4 -1
-1.4364492893218994 5.3233232498168945 0.46639323234558105 10672695 4 -1
2.9322948455810547 4.707602024078369 -0.46913671493530273 3432845 5 -1
2.8932135105133057 4.739403247833252 -0.38383913040161133 3238030 5 -1
2.8915915489196777 4.736746311187744 -0.42648792266845703 3107982 5 -1
-1.233178734779358 5.410853862762451 0.42648792266845703 2468738 4 -1
-1.274910807609558 5.3976359367370605 0.46913671493530273 3257723 4 -1
-1.2781108617782593 5.411183834075928 0.2558927536010742 5949540 4 -1
-1.2731002569198608 5.389970302581787 0.5544342994689941 6343264 4 -1
-1.4457957744598389 5.3579607009887695 0.42648792266845703 8705099 4 -1
2.8993515968322754 4.749457836151123 -0.1279463768005371 8705099 5 -1
2.8993515968322754 4.749457836151123 -0.1279463768005371 9360965 5 -1
2.8979885578155518 4.747225284576416 -0.21324396133422852 10016830 5 -1
2.8987553119659424 4.748481273651123 -0.1705951690673828 10672695 5 -1
-1.585555076599121 5.363126277923584 -0.2573891878128052 3432845 4 -1
-1.5432014465332031 5.377348899841309 -0.21449099481105804 3238030 4 -1
-1.539794921875 5.365478992462158 -0.4289819896221161 3107982 4 -1
-1.2784172296524048 5.41248083114624 0.6434730291366577 6343264 4 -1
2.916306734085083 4.777232646942139 -0.1286945939064026 9360965 5 -1
2.914936065673828 4.77498722076416 -0.21449099481105804 10016830 5 -1
2.9157071113586426 4.77625036239624 -0.1715928018093109 10672695 5 -1
-1.5917680263519287 5.384141445159912 -0.43147608637809753 4017546 4 -1
-1.5521734952926636 5.4086127281188965 0.21573804318904877 3238030 4 -1
-1.548747181892395 5.396673679351807 -0.43147608637809753 3107982 4 -1
-1.5085694789886475 5.4190473556518555 -0.2588856518268585 2070922 4 -1
-1.2483017444610596 5.477209091186523 0.3883284628391266 2994813 4 -1
-1.2889447212219238 5.4570512771606445 0.517771303653717 6343264 4 -1
2.8908050060272217 4.832211017608643 -0.04314760863780975 9360965 5 -1
-1.3907140493392944 5.321203231811523 1.2081329822540283 13164576 4 -1
-1.2540351152420044 5.502365589141846 0.47736719250679016 2994813 4 -1
-1.4314287900924683 5.476987361907959 0.17358806729316711 3257723 4 -1
-1.2994621992111206 5.501579761505127 0.34717613458633423 6343264 4 -1
-1.4562712907791138 5.3967814445495605 0.9113373756408691 12640037 4 -1
-1.5489814281463623 5.397489547729492 0.7377492785453796 13164576 4 -1
-1.2212026119232178 5.559433937072754 0.21823212504386902 4147337 4 -1
-1.3965215682983398 5.521627902984619 0.08729285001754761 2264205 4 -1
-4.056703567504883 3.821082592010498 -1.1784534454345703 5949540 0 -1
-0.507768452167511 5.498882293701172 1.3966856002807617 5949540 0 -1
-1.4646406173706055 5.427797317504883 0.9165748953819275 11918891 4 -1
-1.4607511758804321 5.413383483886719 1.003867745399475 12640037 4 -1
-1.5095800161361694 5.422677516937256 0.8729285001754761 13164576 4 -1
-1.6183663606643677 5.474110126495361 -0.4828541576862335 2328718 4 -1
-4.129526615142822 3.8029727935791016 -1.141291618347168 4505456 0 -1
-4.357867240905762 3.5661282539367676 -1.0534999370574951 8705099 0 -1
-1.4690983295440674 5.44431734085083 1.0096042156219482 8705099 4 -1
2.639289140701294 5.098085880279541 -0.4855976402759552 4456788 0 -1
-4.357530117034912 3.742884635925293 -0.44145241379737854 4456788 0 -1
-1.6210522651672363 5.4831953048706055 -0.7063238620758057 2328718 0 -1
-4.332770347595215 3.633349895477295 -1.1036310195922852 4505456 0 -1
-1.4395848512649536 5.508194446563721 0.8829048275947571 8705099 4 -1
2.5554654598236084 5.151048183441162 -0.7103143930435181 4456788 0 -1
2.8405067920684814 5.047972679138184 -0.13318394124507904 4456788 5 -1
2.2221972942352295 5.234336853027344 -1.1098662614822388 4456788 0 -1
2.2221972942352295 5.234336853027344 -1.1098662614822388 4456788 0 -1
3.575216054916382 4.5166120529174805 -0.6215251088142395 4456788 0 -1
2.1209516525268555 5.23567533493042 -1.287444829940796 4456788 0 -1
2.4596123695373535 5.177553653717041 -0.8434983491897583 4456788 0 -1
3.4218790531158447 4.59027624130249 -0.8878929615020752 4456788 0 -1
3.764561414718628 4.3859639167785645 -0.3995518386363983 4456788 0 -1
4.083827972412109 4.10885763168335 0.08878929913043976 4456788 0 -1
2.6041696071624756 5.138117790222168 -0.6215251088142395 4456788 0 -1
-3.3387856483459473 4.568980693817139 -1.243050217628479 4456788 0 -1
2.2981250286102295 5.171236991882324 -1.243050217628479 4456788 0 -1
-1.496557354927063 5.546077728271484 0.7547090649604797 2458766 4 -1
-1.0329461097717285 5.521148681640625 1.4206287860870361 2328718 0 -1
-0.4825727045536041 5.704998970031738 0.8878929615020752 2328718 0 -1
-4.43089485168457 3.625887870788574 -0.8878929615020752 2264205 0 -1
-4.21647834777832 3.8830485343933105 -0.8434983491897583 2264205 0 -1
-0.9748455286026001 5.7001566886901855 -0.35515719652175903 2264205 0 -1
-0.5762996673583984 5.7566962242126465 0.31076255440711975 2264205 0 -1
-2.9427504539489746 4.919042110443115 -0.8434983491897583 2134668 0 -1
-2.1562013626098633 5.198559761047363 -1.3762341737747192 2134668 0 -1
-1.642409086227417 5.555434703826904 -0.08878929913043976 2134668 4 -1
-1.4639478921890259 5.601413249969482 -0.2219732403755188 2134668 4 -1
-4.158247470855713 4.004840850830078 -0.48834115266799927 3651704 0 -1
-3.268864870071411 4.748651504516602 -0.5771304368972778 3651704 0 -1
-4.306967258453369 3.699453830718994 -1.1542608737945557 4045940 0 -1
-4.030295372009277 4.143105506896973 -0.3995518386363983 4045940 0 -1
-1.5526719093322754 5.5774712562561035 0.2219732403755188 4045940 4 -1
3.0609817504882812 4.914200305938721 0.2219732403755188 13164576 5 -1
2.1289775371551514 5.255487442016602 -1.3393217325210571 4456788 0 -1
2.5230295658111572 5.196613788604736 -0.7589489817619324 4456788 0 -1
-3.4124321937561035 4.577603340148926 -1.1607455015182495 4456788 0 -1
-2.93949294090271 5.014420986175537 -0.40179651975631714 4456788 0 -1
-3.208005905151367 4.754033088684082 -1.026813268661499 2199437 0 -1
-2.2749547958374023 5.236766815185547 -1.1607455015182495 2199437 0 -1
-2.0400168895721436 5.416305065155029 -0.6696608662605286 2199437 0 -1
-1.6071388721466064 5.600142002105713 0.044644057750701904 2199437 4 -1
-4.081088066101074 4.017857074737549 -1.0714573860168457 2070922 0 -1
-3.4311277866363525 4.695346832275391 0.35715246200561523 2070922 0 -1
-1.8992412090301514 5.442412376403809 0.8482370972633362 2070922 0 -1
-4.553461074829102 3.361116886138916 -1.3839657306671143 3651704 0 -1
-3.278738498687744 4.762994766235352 -0.7143049240112305 3651704 0 -1
-4.28741455078125 3.770573139190674 -1.1607455015182495 4045940 0 -1
-4.1013407707214355 4.1264777183532715 -0.31250840425491333 4045940 0 -1
-1.4744540452957153 5.464165210723877 1.3839657306671143 9360965 4 -1
3.1227896213531494 4.913739204406738 0.22322028875350952 12640037 5 -1
3.0796260833740234 4.944132328033447 0.1339321732521057 13164576 5 -1
-2.7878129482269287 5.057614326477051 -0.9876562356948853 4456788 0 -1
2.271944999694824 5.2298383712768555 -1.3468040227890015 4456788 0 -1
2.5594136714935303 5.159006118774414 -1.0774431228637695 4456788 0 -1
-3.1834254264831543 4.717606067657471 -1.3916974067687988 4456788 0 -1
-1.5262998342514038 5.482738018035889 1.3916974067687988 9360965 0 -1
3.0077738761901855 5.02773380279541 -0.04489346593618393 9360965 5 -1
2.8701436519622803 5.10064172744751 -0.2693607807159424 10016830 5 -1
3.141066074371338 4.942497730255127 -0.17957386374473572 11197490 5 -1
-1.479782223701477 5.48391056060791 -1.4365909099578857 13164576 0 -1
3.1421735286712646 4.944240093231201 0.08978693187236786 13164576 5 -1
2.5485517978668213 5.249181270599365 -0.8125717043876648 4456788 0 -1
2.8870227336883545 5.130638122558594 -0.22571437060832977 4456788 5 -1
-4.2379150390625 3.9917690753936768 -0.9028574824333191 9360965 0 -1
2.8386526107788086 5.14984655380249 -0.36114299297332764 10016830 5 -1
3.114035129547119 4.999373912811279 -0.13542862236499786 11918891 5 -1
3.0776004791259766 5.041449546813965 -0.4539228081703186 4456788 5 -1
2.859377861022949 5.187446117401123 -0.09078456461429596 10016830 5 -1
-4.717062473297119 3.3879151344299316 -1.3236089944839478 2328718 0 -1
-4.498851776123047 3.7726213932037354 -1.0041171312332153 2328718 0 -1
-3.360686779022217 4.882040500640869 -0.5933419466018677 2328718 0 -1
2.9579877853393555 5.150007724761963 -0.45641690492630005 2328718 5 -1
-3.435616970062256 4.796058654785156 -0.8215504288673401 2134668 0 -1
3.255875825881958 5.021557331085205 -0.22945548593997955 4456788 5 -1
3.4851627349853516 4.8652238845825195 -0.22945548593997955 4456788 0 -1
2.5221574306488037 5.427290916442871 -0.22945548593997955 4456788 0 -1
3.433638334274292 4.889678478240967 -0.41301989555358887 4456788 0 -1
3.220339775085449 5.067235469818115 -0.46140506863594055 4456788 5 -1
3.5016305446624756 4.88821268081665 -0.3229835331439972 4456788 0 -1
2.6287732124328613 5.4144110679626465 -0.18456202745437622 4456788 0 -1
3.26981520652771 5.043056011199951 -0.36912405490875244 4456788 5 -1
3.737271308898926 4.721338272094727 -0.046140506863594055 4456788 0 -1
3.4540302753448486 4.918717384338379 -0.36912405490875244 4456788 0 -1
3.3234615325927734 5.024374008178711 -0.6030688881874084 4456788 5 -1
3.4645044803619385 4.933633327484131 -0.5566789507865906 4456788 0 -1
-3.7023580074310303 4.771965503692627 -0.4175092279911041 2977934 0 -1
1.7398453950881958 5.716407775878906 -0.9741882085800171 2912910 0 -1
2.8455307483673096 5.270625591278076 -0.8814083933830261 2912910 0 -1
3.2464358806610107 5.108297824859619 -0.13916973769664764 2912910 5 -1
2.6521098613739014 5.34585428237915 -1.020578145980835 2072968 0 -1
3.054445266723633 5.21051549911499 -0.4175092279911041 2072968 5 -1
-4.572603225708008 3.834467649459839 -1.020578145980835 8705099 0 -1
-1.401585578918457 5.541650295257568 -1.994766354560852 11197490 0 -1
2.6855552196502686 5.413269519805908 -0.37111932039260864 11197490 0 -1
3.1115968227386475 5.201282024383545 -0.5596718788146973 4456788 5 -1
2.8698244094848633 5.315623760223389 -0.7462291717529297 2977934 0 -1
3.1699838638305664 5.192783832550049 -0.18655729293823242 2977934 5 -1
1.8496776819229126 5.74444580078125 -0.7928684949874878 2912910 0 -1
3.264369249343872 5.136516094207764 -0.09327864646911621 2912910 5 -1
3.587430477142334 4.909240245819092 0.27983593940734863 2912910 0 -1
4.839282512664795 3.572094678878784 0.9327864646911621 2912910 0 -1
3.121530532836914 5.217886924743652 -0.27983593940734863 2588302 5 -1
2.23842453956604 5.659448623657227 -0.09327864646911621 2328718 0 -1
3.1247429847717285 5.223256587982178 -0.046639323234558105 2328718 5 -1
3.1247429847717285 5.223256587982178 -0.046639323234558105 2328718 5 -1
3.1203362941741943 5.215890884399414 -0.32647526264190674 2072968 5 -1
2.9531140327453613 5.248091697692871 0.886147141456604 6933851 0 -1
-1.5383745431900024 5.886187553405762 -0.18655729293823242 8705099 4 -1
2.75042724609375 5.4266886711120605 -0.18655729293823242 11197490 0 -1
3.1414527893066406 5.2511887550354 -0.04688873142004013 4456788 5 -1
3.3290021419525146 5.134340286254883 -0.04688873142004013 2328718 5 -1
-4.709435939788818 3.949212074279785 -1.2996658086776733 2139270 0 -1
-4.690852642059326 4.029190540313721 -1.107122778892517 7589974 0 -1
-4.756717681884766 3.988861083984375 -0.9627154469490051 10672695 0 -1
-4.691226959228516 4.125706672668457 -0.919318437576294 2072968 0 -1
-4.796401500701904 3.9249892234802246 -1.2096295356750488 2666112 0 -1
-4.544483661651611 4.185116291046143 -1.3063998222351074 2994813 0 -1
-4.606444835662842 4.146284103393555 -1.2096295356750488 3257723 0 -1
-2.1661150455474854 5.751099586486816 1.4515553712844849 3257723 0 -1
-4.606444835662842 4.146284103393555 -1.2096295356750488 5949540 0 -1
-4.953296661376953 3.755077362060547 -1.1128591299057007 7589974 0 -1
-4.72158145904541 4.0555853843688965 -1.0644739866256714 7589974 0 -1
-4.752081871032715 4.081783294677734 -1.0213263034820557 2139270 0 -1
-1.7483248710632324 6.0921101570129395 0.34044212102890015 2139270 4 -1
-2.1519954204559326 5.5745849609375 2.1399219036102295 2271109 0 -1
-4.576128959655762 4.310338973999023 -0.8754225969314575 2666112 0 -1
-4.63709831237793 4.173875331878662 -1.1672301292419434 2994813 0 -1
-4.684903621673584 4.120145320892334 -1.1672301292419434 3257723 0 -1
-4.93095588684082 3.8367645740509033 -1.1185954809188843 5949540 0 -1
-4.708683490753174 4.238309383392334 -0.38907670974731445 6343264 0 -1
-4.90787410736084 3.917299270629883 -0.9240571856498718 13164576 0 -1
-4.653934001922607 4.189029216766357 -1.2220999002456665 2139270 0 -1
-2.443107843399048 5.7546868324279785 1.2709839344024658 2139270 0 -1
-2.244762420654297 5.675472736358643 1.8575918674468994 2271109 0 -1
-2.2182083129882812 5.746104717254639 1.6620558500289917 2666112 0 -1
-4.605955600738525 4.241726398468018 -1.2220999002456665 2994813 0 -1
-4.653934001922607 4.189029216766357 -1.2220999002456665 3257723 0 -1
-4.95624303817749 3.856440305709839 -1.1243319511413574 5949540 0 -1
-4.672983169555664 4.3034539222717285 -0.5866079330444336 5949540 0 -1
-4.665783405303955 4.296823501586914 -0.6843759417533875 6343264 0 -1
-4.574105739593506 4.308433532714844 -1.2774684429168701 2139270 0 -1
-4.647899627685547 4.377941131591797 -0.5896008610725403 2468738 0 -1
-4.918796062469482 3.9260165691375732 -1.2283351421356201 2994813 0 -1
-4.918796062469482 3.9260165691375732 -1.2283351421356201 3257723 0 -1
-4.623063564300537 4.354547500610352 -0.884401261806488 3257723 0 -1
-4.892526149749756 4.102746486663818 -0.5896008610725403 6933851 0 -1
-4.693347454071045 4.322207450866699 -0.6387342214584351 6933851 0 -1
-4.790896415710449 4.1151227951049805 -1.283953070640564 2139270 0 -1
-4.606966495513916 4.437005996704102 -0.7901250123977661 2468738 0 -1
-4.91111421585083 3.9198853969573975 -1.4321016073226929 2666112 0 -1
-4.928071022033691 3.933419704437256 -1.3333358764648438 2994813 0 -1
-2.125938892364502 5.787436008453369 1.876546859741211 2994813 0 -1
-5.073014259338379 3.7446229457855225 -1.3333358764648438 3257723 0 -1
-4.862966060638428 3.9794604778289795 -1.4321016073226929 3257723 0 -1
-2.005345106124878 6.0600266456604 -0.8888906240463257 3257723 0 -1
-2.005345106124878 6.0600266456604 -0.8888906240463257 3257723 0 -1
-5.62824010848999 4.605699062347412 -1.4784914255142212 2458766 0 -1
-3.2236859798431396 6.639736175537109 1.7433629035949707 4456788 0 -1
-3.2391812801361084 6.671651840209961 2.001250982284546 4456788 0 -1
-3.2458302974700928 6.6853461265563965 2.068840503692627 4456788 0 -1
4.800421714782715 6.836048603057861 -0.44868525862693787 4212104 6 -1
4.859842300415039 6.784251689910889 -0.5768810510635376 4147337 6 -1
4.859842300415039 6.784251689910889 -0.5768810510635376 4017546 6 -1
4.805083274841309 6.842687129974365 -0.2563915550708771 3238030 6 -1
4.814558029174805 6.856179714202881 -0.579125702381134 4212104 6 -1
4.811859130859375 6.852336406707764 -0.6434730291366577 4147337 6 -1
4.811859130859375 6.852336406707764 -0.6434730291366577 4017546 6 -1
4.811859130859375 6.852336406707764 -0.6434730291366577 3432845 6 -1
4.881197929382324 6.814064025878906 -0.5147783756256104 3238030 6 -1
4.819100379943848 6.862648010253906 -0.45043110847473145 2523534 6 -1
4.814558029174805 6.856179714202881 -0.579125702381134 2458766 6 -1
4.872992515563965 6.802608966827393 -0.7078202962875366 2328718 6 -1
4.881197929382324 6.814064025878906 -0.5147783756256104 2264205 6 -1
4.827513217926025 6.87462854385376 -0.7105637788772583 4212104 6 -1
4.773275375366211 6.93409538269043 -0.452176958322525 4147337 6 -1
4.8242292404174805 6.869952201843262 -0.7751604914665222 3432845 6 -1
4.820657253265381 6.864865303039551 -0.8397572040557861 3302798 6 -1
4.835642337799072 6.886204719543457 -0.5167736411094666 2523534 6 -1
4.830509662628174 6.8788957595825195 -0.6459670662879944 2458766 6 -1
4.830509662628174 6.8788957595825195 -0.6459670662879944 2328718 6 -1
4.888552188873291 6.8243303298950195 -0.7751604914665222 2264205 6 -1
4.90011739730835 6.840475082397461 -0.5167736411094666 2199437 6 -1
4.90228271484375 6.8434977531433105 -0.452176958322525 2468738 6 -1
4.842476844787598 6.895937442779541 -0.2583868205547333 4505456 6 -1
4.839269638061523 6.8913702964782715 -0.8429995179176331 3432845 6 -1
4.831227779388428 6.879918575286865 -0.9726917743682861 3302798 6 -1
4.849160194396973 6.905455112457275 -0.6484611630439758 2523534 6 -1
4.849160194396973 6.905455112457275 -0.6484611630439758 2458766 6 -1
4.8518805503845215 6.909328460693359 -0.5836150646209717 2328718 6 -1
4.913815975189209 6.859597682952881 -0.6484611630439758 2199437 6 -1
4.861173629760742 6.922563076019287 -0.2593844532966614 2271109 6 -1
4.858316421508789 6.918493270874023 -0.38907670974731445 2468738 6 -1
4.861173629760742 6.922563076019287 -0.2593844532966614 4505456 6 -1
4.927002429962158 6.8780059814453125 -0.19453835487365723 8705099 6 -1
4.925989627838135 6.876591682434082 -0.2593844532966614 11918891 6 -1
4.862173557281494 6.923986434936523 0.19453835487365723 12640037 0 -1
4.8614821434021 6.923001766204834 -0.7811462879180908 3432845 6 -1
4.845335006713867 6.900007247924805 -1.041528344154358 3302798 6 -1
4.86781120300293 6.932014465332031 -0.6509552597999573 2523534 6 -1
4.875136375427246 6.942446231842041 -0.45566868782043457 2328718 6 -1
4.870541572570801 6.9359025955200195 -0.5858597159385681 2199437 6 -1
4.879870891571045 6.949188232421875 -0.2603820860385895 2271109 6 -1
4.877002239227295 6.945103168487549 -0.3905731439590454 2468738 6 -1
4.882164478302002 6.952454566955566 0 8705099 0 -1
4.945952415466309 6.9044599533081055 -0.1952865719795227 11918891 6 -1
5.117012023925781 6.335650444030762 -2.842005729675293 4456788 0 -1
4.776524543762207 7.221098899841309 -0.0663425624370575 3887499 0 -1
4.776524543762207 7.221098899841309 -0.0663425624370575 3757452 0 -1
4.776664733886719 7.221310615539551 0 2912910 0 -1
4.8430070877075195 7.1769866943359375 0 2328718 0 -1
5.408354759216309 6.696377754211426 1.1986554861068726 4456788 0 -1
4.7933549880981445 7.2465434074401855 -0.19977591931819916 3887499 0 -1
4.861071586608887 7.203756332397461 0.06659197062253952 5949540 0 -1
4.875838279724121 7.225640296936035 0.3342069089412689 8180304 0 -1
3.8017072677612305 7.830270767211914 -1.2121235132217407 4456788 0 -1
4.644290924072266 7.456096172332764 0.2693607807159424 4456788 0 -1
4.5739898681640625 7.054492473602295 -2.558927536010742 3562893 0 -1
4.66368293762207 7.487228870391846 0 4456788 0 -1
5.798867702484131 6.619035243988037 -0.6083064675331116 4456788 0 -1
-1.6653248071670532 8.19153118133545 -2.9170775413513184 4456788 0 -1
5.256375789642334 7.051159858703613 -1.017585277557373 4456788 0 -1
4.679655075073242 7.512871265411377 -0.20351704955101013 4456788 0 -1
6.171719074249268 6.34446907043457 -0.20351704955101013 4456788 0 -1
3.767911911010742 7.93156099319458 -1.3617684841156006 4456788 0 -1
4.349463939666748 7.729598522186279 -0.5447073578834534 4456788 0 -1
3.895996332168579 7.853153705596924 -1.6401079893112183 4456788 0 -1
5.838105201721191 6.663822174072266 -1.0250674486160278 4456788 0 -1
4.249180793762207 7.708808898925781 -1.4350944757461548 4456788 0 -1
-0.5424531102180481 8.832596778869629 1.7271513938903809 5949540 0 -1
-0.8211833834648132 8.893012046813965 1.4560446739196777 5949540 0 -1
-0.5444114208221436 8.864482879638672 1.7333866357803345 5949540 0 -1
7.134850025177002 12.67961311340332 -3.802476644515991 3238030 0 -1
7.548375129699707 12.365072250366211 -4.032929420471191 3238030 0 -1
