VERSION .7
FIELDS x y z rgb label object
SIZE 4 4 4 4 4 4
TYPE F F F I I I
COUNT 1 1 1 1 1 1
WIDTH 688
HEIGHT 1
POINTS 688
VIEWPOINT 0 0 0 1 0 0 0
DATA ascii
-1.6286065578460693 2.3658626079559326 -0.37735453248023987 4456788 0 -1
-1.5959067344665527 2.412674903869629 -0.15538127720355988 4456788 0 -1
-1.5753356218338013 2.381575584411621 -0.48834115266799927 4456788 0 -1
-2.0975894927978516 1.931716799736023 -0.5105384588241577 4726897 0 -1
-1.6070646047592163 2.334568738937378 -0.5993277430534363 4726897 0 -1
-2.134639263153076 1.833540678024292 0.6881170868873596 3302798 0 -1
-1.628740906715393 2.2736928462982178 0.7547090649604797 3302798 0 -1
-2.3296241760253906 1.7196016311645508 0.08878929913043976 2523534 0 -1
-1.6418200731277466 2.2919509410858154 -0.6659197211265564 2523534 0 -1
-1.5729501247406006 2.4259707927703857 -0.47138139605522156 4456788 0 -1
-2.425812244415283 1.451004981994629 -0.8851494789123535 4456788 0 -1
-1.8460177183151245 2.239971399307251 -0.5900996923446655 4456788 0 -1
-1.8333333730697632 2.2245800495147705 -0.6808842420578003 4456788 0 -1
-1.251090407371521 2.6335806846618652 -0.5220112204551697 4456788 0 -1
-1.845226526260376 2.284675359725952 -0.38583439588546753 4456788 0 -1
-2.170592784881592 2.044520616531372 -0.275346577167511 4456788 0 -1
-2.0189712047576904 2.211108922958374 -0.04589109867811203 4456788 0 -1
-1.9976948499679565 2.18780779838562 0.4359654188156128 4456788 0 -1
-2.0191490650177 2.2113037109375 -0.022945549339056015 4456788 0 -1
-1.854164719581604 2.3423876762390137 -0.20650994777679443 4456788 0 -1
-1.857224941253662 2.3462538719177246 -0.11472774296998978 4456788 0 -1
-1.8585349321365356 2.3479087352752686 -0.022945549339056015 4523353 0 -1
-1.9503716230392456 2.2723124027252197 0 4590430 0 -1
-1.7605202198028564 2.409193992614746 0.25240105390548706 4725613 0 -1
-2.129923105239868 2.0969228744506836 -0.18356439471244812 4341894 0 -1
-2.639005422592163 1.3604581356048584 -0.39007434248924255 3238030 0 -1
-2.4780466556549072 1.6811045408248901 -0.022945549339056015 3238030 0 -1
-1.9274260997772217 2.2918076515197754 0 3238030 0 -1
-1.628436803817749 2.461853504180908 0.5048021078109741 3238030 0 -1
-2.0310044288635254 2.224287271499634 0.3015344440937042 4456788 0 -1
-2.0638058185577393 2.2134180068969727 -0.06958486884832382 4456788 0 -1
-1.8232879638671875 2.397509813308716 0.3015344440937042 4456788 0 -1
-1.8782950639724731 2.3728718757629395 -0.06958486884832382 4456788 0 -1
-1.8782950639724731 2.3728718757629395 -0.06958486884832382 4456788 0 -1
-1.8787363767623901 2.373429536819458 0.02319495752453804 4523353 0 -1
-1.9942392110824585 2.2762959003448486 -0.06958486884832382 4590430 0 -1
-2.3624799251556396 1.8856515884399414 0.16236470639705658 4725613 0 -1
-1.9478615522384644 2.3161063194274902 -0.06958486884832382 4725613 0 -1
-1.7817597389221191 2.4382596015930176 0.20875461399555206 4725613 0 -1
-2.0358240604400635 2.276339292526245 -0.18755492568016052 4456788 0 -1
-2.060922622680664 2.2570528984069824 -0.1406661868095398 4456788 0 -1
-2.060922622680664 2.2570528984069824 -0.1406661868095398 4456788 0 -1
-2.1891655921936035 2.108402729034424 -0.3516654670238495 4456788 0 -1
-2.0850167274475098 2.2361667156219482 -0.11722182482481003 4456788 0 -1
-1.8442587852478027 2.4250850677490234 0.2813323736190796 4456788 0 -1
-1.4056291580200195 2.715131998062134 0.11722182482481003 4456788 0 -1
-1.9906638860702515 2.3192555904388428 -0.1406661868095398 4456788 0 -1
-1.9922444820404053 2.3210971355438232 -0.0703330934047699 4456788 0 -1
-1.9918348789215088 2.320619821548462 -0.09377746284008026 4523353 0 -1
-2.1283581256866455 2.187932252883911 -0.2109992951154709 4590430 0 -1
-1.9458823204040527 2.36114764213562 0 4590430 0 -1
-2.1910533905029297 2.1102209091186523 -0.3282211124897003 4341894 0 -1
-1.739593505859375 2.47727108001709 -0.44544294476509094 4341894 0 -1
-2.167248487472534 2.1805312633514404 -0.33171284198760986 4456788 0 -1
-2.0399422645568848 2.2340757846832275 0.6397318840026855 4456788 0 -1
-2.1469993591308594 2.207095146179199 -0.2843252718448639 4456788 0 -1
-2.0275299549102783 2.3142952919006348 -0.3080190420150757 4456788 0 -1
-2.0476973056793213 2.2896151542663574 -0.35540661215782166 4456788 0 -1
-2.0124921798706055 2.344686985015869 -0.11846886575222015 4456788 0 -1
-2.0828473567962646 2.281064033508301 -0.14216263592243195 4456788 0 -1
-2.1081886291503906 2.2610185146331787 -0.07108131796121597 4456788 0 -1
-1.9902185201644897 2.3664710521698 0.02369377389550209 4456788 0 -1
-2.0840725898742676 2.2824056148529053 -0.09477509558200836 4456788 0 -1
-2.0110716819763184 2.343031883239746 -0.16585642099380493 4456788 0 -1
-2.0124921798706055 2.344686985015869 -0.11846886575222015 4456788 0 -1
-2.0367071628570557 2.324770450592041 -0.09477509558200836 4523353 0 -1
-2.0613582134246826 2.3048901557922363 0 4590430 0 -1
-2.5088844299316406 1.8019449710845947 -0.14216263592243195 4729209 0 -1
-1.9888157844543457 2.3648030757904053 -0.11846886575222015 4729209 0 -1
-1.847625970840454 2.4784958362579346 0.07108131796121597 4729209 0 -1
-2.1993770599365234 2.1653008460998535 -0.18955019116401672 4341894 0 -1
-1.9419766664505005 2.4044668674468994 0.09477509558200836 3238030 0 -1
-2.0585694313049316 2.3497250080108643 -0.07182954251766205 4456788 0 -1
-2.0828120708465576 2.32887864112854 -0.04788636416196823 4523353 0 -1
-2.8858535289764404 1.726179599761963 0.38907670974731445 4523353 0 -1
-2.8379640579223633 1.7548646926879883 0.570645809173584 4724328 0 -1
-3.0693953037261963 1.0073264837265015 1.0115994215011597 4664956 0 -1
-2.7313148975372314 1.8529216051101685 0.7522149682044983 4664956 0 -1
3.034658432006836 1.4337488412857056 0.4409535825252533 4664956 0 -1
3.1668038368225098 0.9503175020217896 0.7262765169143677 4664956 0 -1
-2.7407455444335938 1.8593192100524902 0.7003380656242371 4600703 0 -1
-2.487417459487915 2.0858843326568604 0.9597225189208984 4600703 0 -1
3.0828659534454346 1.3180198669433594 0.4668920338153839 4600703 0 -1
-3.1303417682647705 0.9393757581710815 0.8819071650505066 4600703 0 -1
-3.1684749126434326 0.8550105690956116 0.8300303220748901 3757452 0 -1
-2.481455087661743 2.0808844566345215 0.985660970211029 3757452 0 -1
-2.5430715084075928 2.0297935009002686 0.9337840676307678 2782862 0 -1
-2.655445098876953 1.9601048231124878 0.7522149682044983 2072968 0 -1
-2.401059150695801 2.161205291748047 1.0115994215011597 2072968 0 -1
3.134247064590454 1.190686583518982 0.4668920338153839 2072968 0 -1
-3.2281479835510254 0.7638534307479858 0.6743996143341064 2072968 0 -1
-2.9109137058258057 1.7411695718765259 0.41900569200515747 4456788 0 -1
-2.916114568710327 1.744280457496643 0.366629958152771 4523353 0 -1
-2.8948190212249756 1.7315424680709839 0.5499449372291565 4724328 0 -1
3.063837766647339 1.4475349187850952 0.4451935291290283 4664956 0 -1
3.182199239730835 1.0443469285964966 0.6808842420578003 4664956 0 -1
-2.771592855453491 1.8802461624145508 0.6808842420578003 4600703 0 -1
-2.5423521995544434 2.080456495285034 0.9427627921104431 4600703 0 -1
3.115767240524292 1.332086205482483 0.4451935291290283 4600703 0 -1
-3.268239974975586 0.6500015258789062 0.7594478130340576 4600703 0 -1
-2.511059045791626 2.0548486709594727 1.073702096939087 4017546 0 -1
-2.4927475452423096 2.0903539657592773 1.0475142002105713 3887499 0 -1
-3.1735527515411377 0.9523427486419678 0.8380113840103149 3757452 0 -1
-2.956883430480957 1.6478155851364136 0.47138139605522156 3757452 0 -1
3.007268190383911 1.6135025024414062 0.1833149790763855 3757452 0 -1
3.140429973602295 1.193035364151001 0.6285085082054138 2782862 0 -1
-3.2177767753601074 0.7613993287086487 0.8641992211341858 2782862 0 -1
-2.3930375576019287 2.203801393508911 1.0475142002105713 2072968 0 -1
-2.6294870376586914 1.9934052228927612 0.8903870582580566 6343264 0 -1
-2.9413506984710693 1.7593753337860107 0.396558940410614 4456788 0 -1
-2.9176025390625 1.8041092157363892 0.37012168765068054 4523353 0 -1
-2.003203868865967 2.91003680229187 -0.3262258470058441 4456788 0 -1
-2.97404146194458 2.076824188232422 -0.36313825845718384 4456788 0 -1
-2.4244472980499268 2.7108750343322754 -0.25140342116355896 4456788 0 -1
-2.7457311153411865 2.302499532699585 -0.670409083366394 4456788 0 -1
-2.310781717300415 2.692214012145996 -0.8380113840103149 4456788 0 -1
-2.68070125579834 2.412912607192993 0.53074049949646 4523353 0 -1
-2.310781717300415 2.692214012145996 -0.8380113840103149 4523353 0 -1
-2.9020943641662598 2.2581124305725098 0.08454935997724533 4456788 0 -1
-2.7590253353118896 2.42642879486084 0.16909871995449066 4456788 0 -1
-2.8719329833984375 2.2346441745758057 -0.5354793071746826 4456788 0 -1
-2.697629690170288 2.372434377670288 -0.7891273498535156 4456788 0 -1
-2.849102735519409 2.2168798446655273 -0.7045779824256897 4523353 0 -1
-2.7411105632781982 2.4106736183166504 0.4509299099445343 4523353 0 -1
-2.717987537384033 2.446474075317383 0.3945636749267578 4590430 0 -1
-3.491011619567871 1.1456942558288574 0.16909871995449066 4536450 0 -1
-2.7538256645202637 2.421856164932251 0.28183120489120483 4536450 0 -1
-1.8890260457992554 3.094433307647705 0.6200286149978638 4536450 0 -1
-2.928464412689209 2.2786309719085693 0.02843252755701542 4456788 0 -1
-2.7114336490631104 2.4970195293426514 0.42648792266845703 4456788 0 -1
3.609234571456909 0.8540272116661072 -0.11373011022806168 4456788 0 -1
-3.492166757583618 1.2385599613189697 0.19902770221233368 4456788 0 -1
-3.070352554321289 2.0829243659973145 -0.05686505511403084 4456788 0 -1
-2.8662848472595215 2.345536947250366 0.22746022045612335 4456788 0 -1
-2.1545193195343018 3.007669687271118 0.2843252718448639 4456788 0 -1
-3.0066728591918945 2.1594693660736084 0.2558927536010742 4456788 0 -1
-2.7879185676574707 2.3946726322174072 0.5117855072021484 4456788 0 -1
-2.9566357135772705 2.241415500640869 -0.05686505511403084 4456788 0 -1
-2.715947151184082 2.501176118850708 0.3696228563785553 4456788 0 -1
-2.715947151184082 2.501176118850708 0.3696228563785553 4456788 0 -1
-2.808119058609009 2.4120235443115234 0.2558927536010742 4456788 0 -1
-2.790837287902832 2.397179365158081 0.48335298895835876 4456788 0 -1
-2.790837287902832 2.397179365158081 0.48335298895835876 4523353 0 -1
-2.798577308654785 2.4038279056549072 0.39805540442466736 4590430 0 -1
-2.7465121746063232 2.415424108505249 0.6255156397819519 4724328 0 -1
-3.492166757583618 1.2385599613189697 0.19902770221233368 4536450 0 -1
-2.776472568511963 2.441772699356079 0.31275781989097595 4536450 0 -1
-2.776472568511963 2.441772699356079 0.31275781989097595 4536450 0 -1
-3.5205583572387695 1.155390977859497 0.19902770221233368 4341894 0 -1
-2.8987553119659424 2.3136885166168213 0.11373011022806168 4341894 0 -1
-2.6807138919830322 2.5250132083892822 0.4549204409122467 4341894 0 -1
-3.397449493408203 1.4525140523910522 0.3411903381347656 2139270 0 -1
-2.7420403957366943 2.4681243896484375 0.39805540442466736 2139270 0 -1
-3.490624189376831 1.2380129098892212 0.22746022045612335 2994813 0 -1
-2.8028957843780518 2.4075372219085693 0.3411903381347656 2994813 0 -1
-2.5783581733703613 2.594160795211792 0.6255156397819519 2994813 0 -1
-3.082819700241089 1.9682034254074097 -0.6255156397819519 5424489 0 -1
-2.839150905609131 2.2091362476348877 0.9098408818244934 5424489 0 -1
-3.553126811981201 1.0662481784820557 0.0852975845336914 11918891 0 -1
-2.9271745681762695 2.2776272296905518 0.11373011022806168 11918891 0 -1
-2.7462716102600098 2.471932888031006 0.3411903381347656 11918891 0 -1
3.2948129177093506 1.6282366514205933 -0.5117855072021484 11918891 0 -1
-3.1188881397247314 2.053628921508789 -0.25813743472099304 4456788 0 -1
-2.954152822494507 2.298619031906128 0.028681935742497444 4456788 0 -1
-2.9241831302642822 2.333983898162842 0.11472774296998978 4456788 0 -1
-2.9241831302642822 2.333983898162842 0.11472774296998978 4456788 0 -1
-2.9234097003936768 2.333366632461548 0.14340968430042267 4456788 0 -1
-2.670335054397583 2.5718207359313965 0.5162748694419861 4456788 0 -1
3.640894651412964 0.8615186810493469 -0.11472774296998978 4456788 0 -1
-3.0345678329467773 2.179504156112671 0.22945548593997955 4456788 0 -1
-2.8465569019317627 2.387049436569214 0.4589109718799591 4456788 0 -1
-3.55488920211792 1.16665780544281 0.11472774296998978 4456788 0 -1
-2.9825711250305176 2.2610769271850586 -0.05736387148499489 4456788 0 -1
-2.7397713661193848 2.523116111755371 0.3728651702404022 4456788 0 -1
-2.981519937515259 2.260280132293701 0.11472774296998978 4456788 0 -1
-2.6609690189361572 2.562800168991089 0.602320671081543 4456788 0 -1
-2.8025097846984863 2.407205581665039 0.602320671081543 4456788 0 -1
-2.8153181076049805 2.4182074069976807 0.4875929057598114 4456788 0 -1
-2.8153181076049805 2.4182074069976807 0.4875929057598114 4456788 0 -1
-2.8153181076049805 2.4182074069976807 0.4875929057598114 4523353 0 -1
-2.8206937313079834 2.4228246212005615 0.4302290380001068 4590430 0 -1
-2.8123741149902344 2.4156785011291504 0.5162748694419861 4724328 0 -1
-3.458164691925049 1.3975143432617188 0.31550130248069763 4536450 0 -1
-3.222947835922241 1.7960883378982544 0.6310026049613953 4536450 0 -1
-3.222947835922241 1.7960883378982544 0.6310026049613953 4536450 0 -1
-3.5539488792419434 1.1663492918014526 0.14340968430042267 4341894 0 -1
3.4504876136779785 1.3944120407104492 -0.4015471041202545 4341894 0 -1
-3.4295847415924072 1.4662529230117798 0.31550130248069763 2139270 0 -1
-2.7042291164398193 2.5471622943878174 0.4589109718799591 2139270 0 -1
-2.9758658409118652 1.959455966949463 -1.1472774744033813 2994813 0 -1
-3.1213982105255127 1.9928336143493652 -0.5449568033218384 5424489 0 -1
-2.9437270164489746 2.290506601333618 -0.31550130248069763 5424489 0 -1
-2.179763078689575 3.042909860610962 0.028681935742497444 5424489 0 -1
-3.040195941925049 2.183546543121338 -0.028681935742497444 11918891 0 -1
-2.7397713661193848 2.523116111755371 0.3728651702404022 11918891 0 -1
-2.6963751316070557 2.59689998626709 0.4918328523635864 4456788 0 -1
-2.833686590194702 2.4339847564697266 0.5496955513954163 4456788 0 -1
-2.833686590194702 2.4339847564697266 0.5496955513954163 4456788 0 -1
-2.836829423904419 2.4366843700408936 0.520764172077179 4456788 0 -1
-2.836829423904419 2.4366843700408936 0.520764172077179 4523353 0 -1
-2.839799165725708 2.439235210418701 0.4918328523635864 4590430 0 -1
-3.4544942378997803 1.4769023656845093 0.37610748410224915 4536450 0 -1
-3.2551944255828857 1.814058780670166 0.6075582504272461 4536450 0 -1
-2.985698938369751 2.323164939880371 0.43771129846572876 4456788 0 -1
-2.876314878463745 2.412003755569458 0.641976535320282 4456788 0 -1
-2.818788766860962 2.478987693786621 0.641976535320282 4456788 0 -1
-2.8512492179870605 2.4490699768066406 0.6127958297729492 4456788 0 -1
-2.8547699451446533 2.452094316482544 0.5836150646209717 4523353 0 -1
-2.821228504180908 2.5981318950653076 -0.20601113140583038 4456788 0 -1
-2.8245489597320557 2.6011898517608643 -0.08829048275947571 4456788 0 -1
3.185075044631958 1.9695018529891968 -0.8534746766090393 4456788 0 -1
-2.6893184185028076 2.4766530990600586 1.1772063970565796 4523353 0 -1
-2.7657041549682617 2.6636714935302734 0.08829048275947571 4590430 0 -1
-2.9258298873901367 2.5131309032440186 -0.35615482926368713 4456788 0 -1
-2.847899913787842 2.622694253921509 0.11871827393770218 4456788 0 -1
-2.7277133464813232 2.512011766433716 -1.2270880937576294 4523353 0 -1
-2.5405242443084717 3.3406307697296143 0.1286945939064026 4456788 0 -1
-2.536938428878784 3.3359158039093018 0.2573891878128052 4523353 0 -1
-2.5611207485198975 3.3677139282226562 0.06484611332416534 4456788 0 -1
-4.5188469886779785 2.702958345413208 -0.650456428527832 4456788 0 -1
-4.342406749725342 2.859253406524658 1.056991696357727 4724328 0 -1
-3.8105859756469727 3.2730889320373535 1.707448124885559 4724328 0 -1
-3.557615041732788 3.977916717529297 -0.12270880490541458 4456788 0 -1
-4.527015209197998 2.7078440189361572 -0.8180587291717529 4456788 0 -1
-4.415998935699463 2.819361925125122 1.0225733518600464 4724328 0 -1
-4.049543857574463 3.150940179824829 1.4725056886672974 4724328 0 -1
-3.7952370643615723 3.337726593017578 1.7179232835769653 4724328 0 -1
4.794559955596924 2.265228748321533 0.6135440468788147 4724328 0 -1
-4.91713285446167 1.6137244701385498 1.3088939189910889 4725613 0 -1
4.161872863769531 3.1551015377044678 1.1043792963027954 4725613 0 -1
-4.867566108703613 1.7263702154159546 1.3497968912124634 3757452 0 -1
-3.981454849243164 3.1778626441955566 1.5952144861221313 3757452 0 -1
-0.6741230487823486 5.131067752838135 1.3088939189910889 3757452 0 -1
-4.524253845214844 2.7975876331329346 -0.7407422065734863 4456788 0 -1
-5.067315578460693 1.3674112558364868 1.2834542989730835 4456788 0 -1
-4.6320929527282715 2.7706966400146484 0.24841050803661346 4456788 0 -1
-4.310144424438477 3.181514024734497 0.7038297653198242 4456788 0 -1
-3.8772895336151123 3.4899675846099854 1.4076595306396484 4456788 0 -1
-2.984656810760498 4.250305652618408 1.4904630184173584 4456788 0 -1
-4.834587574005127 1.7146737575531006 1.6974718570709229 4456788 0 -1
-3.9972057342529297 3.3519539833068848 1.4076595306396484 4456788 0 -1
5.079378128051758 1.524256706237793 1.0350438356399536 4456788 0 -1
-4.584653854370117 2.8349359035491943 0.3726157546043396 4456788 0 -1
-4.448208808898926 2.9289188385009766 0.9108385443687439 4724328 0 -1
4.991349697113037 1.8961914777755737 0.8280350565910339 4724328 0 -1
-5.176018714904785 1.0294287204742432 1.1592490673065186 4724328 0 -1
-5.1575093269348145 1.0257474184036255 1.2420525550842285 4725613 0 -1
-3.8912534713745117 3.3423779010772705 1.6974718570709229 3887499 0 -1
-4.710473537445068 2.5273306369781494 0.7866332530975342 3757452 0 -1
-4.278865337371826 3.073190689086914 1.2006508111953735 3757452 0 -1
-3.901505947113037 3.351184368133545 1.6560701131820679 3757452 0 -1
0.04069565609097481 5.310910701751709 -0.9936420321464539 3757452 0 -1
-4.618390083312988 2.855797052383423 0.24990695714950562 4456788 0 -1
-3.8834099769592285 3.495476722717285 1.4994417428970337 4456788 0 -1
-4.928740501403809 1.6175339221954346 1.6243952512741089 4456788 0 -1
-4.616623401641846 2.8547046184539795 0.2915581166744232 4456788 0 -1
-4.433950424194336 3.0079877376556396 0.9163255095481873 4724328 0 -1
5.001906871795654 1.9002021551132202 0.9579766988754272 4725613 0 -1
-2.3301494121551514 4.799343585968018 1.0412789583206177 3887499 0 -1
1.7474989891052246 5.141142845153809 -0.24990695714950562 3887499 0 -1
0.2893587052822113 5.3869948387146 -0.6664185523986816 3757452 0 -1
-4.086161136627197 3.179431915283203 -1.7598237991333008 4456788 0 -1
-4.647548198699951 2.8738272190093994 0.20950284600257874 4456788 0 -1
-4.393487930297852 3.0680480003356934 1.0894147157669067 4724328 0 -1
-4.036564350128174 3.3849589824676514 1.466519832611084 4724328 0 -1
-4.678097724914551 2.8927175998687744 0.0842999517917633 4456788 0 -1
-4.042053699493408 3.3895621299743652 1.55954909324646 4724328 0 -1
5.02031946182251 2.028812885284424 0.9694494605064392 4724328 0 -1
-4.553389549255371 2.815603494644165 -1.3991796970367432 4456788 0 -1
-4.389868259429932 4.042727470397949 -0.5048021078109741 4456788 0 -1
-4.567373752593994 3.923129081726074 -0.09228101372718811 4456788 0 -1
-4.491803169250488 3.9503228664398193 -0.692107617855072 4523353 0 -1
-4.331753253936768 4.171945571899414 0.6958487033843994 4456788 0 -1
-4.5859904289245605 3.939119815826416 0.32472941279411316 4456788 0 -1
-4.354374885559082 4.193732738494873 -0.32472941279411316 4456788 0 -1
-4.539667129516602 3.992417097091675 -0.32472941279411316 4456788 0 -1
-4.357450485229492 4.196694850921631 -0.2319495677947998 4456788 0 -1
-4.318976402282715 4.159640312194824 0.8350184559822083 4590430 0 -1
-5.546980381011963 2.371504545211792 0.5102890729904175 4536450 0 -1
-4.217458724975586 4.243307113647461 0.9277982711791992 4536450 0 -1
-5.936339855194092 1.1806446313858032 -0.13916973769664764 4536450 0 -1
-4.581667900085449 3.9354069232940674 0.4175092279911041 2139270 0 -1
3.571918487548828 4.888012886047363 0.04638991504907608 2139270 0 -1
3.7465360164642334 4.733042240142822 -0.4638991355895996 2139270 0 -1
-5.378942012786865 2.7729482650756836 0.6529505252838135 4456788 0 -1
-3.9762825965881348 4.446046352386475 1.2126224040985107 4456788 0 -1
-4.6626996994018555 3.910020112991333 0.13991796970367432 4456788 0 -1
-4.4243574142456055 4.167382717132568 -0.32647526264190674 4456788 0 -1
-4.426050662994385 4.1689772605896 -0.27983593940734863 4456788 0 -1
-4.430215358734131 4.172900199890137 0.09327864646911621 4523353 0 -1
-4.249809741973877 4.2758564949035645 0.8395078182220459 4536450 0 -1
-4.661741256713867 3.9092161655426025 0.18655729293823242 2139270 0 -1
-4.707113265991211 3.8519227504730225 0.23319661617279053 2271109 0 -1
-4.296003341674805 4.229443073272705 0.8395078182220459 2271109 0 -1
-3.9337544441223145 4.398493766784668 1.4924583435058594 2271109 0 -1
-5.2507171630859375 3.98055100440979 1.5563068389892578 4456788 0 -1
-5.6519246101379395 3.7215044498443604 -0.20750758051872253 4456788 0 -1
-4.6694183349609375 4.6980366706848145 1.4006761312484741 4456788 0 -1
-4.140271186828613 5.336391448974609 0.4668920338153839 4456788 0 -1
-5.3945631980896 4.089600086212158 0.10375379025936127 4523353 0 -1
-5.32068395614624 4.140011310577393 0.6225227117538452 4590430 0 -1
-5.255644798278809 3.9842865467071533 1.668041706085205 4456788 0 -1
-5.629475116729736 3.819031000137329 -0.05212630331516266 4456788 0 -1
-5.157092571258545 4.324605464935303 0.9903997182846069 4456788 0 -1
-4.742866039276123 4.669382095336914 1.4074101448059082 4456788 0 -1
-4.155264854431152 5.355717182159424 0.5733892917633057 4456788 0 -1
-5.408229351043701 4.0999603271484375 -0.46913671493530273 4456788 0 -1
-5.419703006744385 4.108658313751221 -0.15637890994548798 4456788 0 -1
-5.421135425567627 4.109744548797607 0 4523353 0 -1
-5.394172668457031 4.089303970336914 0.6776419281959534 4590430 0 -1
-6.266607284545898 2.6791672706604004 0.5237571001052856 4456788 0 -1
-5.833756923675537 3.3707847595214844 1.1522656679153442 4456788 0 -1
-5.058921813964844 4.553560733795166 0.6285085082054138 4456788 0 -1
-4.324516296386719 5.03834867477417 1.6236469745635986 4456788 0 -1
-5.4946794509887695 3.727585554122925 1.6236469745635986 4456788 0 -1
-5.7089524269104 3.759054183959961 0 4456788 0 -1
-5.162616729736328 4.329237461090088 1.1522656679153442 4456788 0 -1
-4.81680154800415 4.639099597930908 1.4141441583633423 4456788 0 -1
-5.441314220428467 4.125041961669922 -0.3142542541027069 4456788 0 -1
-5.444514751434326 4.127468109130859 -0.20950284600257874 4456788 0 -1
-5.447073936462402 4.129408359527588 0 4523353 0 -1
-5.479879856109619 4.044949054718018 0.5761328339576721 4590430 0 -1
-6.049844264984131 3.1188113689422607 0.6285085082054138 4536450 0 -1
-5.521580696105957 4.075729846954346 -0.26312559843063354 4456788 0 -1
-4.937701225280762 5.18511438369751 -0.10973957926034927 4456788 0 -1
-4.203960418701172 5.752934455871582 0.71330726146698 4456788 0 -1
-5.868309497833252 4.097940921783447 0.21947915852069855 4590430 0 -1
-5.592609882354736 4.463831901550293 0.2743489444255829 4590430 0 -1
-4.401243686676025 5.67275857925415 0.4409535825252533 4456788 0 -1
-5.619516849517822 4.4853081703186035 0.22047679126262665 4590430 0 -1
-6.3939995765686035 3.1597983837127686 -0.9370263814926147 4725613 0 -1
-6.161740779876709 3.6856589317321777 -0.4409535825252533 4725613 0 -1
-4.704120635986328 5.480612754821777 -0.22147442400455475 4590430 0 -1
-4.190187931060791 5.84942626953125 0.6644232869148254 4590430 0 -1
-6.034989356994629 4.816924095153809 -1.3824692964553833 4456788 0 -1
-6.117927551269531 4.760344505310059 -1.2021472454071045 4456788 0 -1
-4.597594738006592 6.291604995727539 -0.9016104340553284 4456788 0 -1
-6.026389122009277 4.810060024261475 -1.4425766468048096 4456788 0 -1
-6.0006184577941895 4.910423755645752 -1.3882057666778564 4456788 0 -1
-4.607873439788818 6.305671215057373 -1.0260651111602783 4456788 0 -1
-2.5659685134887695 7.549080848693848 -0.7362528443336487 4456788 0 -1
-5.6339898109436035 5.668520450592041 -0.4908352196216583 4456788 0 -1
-4.162167072296143 6.818089008331299 -0.5521896481513977 4456788 0 -1
-3.230215311050415 7.268624782562256 -1.1704723834991455 4456788 0 -1
-4.639166355133057 6.223205089569092 -2.094529628753662 4456788 0 -1
-3.284778118133545 7.068332672119141 -1.971321940422058 4456788 0 -1
-2.9829301834106445 7.3635125160217285 -1.2320761680603027 4456788 0 -1
-6.33586311340332 4.424441814422607 -2.2177371978759766 4456788 0 -1
-5.601830959320068 5.75862979888916 -0.3080190420150757 4456788 0 -1
-4.184629917144775 6.854885578155518 -0.3696228563785553 4456788 0 -1
-4.49232292175293 6.6572980880737305 -0.3696228563785553 4456788 0 -1
-2.8168447017669678 7.296828269958496 -2.244673252105713 2666112 0 -1
-3.512890338897705 7.080927848815918 -2.065847635269165 2458766 0 -1
-4.267516613006592 6.45158576965332 -2.629260540008545 2468738 0 -1
-2.8281121253967285 7.326015472412109 -2.2536518573760986 2666112 0 -1
-1.2861884832382202 7.889009952545166 -1.6902389526367188 7589974 0 -1
-3.8084609508514404 6.768160820007324 -2.639735698699951 2523534 0 -1
-2.7789671421051025 7.37824010848999 -2.2626307010650635 2666112 0 -1
-4.088674545288086 6.697700500488281 -2.3883323669433594 3651704 0 -1
-3.153881549835205 7.096858978271484 -2.639735698699951 4899181 0 -1
-3.5759599208831787 7.365305423736572 -0.8834036588668823 3887499 0 -1
-3.711970090866089 7.323846340179443 -0.6310026049613953 2006409 0 -1
-3.572878837585449 7.358959197998047 -0.9465038776397705 4899181 0 -1
-3.6692323684692383 7.396066188812256 -1.3460557460784912 6343264 0 -1
-4.242431163787842 7.237076282501221 0.38608381152153015 4045940 0 -1
-3.7947070598602295 7.487089157104492 0.2573891878128052 4045940 0 -1
-4.23681116104126 7.227489471435547 0.579125702381134 4505456 0 -1
-3.3527119159698486 7.717679023742676 -0.5167736411094666 2977934 0 -1
-3.3695223331451416 7.756375789642334 0.3242305815219879 3757452 0 -1
-3.7600810527801514 7.579189777374268 -0.19453835487365723 3238030 0 -1
-3.5950164794921875 7.9097723960876465 -0.19977591931819916 4456788 0 -1
-0.7570030093193054 8.949328422546387 0.20650994777679443 5949540 4 -1
-0.7570030093193054 8.949328422546387 0.20650994777679443 7589974 4 -1
-0.8256517052650452 8.941401481628418 0.275346577167511 10016830 4 -1
-0.8259427547454834 8.944554328918457 0.1376732885837555 10672695 4 -1
-0.8948501348495483 8.938718795776367 0.06883664429187775 11918891 4 -1
-0.8946399688720703 8.93661880493164 0.20650994777679443 12640037 4 -1
-4.490461826324463 7.8181233406066895 -0.06908605247735977 4456788 0 -1
-0.6905359625816345 8.985480308532715 0.2763442099094391 2139270 4 -1
-0.7593886852264404 8.977531433105469 0.34543028473854065 3651704 4 -1
-0.759143054485321 8.974628448486328 0.4145163297653198 4045940 4 -1
-0.7597457766532898 8.9817533493042 0.2072581648826599 4899181 4 -1
-0.7598573565483093 8.983072280883789 0.13817210495471954 5949540 4 -1
-0.8286432027816772 8.973797798156738 0.2763442099094391 6933851 4 -1
-0.8289353251457214 8.976962089538574 0.13817210495471954 7589974 4 -1
-0.8289353251457214 8.976962089538574 0.13817210495471954 10672695 4 -1
-0.8980132341384888 8.970314979553223 0.13817210495471954 11918891 4 -1
-0.8980132341384888 8.970314979553223 0.13817210495471954 12640037 4 -1
-0.8978813886642456 8.968997955322266 0.2072581648826599 13164576 4 -1
-0.6240008473396301 9.02695369720459 0.0693354606628418 4017546 4 -1
-0.6930288672447205 9.017919540405273 0.2773418426513672 2070155 4 -1
-0.6930288672447205 9.017919540405273 0.2773418426513672 2070922 4 -1
2.703765630722046 8.634263038635254 0.1386709213256836 2070922 5 -1
-0.6926214694976807 9.012618064880371 0.41601279377937317 2139270 4 -1
-0.762667715549469 9.01629638671875 -0.0693354606628418 2994813 4 -1
-0.8316346406936646 9.006195068359375 0.2773418426513672 4899181 4 -1
-0.900937557220459 8.999526023864746 0.2773418426513672 6343264 4 -1
-0.8320011496543884 9.010163307189941 0.0693354606628418 6933851 4 -1
-0.9011228680610657 9.00137710571289 0.20800639688968658 7589974 4 -1
-0.8318057060241699 9.008047103881836 0.20800639688968658 10672695 4 -1
-0.8320011496543884 9.010163307189941 0.0693354606628418 11197490 4 -1
-0.900937557220459 8.999526023864746 0.2773418426513672 11918891 4 -1
-0.9011228680610657 9.00137710571289 0.20800639688968658 12640037 4 -1
-0.901255190372467 9.00269889831543 0.1386709213256836 13164576 4 -1
-0.6259695887565613 9.055434226989746 0.2783394753932953 3757452 4 -1
-0.6260983347892761 9.057296752929688 0.20875461399555206 3238030 4 -1
-0.6262638568878174 9.059690475463867 0 2588302 4 -1
-0.6953378319740295 9.047964096069336 0.3479243516921997 2328718 4 -1
-0.7643317580223083 9.035968780517578 -0.48709410429000854 2070155 4 -1
2.713491201400757 8.665321350097656 0.13916973769664764 2070155 5 -1
2.7137303352355957 8.666085243225098 0.06958486884832382 2070922 5 -1
-0.6955217719078064 9.050357818603516 0.2783394753932953 2271109 4 -1
-0.8350184559822083 9.042839050292969 0 2994813 4 -1
-0.8349204063415527 9.041777610778809 0.13916973769664764 4899181 4 -1
-0.904364287853241 9.033756256103516 0.20875461399555206 6933851 4 -1
-0.9039391875267029 9.029509544372559 0.3479243516921997 8180304 4 -1
-0.9041783213615417 9.031898498535156 0.2783394753932953 8705099 4 -1
-0.7648715972900391 9.042351722717285 0.3479243516921997 10672695 4 -1
-0.9036468267440796 9.026589393615723 0.4175092279911041 11918891 4 -1
-0.5586086511611938 9.09565258026123 -0.1396685540676117 4664956 4 -1
-0.5586742162704468 9.096720695495605 0 4600703 4 -1
-0.5586578249931335 9.096453666687012 -0.06983427703380585 4471684 4 -1
-0.6282132267951965 9.087890625 0.2793371081352234 3757452 4 -1
-0.6282132267951965 9.087890625 0.2793371081352234 3692940 4 -1
-0.6283424496650696 9.089759826660156 0.20950284600257874 3432845 4 -1
-0.6980147361755371 9.082796096801758 0.2793371081352234 2328718 4 -1
2.723536968231201 8.69740104675293 0 2070922 5 -1
-0.8379867672920227 9.074984550476074 0.06983427703380585 2994813 4 -1
-0.9077390432357788 9.067466735839844 0.1396685540676117 3257723 4 -1
-0.8379867672920227 9.074984550476074 0.06983427703380585 3651704 4 -1
-0.837912917137146 9.074185371398926 0.1396685540676117 4899181 4 -1
-0.9071791172027588 9.061873435974121 0.34917140007019043 8180304 4 -1
-0.8331755995750427 9.022882461547852 0.9776799082756042 9360965 0 -1
-0.8923625946044922 8.913869857788086 1.6760227680206299 10016830 0 -1
-0.9776512384414673 9.061002731323242 -0.06983427703380585 10672695 4 -1
-0.6983222961425781 9.086798667907715 -0.06983427703380585 10672695 4 -1
-0.560653030872345 9.12894058227539 -0.07008368521928787 4664956 4 -1
-0.560669481754303 9.1292085647583 0 4600703 4 -1
-0.5604060888290405 9.124919891357422 -0.2803347408771515 4536450 4 -1
-0.560653030872345 9.12894058227539 -0.07008368521928787 4471684 4 -1
-0.9078458547592163 9.068533897399902 -0.7709205746650696 3692940 4 -1
-0.6300862431526184 9.114986419677734 0.4205021262168884 3432845 4 -1
-0.6305865049362183 9.122223854064941 0.2102510631084442 2523534 4 -1
-0.8397936224937439 9.094552040100098 0.4905858039855957 3651704 4 -1
-0.8407820463180542 9.105256080627441 0.2102510631084442 4045940 4 -1
-0.8409795761108398 9.10739517211914 0.07008368521928787 4899181 4 -1
-0.9104190468788147 9.094237327575684 0.35041844844818115 6343264 4 -1
-0.8361512422561646 9.055107116699219 0.9811716079711914 9360965 0 -1
-0.8394227027893066 9.090535163879395 0.560669481754303 10016830 4 -1
-4.492853164672852 7.984420299530029 -0.5626647472381592 4456788 0 -1
-0.9752528071403503 9.038773536682129 -1.265995740890503 4664956 4 -1
-0.9811594486236572 9.093517303466797 -0.7736640572547913 4600703 4 -1
-0.9828116297721863 9.108829498291016 -0.5626647472381592 4536450 4 -1
-0.5475969910621643 8.916353225708008 -2.1099929809570312 4536450 0 -1
-0.9811594486236572 9.093517303466797 -0.7736640572547913 3692940 4 -1
-0.9116421341896057 9.106454849243164 -0.703330934047699 3562893 4 -1
-0.9065398573875427 9.055487632751465 -1.1956626176834106 3432845 4 -1
-0.9110766649246216 9.10080623626709 -0.7736640572547913 2782862 4 -1
-0.7033103108406067 9.151704788208008 0.0703330934047699 2070922 4 -1
-1.1245033740997314 9.10302734375 0.3516654670238495 3257723 4 -1
-0.9130140542984009 9.120159149169922 0.49233168363571167 4045940 4 -1
-0.9817684888839722 9.099162101745605 0.703330934047699 6343264 4 -1
-0.8973975777626038 8.964164733886719 -1.7583273649215698 9360965 0 -1
-0.7736640572547913 9.146296501159668 0 10016830 4 -1
-0.5622679591178894 9.15523624420166 0.8469900488853455 4456788 0 -1
-0.5609179735183716 9.133254051208496 1.0587375164031982 4456788 0 -1
-0.8421024680137634 9.119556427001953 0.9881550669670105 4456788 0 -1
-0.9106506705284119 9.096550941467285 -1.1293200254440308 4590430 4 -1
-0.9846387505531311 9.125763893127441 -0.7764075398445129 4600703 4 -1
-0.9858025312423706 9.136549949645996 -0.6352425217628479 4536450 4 -1
-0.9839689135551453 9.119556427001953 -0.8469900488853455 3692940 4 -1
-0.9162517189979553 9.15250015258789 -0.49407753348350525 2718350 4 -1
-0.9807007312774658 9.089265823364258 -1.1293200254440308 9360965 4 -1
-0.9832403659820557 9.11280345916748 -0.917572557926178 10016830 4 -1
-0.9175381660461426 9.165350914001465 0.7791510224342346 4456788 4 -1
-0.9129692316055298 9.119711875915527 -1.204142451286316 4590430 4 -1
-0.9120144844055176 9.110174179077148 -1.2749744653701782 4657508 4 -1
-0.9155012965202332 9.145004272460938 -0.9916467666625977 4600703 4 -1
-0.8457554578781128 9.1591157913208 -0.9208148717880249 3692940 4 -1
2.974853038787842 8.752018928527832 -0.07083190977573395 2006409 5 -1
2.974591016769409 8.751248359680176 -0.1416638195514679 2072968 5 -1
-0.9152258038520813 9.142252922058105 -1.279463768005371 4657508 4 -1
-0.9194612503051758 9.184560775756836 -0.9240571856498718 4728182 4 -1
-0.9213404655456543 9.20333194732666 -0.7108132243156433 4664956 4 -1
-0.9207689762115479 9.197623252868652 -0.7818945050239563 3562893 4 -1
2.772090196609497 8.852452278137207 -0.07108131796121597 2070922 5 -1
2.771846055984497 8.851672172546387 -0.14216263592243195 2006409 5 -1
2.700376510620117 8.872313499450684 -0.21324396133422852 2072968 5 -1
2.9840128421783447 8.77896785736084 -0.2843252718448639 2072968 5 -1
-0.851747989654541 9.22401237487793 -0.4975692331790924 6343264 4 -1
2.8511343002319336 8.854616165161133 -0.35665363073349 2134668 5 -1
2.7805914878845215 8.879600524902344 -0.285322904586792 2070155 5 -1
2.781571626663208 8.882731437683105 -0.142661452293396 2070922 5 -1
2.7805914878845215 8.879600524902344 -0.285322904586792 2006409 5 -1
2.709294319152832 8.901613235473633 -0.285322904586792 2072968 5 -1
2.778956890106201 8.874381065368652 -0.427984356880188 2139270 5 -1
-1.0688295364379883 9.237686157226562 -0.427984356880188 12640037 4 -1
2.6465206146240234 8.95183277130127 -0.3579006791114807 2070922 5 -1
2.9347856044769287 8.868738174438477 0 2070922 5 -1
2.7863755226135254 8.8980712890625 -0.5726410746574402 2006409 5 -1
2.7149300575256348 8.920129776000977 -0.5726410746574402 2072968 5 -1
2.8731818199157715 8.923088073730469 0 2070155 5 -1
2.8728444576263428 8.922039985656738 -0.1436590850353241 2070922 5 -1
2.864734649658203 8.896854400634766 -0.7182954549789429 2006409 5 -1
2.7137720584869385 8.916325569152832 -1.0056136846542358 2072968 5 -1
2.7137720584869385 8.916325569152832 -1.0056136846542358 2072968 5 -1
-1.0040864944458008 9.306007385253906 -0.9370263814926147 4212104 4 -1
2.882819652557373 8.953019142150879 0.14415790140628815 2070155 5 -1
2.810749053955078 8.975906372070312 -0.14415790140628815 2070922 5 -1
2.7369892597198486 8.992608070373535 -0.36039477586746216 2006409 5 -1
2.8810412883758545 8.947497367858887 -0.36039477586746216 2139270 5 -1
2.8109965324401855 8.976696968078613 0.07207895070314407 2271109 5 -1
2.8081066608428955 8.96746826171875 -0.43247371912002563 2468738 5 -1
2.6536569595336914 8.975972175598145 -0.9370263814926147 11197490 5 -1
2.820723295211792 9.007758140563965 0.0723283588886261 4729209 5 -1
-1.006753921508789 9.330729484558105 -1.0125970840454102 3238030 4 -1
2.602259397506714 8.549941062927246 -3.0377912521362305 2328718 0 -1
2.676149368286133 9.05205249786377 0 2134668 5 -1
2.748154878616333 9.029293060302734 -0.1446567177772522 2070155 5 -1
2.7483971118927 9.030088424682617 0.0723283588886261 2070922 5 -1
2.7471864223480225 9.026111602783203 -0.2893134355545044 2006409 5 -1
2.820723295211792 9.007758140563965 -0.0723283588886261 2271109 5 -1
2.818542003631592 9.000792503356934 -0.8709332346916199 4724328 5 -1
2.816455125808716 8.994128227233887 -0.9435110092163086 4726897 5 -1
2.822211265563965 9.012510299682617 -0.7257776856422424 4729209 5 -1
2.825209856033325 9.022086143493652 -0.580622136592865 4471684 5 -1
2.822211265563965 9.012510299682617 -0.7257776856422424 4341894 5 -1
2.814199447631836 8.98692512512207 -1.0160887241363525 4212104 5 -1
2.7572264671325684 9.059098243713379 -0.21773330867290497 2328718 5 -1
2.611572265625 9.100131034851074 0.2903110682964325 2264205 5 -1
2.612799644470215 9.104408264160156 0 2199437 5 -1
2.6850621700286865 9.082199096679688 -0.14515553414821625 2134668 5 -1
2.612492799758911 9.103339195251465 0.14515553414821625 2271109 5 -1
2.6108813285827637 9.097723960876465 -0.3628888428211212 2468738 5 -1
2.612722873687744 9.104141235351562 0.07257776707410812 2666112 5 -1
2.612492799758911 9.103339195251465 -0.14515553414821625 2994813 5 -1
2.6803274154663086 9.066184043884277 -0.580622136592865 12640037 5 -1
-4.002553939819336 8.612874984741211 0.36413589119911194 4456788 0 -1
2.8282277584075928 9.031723022460938 -0.8739261031150818 4724328 5 -1
2.8261334896087646 9.025035858154297 -0.9467533230781555 4726897 5 -1
2.831909656524658 9.04348087310791 -0.7282717823982239 4729209 5 -1
2.8282277584075928 9.031723022460938 -0.8739261031150818 4600703 5 -1
2.8882668018341064 8.96993637084961 -1.2380620241165161 4536450 5 -1
2.9007463455200195 9.00869369506836 -0.8739261031150818 4341894 5 -1
2.8937816619873047 8.987064361572266 -1.0924077033996582 3757452 5 -1
2.5477535724639893 9.151979446411133 0.2913087010383606 2264205 5 -1
2.6907267570495605 9.101359367370605 -0.5097902417182922 2199437 5 -1
2.9076087474823 9.030006408691406 0.5826174020767212 2134668 5 -1
2.6214704513549805 9.134622573852539 -0.1456543505191803 2139270 5 -1
2.6217784881591797 9.135695457458496 0 2271109 5 -1
2.6217784881591797 9.135695457458496 0 2666112 5 -1
2.62170147895813 9.13542652130127 -0.07282717525959015 2994813 5 -1
2.6933395862579346 9.110198020935059 -0.2913087010383606 4899181 5 -1
-4.019093990325928 8.648467063903809 0.07307658344507217 4456788 0 -1
-3.6521968841552734 8.602669715881348 1.8999912738800049 4456788 0 -1
2.8358120918273926 9.055943489074707 -0.9499956369400024 4726897 5 -1
2.833540916442871 9.048690795898438 -1.0230722427368164 4600703 5 -1
2.833540916442871 9.048690795898438 -1.0230722427368164 3757452 5 -1
2.816321849822998 8.99370288848877 -1.4615317583084106 2718350 5 -1
2.8128485679626465 8.982610702514648 -1.534608244895935 2199437 5 -1
2.7035162448883057 9.144619941711426 -0.14615316689014435 2134668 5 -1
2.70383358001709 9.1456937789917 0 2070155 5 -1
2.63044810295105 9.165904998779297 0.14615316689014435 2139270 5 -1
2.6306798458099365 9.166712760925293 -0.07307658344507217 2271109 5 -1
2.557004690170288 9.185211181640625 0.21922975778579712 2468738 5 -1
-4.684038162231445 8.324182510375977 -0.5866079330444336 4456788 0 -1
0.35543790459632874 9.270612716674805 2.3464317321777344 4456788 0 -1
1.915463924407959 9.05826187133789 2.419757843017578 4456788 0 -1
3.8183786869049072 8.216558456420898 3.0796916484832764 4456788 0 -1
-4.396329402923584 8.492009162902832 0.366629958152771 4456788 0 -1
6.286949157714844 6.742711544036865 -2.5664098262786865 4456788 0 -1
8.88061237335205 2.3964266777038574 2.639735698699951 4456788 0 -1
2.8454906940460205 9.086851119995117 -0.9532378911972046 4726897 5 -1
2.8381409645080566 9.063380241394043 -1.1732158660888672 3757452 5 -1
2.639735698699951 9.198267936706543 0 2264205 5 -1
2.9288177490234375 9.095873832702637 0.5132819414138794 2264205 5 -1
2.857614278793335 9.125566482543945 -0.366629958152771 2199437 5 -1
2.7127432823181152 9.175829887390137 -0.1466519832611084 2070155 5 -1
3.0060126781463623 9.08398151397705 -0.1466519832611084 2070155 5 -1
2.578265428543091 8.9840726852417 -2.0531277656555176 2139270 0 -1
2.639038324356079 9.19583797454834 -0.2199779748916626 2271109 5 -1
2.492335796356201 8.684646606445312 -3.15301775932312 2468738 0 -1
-5.591566562652588 7.80572509765625 0.07357539981603622 4456788 0 -1
1.253901720046997 9.004385948181152 3.0901668071746826 4456788 0 -1
1.9554425477981567 9.247322082519531 1.6922342777252197 4456788 0 -1
-4.7548041343688965 8.278356552124023 -1.0300556421279907 4456788 0 -1
-3.6700119972229004 8.84832763671875 0.662178635597229 4456788 0 -1
0.42710646986961365 9.280238151550293 2.427988290786743 4456788 0 -1
2.4694793224334717 8.870804786682129 2.722289800643921 4456788 0 -1
2.8320488929748535 9.043925285339355 -1.5450834035873413 3757452 5 -1
2.575063467025757 9.250081062316895 0.07357539981603622 2328718 5 -1
2.6484034061431885 9.228470802307129 0.14715079963207245 2264205 5 -1
2.4808051586151123 8.911489486694336 -2.575139045715332 2072968 0 -1
2.591409921646118 9.029874801635742 -1.986535906791687 2139270 0 -1
2.5739293098449707 9.246006965637207 -0.2943015992641449 2994813 5 -1
2.457467794418335 8.827657699584961 -2.8694405555725098 9360965 0 -1
-5.536210536956787 7.88385009765625 0.1476496160030365 4456788 0 -1
-0.5009981989860535 9.3270902633667 2.362393856048584 4456788 4 -1
1.2615673542022705 9.059433937072754 3.0268173217773438 4456788 0 -1
4.480586528778076 8.128622055053711 -2.5838682651519775 4456788 0 -1
2.5020909309387207 8.71863842010498 -3.2482917308807373 2264205 0 -1
2.4395878314971924 8.763429641723633 3.174466848373413 2134668 0 -1
2.4464070796966553 8.787925720214844 -3.100641965866089 2070922 0 -1
2.4595108032226562 8.834996223449707 -2.9529924392700195 2072968 0 -1
2.4408063888549805 8.767807006835938 -3.259265661239624 2264205 0 -1
2.8129541873931885 8.736042976379395 -3.0370428562164307 2264205 0 -1
2.8834617137908936 9.208108901977539 0.5925937294960022 2199437 5 -1
2.397310972213745 8.884171485900879 -2.9629688262939453 2072968 0 -1
2.818986415863037 9.262016296386719 0.5945889949798584 2199437 5 -1
3.1201257705688477 9.179411888122559 -0.2972944974899292 2134668 5 -1
3.0472686290740967 9.208654403686523 0 2070155 5 -1
3.056057929992676 9.235215187072754 0.2982921302318573 2264205 5 -1
2.905273199081421 9.277761459350586 0.44743821024894714 2199437 5 -1
3.056057929992676 9.235215187072754 0.2982921302318573 2070155 5 -1
3.0566864013671875 9.237114906311035 0.22371910512447357 2070922 5 -1
2.9125876426696777 9.301119804382324 0.5985795259475708 2264205 5 -1
2.913874626159668 9.305230140686035 0.5237571001052856 2199437 5 -1
2.9885895252227783 9.281503677368164 0.5237571001052856 2070155 5 -1
2.9780123233795166 9.24865436553955 0.9726917743682861 2006409 0 -1
2.8351967334747314 8.805119514465332 -3.2280895709991455 2199437 0 -1
2.92470645904541 9.33981990814209 0.45043110847473145 2134668 5 -1
2.995725154876709 9.303664207458496 0.6756466627120972 2070155 5 -1
3.002521276473999 9.3247709274292 -0.15014369785785675 2072968 5 -1
2.9344229698181152 9.370849609375 0.4519275426864624 2134668 5 -1
4.380357265472412 8.642597198486328 1.6570676565170288 2006409 0 -1
-4.422811985015869 9.310144424438477 -0.47437429428100586 4456788 0 -1
-4.338740348815918 9.133172035217285 -2.055621862411499 4523353 0 -1
-5.0783796310424805 8.663103103637695 -2.3718714714050293 4657508 0 -1
-5.0783796310424805 8.663103103637695 -2.3718714714050293 4657508 0 -1
-3.6305596828460693 9.179208755493164 -3.0043704509735107 4657508 0 -1
-4.4350666999816895 9.335941314697266 -0.5551825165748596 4456788 0 -1
-5.1037068367004395 8.70630931854248 -2.300041913986206 4657508 0 -1
-4.447048187255859 9.361162185668945 -0.6364895701408386 4456788 0 -1
-4.377891540527344 9.42054271697998 -1.1208401918411255 4456788 0 -1
-3.9333128929138184 9.709579467773438 -0.3212376832962036 4456788 0 -1
-4.4087114334106445 9.486863136291504 -0.6424753665924072 4456788 0 -1
-4.391529560089111 9.44989013671875 -1.1243319511413574 4456788 0 -1
-3.850025177001953 9.503979682922363 -2.1683542728424072 4523353 0 -1
-4.40137243270874 9.471070289611816 -1.208382487297058 4456788 0 -1
-5.164707660675049 8.810369491577148 -2.497323751449585 4590430 0 -1
-4.410925388336182 9.491626739501953 -1.2929317951202393 4456788 0 -1
-2.505399465560913 10.245606422424316 -0.8105764389038086 4456788 0 -1
-4.376984596252441 9.63026237487793 -0.08105764538049698 4456788 0 -1
-4.36424446105957 9.602231979370117 -0.8105764389038086 4456788 0 -1
-5.647079944610596 8.203463554382324 -3.5665364265441895 4728182 0 -1
-3.313253164291382 9.74759292602539 -2.431729316711426 4728182 0 -1
-3.8476858139038086 9.276695251464844 -3.3233635425567627 4664956 0 -1
-3.2402751445770264 9.791908264160156 -2.3506717681884766 4664956 0 -1
-2.652111291885376 10.14760971069336 -1.3779799938201904 4664956 0 -1
-4.68455696105957 9.442654609680176 -1.219605803489685 4456788 0 -1
-1.4524866342544556 10.430442810058594 1.300912857055664 4456788 0 -1
-4.3900651931762695 9.659043312072754 -0.162614107131958 4456788 0 -1
-4.380128383636475 9.637179374694824 -0.731763482093811 4456788 0 -1
-4.157002925872803 9.146258354187012 -3.414896249771118 4523353 0 -1
-5.416454315185547 8.69575309753418 -2.764439821243286 4728182 0 -1
-3.261467456817627 9.855950355529785 -2.1952905654907227 4728182 0 -1
-5.259455680847168 8.79159927368164 -2.764439821243286 4664956 0 -1
-3.329519510269165 9.795448303222656 -2.3579046726226807 4664956 0 -1
-1.5138665437698364 10.287638664245605 -2.113983392715454 4664956 0 -1
-6.294497489929199 8.276871681213379 -2.113983392715454 2070922 0 -1
-1.5088602304458618 10.253617286682129 2.276597499847412 2070922 0 -1
-4.403531551361084 9.688672065734863 0.16311292350292206 4456788 0 -1
-4.393564224243164 9.666741371154785 -0.7340081334114075 4456788 0 -1
-4.23317813873291 9.313858985900879 -2.93603253364563 4523353 0 -1
-6.349794864654541 8.184244155883789 -2.4466938972473145 2070155 0 -1
-6.0208892822265625 8.405052185058594 -2.528250217437744 2070155 0 -1
-6.393727779388428 8.240869522094727 -2.1204681396484375 2070922 0 -1
-6.1228437423706055 8.378840446472168 -2.3651373386383057 2070922 0 -1
-6.452240943908691 8.151190757751465 -2.283581018447876 2006409 0 -1
-6.088143348693848 8.331355094909668 -2.609806776046753 2006409 0 -1
-6.202361106872559 8.320150375366211 -2.3651373386383057 2072968 0 -1
-2.530137538909912 10.003767967224121 2.609806776046753 2072968 0 -1
-4.414273738861084 9.71230697631836 -0.40902936458587646 4456788 0 -1
-6.162773132324219 8.433483123779297 -2.208758592605591 2070922 0 -1
-4.422652244567871 9.730740547180176 0.6564422249794006 4456788 0 -1
-4.382411956787109 10.322674751281738 -1.035542607307434 4456788 0 -1
-4.376169204711914 10.307971000671387 -1.4712586402893066 4456788 0 -1
-4.4248046875 11.187313079833984 -0.5536860823631287 4456788 0 -1
-4.342669486999512 11.249363899230957 -0.6477129459381104 4456788 0 -1
-4.450161933898926 11.251423835754395 -0.4638991355895996 4456788 0 -1
-4.457005977630615 11.26872730255127 -0.7442339062690735 4456788 0 -1
-4.371207237243652 11.323288917541504 -0.9327864646911621 4456788 0 -1
-4.474087715148926 11.311915397644043 -0.46639323234558105 4523353 0 -1
-4.387551784515381 11.365628242492676 -0.7482244372367859 4456788 0 -1
-4.485300540924072 11.340264320373535 -1.0315520763397217 4456788 0 -1
-4.40054178237915 11.399277687072754 -1.1283224821090698 4456788 0 -1
-4.415217399597168 11.437294960021973 -1.037039041519165 4456788 0 -1
12.772892951965332 5.460803985595703 -3.986539840698242 4456788 0 -1
