VERSION .7
FIELDS x y z rgb label object
SIZE 4 4 4 4 4 4
TYPE F F F I I I
COUNT 1 1 1 1 1 1
WIDTH 683
HEIGHT 1
POINTS 683
VIEWPOINT 0 0 0 1 0 0 0
DATA ascii
-1.72331702709198 2.358283281326294 0.22446732223033905 4456788 0 -1
-1.8379825353622437 2.2757060527801514 0.15712712705135345 4456788 0 -1
-1.8352206945419312 2.2722864151000977 0.22446732223033905 4456788 0 -1
-1.7265708446502686 2.3627359867095947 0.1346803903579712 4456788 0 -1
-1.8147661685943604 2.2926149368286133 -0.17957386374473572 4523353 0 -1
-1.624650001525879 2.407613754272461 -0.3815944492816925 4523353 0 -1
-1.634710431098938 2.42252254486084 -0.20202060043811798 4590430 0 -1
-1.634710431098938 2.42252254486084 -0.20202060043811798 4657508 0 -1
-1.6123172044754028 2.437483787536621 -0.20202060043811798 4726897 0 -1
-1.8412548303604126 2.2797577381134033 -0.4312266707420349 4456788 0 -1
-1.8544609546661377 2.2961089611053467 -0.2496575564146042 4456788 0 -1
-1.8610289096832275 2.304241180419922 -0.02269614115357399 4456788 0 -1
-1.5810178518295288 2.3901660442352295 0.7489726543426514 4456788 0 -1
-1.8575836420059204 2.2999753952026367 0.18156912922859192 4456788 0 -1
-1.856652855873108 2.2988228797912598 0.2042652666568756 4456788 0 -1
-1.7434422969818115 2.3858237266540527 0.2042652666568756 4456788 0 -1
-1.7230827808380127 2.4053924083709717 0.13617683947086334 4523353 0 -1
-1.746781826019287 2.3903937339782715 -0.09078456461429596 4657508 0 -1
-1.7471410036087036 2.390885353088379 -0.06808841973543167 4724328 0 -1
-1.884189486503601 2.2862892150878906 -0.4359654188156128 4456788 0 -1
-1.7420177459716797 2.4318251609802246 -0.1376732885837555 4456788 0 -1
-2.3131422996520996 1.8928896188735962 -0.18356439471244812 4456788 0 -1
-1.8073691129684448 2.376577615737915 -0.22945548593997955 4456788 0 -1
-1.510800838470459 2.577244281768799 0.20650994777679443 4456788 0 -1
-1.8635529279708862 2.307366132736206 -0.41301989555358887 4456788 0 -1
-1.6967240571975708 2.464816093444824 -0.11472774296998978 4456788 0 -1
-1.9650171995162964 2.197167158126831 -0.527747631072998 4456788 0 -1
-1.8445688486099243 2.3302652835845947 -0.36712878942489624 4456788 0 -1
-1.716819167137146 2.4448392391204834 -0.20650994777679443 4456788 0 -1
-1.2361098527908325 2.7196948528289795 -0.20650994777679443 4456788 0 -1
-1.876003384590149 2.322781801223755 0.22945548593997955 4456788 0 -1
-2.27262544631958 1.9057652950286865 -0.41301989555358887 4456788 0 -1
-1.6679291725158691 2.471750497817993 -0.275346577167511 4456788 0 -1
-1.536629557609558 2.568598747253418 0.09178219735622406 4456788 0 -1
-1.799023985862732 2.3656041622161865 -0.36712878942489624 4456788 0 -1
-1.5136947631835938 2.5821807384490967 0.09178219735622406 4456788 0 -1
-1.826338529586792 2.216092348098755 0.8489853143692017 4456788 0 -1
-2.33276629447937 1.9089484214782715 -0.2783394753932953 4456788 0 -1
-1.6468420028686523 2.5399343967437744 0 4456788 0 -1
-1.7383445501327515 2.475492477416992 -0.1159747838973999 4456788 0 -1
-1.7626097202301025 2.4605712890625 -0.04638991504907608 4456788 0 -1
-1.2934149503707886 2.722675323486328 -0.2783394753932953 4456788 0 -1
-1.8876384496688843 2.3371877670288086 -0.37111932039260864 4456788 0 -1
-1.7391620874404907 2.476656675338745 -0.06958486884832382 4456788 0 -1
-1.8448888063430786 2.377875328063965 -0.32472941279411316 4456788 0 -1
-1.6235992908477783 2.554749011993408 -0.02319495752453804 4456788 0 -1
-1.7565438747406006 2.45210337638855 -0.25514453649520874 4456788 0 -1
-1.6642451286315918 2.3699710369110107 0.8814083933830261 4456788 0 -1
-1.8795195817947388 2.3271353244781494 0.4638991355895996 4456788 0 -1
-1.655896544456482 2.3580822944641113 0.9277982711791992 4456788 0 -1
-1.681444525718689 2.3009824752807617 1.020578145980835 4456788 0 -1
-1.8252215385437012 2.448441505432129 -0.18755492568016052 4456788 0 -1
-1.66376793384552 2.566039562225342 0.09377746284008026 4456788 0 -1
-2.011523962020874 2.2029531002044678 -0.6798865795135498 4456788 0 -1
-1.8398306369781494 2.419262409210205 -0.3516654670238495 4456788 0 -1
-1.6643544435501099 2.566944122314453 -0.04688873142004013 4456788 0 -1
-1.6915611028671265 2.3613884449005127 0.9612189531326294 4456788 0 -1
-1.6915611028671265 2.3613884449005127 0.9612189531326294 4456788 0 -1
-1.6995245218276978 2.3257241249084473 1.0315520763397217 4456788 0 -1
-1.8750536441802979 2.416754722595215 -0.0703330934047699 4729209 0 -1
-1.8741722106933594 2.415618658065796 -0.11722182482481003 4536450 0 -1
-1.7308611869812012 2.416250705718994 0.8529758453369141 4456788 0 -1
-1.8952792882919312 2.442823648452759 -0.04738754779100418 4726897 0 -1
-1.8950010538101196 2.442464828491211 -0.07108131796121597 4536450 0 -1
-1.8952792882919312 2.442823648452759 -0.04738754779100418 4471684 0 -1
-1.8954461812973022 2.4430387020111084 -0.02369377389550209 4341894 0 -1
-1.9177865982055664 2.422762155532837 -0.11846886575222015 4212104 0 -1
-1.9177865982055664 2.422762155532837 -0.11846886575222015 4147337 0 -1
-1.9149483442306519 2.468175172805786 -0.07182954251766205 4657508 0 -1
-1.9153982400894165 2.468755006790161 -0.023943182080984116 4726897 0 -1
-1.9153982400894165 2.468755006790161 -0.023943182080984116 4471684 0 -1
-1.9153982400894165 2.468755006790161 -0.023943182080984116 4341894 0 -1
-1.939170002937317 2.4497759342193604 -0.04788636416196823 4212104 0 -1
-1.9384865760803223 2.4489126205444336 -0.09577272832393646 4147337 0 -1
-1.93888521194458 2.449416160583496 0.07182954251766205 3887499 0 -1
-1.9612648487091064 2.4283487796783447 0.1436590850353241 3757452 0 -1
-1.9353504180908203 2.4944710731506348 -0.02419259026646614 4726897 0 -1
-1.9351799488067627 2.4942514896392822 -0.04838518053293228 4536450 0 -1
-1.9353504180908203 2.4944710731506348 -0.02419259026646614 4471684 0 -1
-1.9353504180908203 2.4944710731506348 -0.02419259026646614 4341894 0 -1
-1.9351799488067627 2.4942514896392822 -0.04838518053293228 4212104 0 -1
-1.9593696594238281 2.475294351577759 0.04838518053293228 3887499 0 -1
-1.9581611156463623 2.4737675189971924 -0.1209629476070404 3757452 0 -1
-1.9593696594238281 2.475294351577759 -0.04838518053293228 3692940 0 -1
-1.8628294467926025 2.5491998195648193 0 3692940 0 -1
-1.930691123008728 2.538738250732422 0.04888399690389633 4724328 0 -1
-1.9553024768829346 2.5201873779296875 0.024441998451948166 4726897 0 -1
-2.0516204833984375 2.439481019973755 -0.12220998853445053 4536450 0 -1
-1.9062519073486328 2.5571396350860596 0.04888399690389633 4536450 0 -1
-2.0281498432159424 2.4609715938568115 -0.0733259916305542 4471684 0 -1
-1.930691123008728 2.538738250732422 0.04888399690389633 4471684 0 -1
-1.8312114477157593 2.6077399253845215 0.1466519832611084 4471684 0 -1
-2.0753729343414307 2.417947292327881 -0.1466519832611084 3757452 0 -1
-1.9783482551574707 2.499270439147949 -0.12220998853445053 3757452 0 -1
-1.9798017740249634 2.5011065006256104 0 3692940 0 -1
-1.8819786310195923 2.575404644012451 0.024441998451948166 3692940 0 -1
-1.868813157081604 2.5573883056640625 0.5925937294960022 4456788 0 -1
-2.0375607013702393 2.47239089012146 0.3456796705722809 4724328 0 -1
-1.9238932132720947 2.5808045864105225 0.14814843237400055 4724328 0 -1
-2.0581421852111816 2.4973645210266113 0.34917140007019043 4724328 0 -1
-2.078723669052124 2.5223381519317627 0.3526630997657776 4724328 0 -1
-2.8204801082611084 1.8007146120071411 0.20551231503486633 4456788 0 -1
-2.8464365005493164 1.8172862529754639 0.23344601690769196 4456788 0 -1
-2.84307599067688 1.8151408433914185 0.285322904586792 4657508 0 -1
-2.8738059997558594 1.8347601890563965 0.23569069802761078 4456788 0 -1
-2.950437068939209 1.76481032371521 0.29080989956855774 4456788 0 -1
-2.9242427349090576 1.7491421699523926 -0.7205401062965393 4456788 0 -1
-3.0262129306793213 1.7485666275024414 -0.37710511684417725 4456788 0 -1
-2.1569571495056152 2.780099868774414 1.0709586143493652 4456788 0 -1
-3.0099291801452637 2.1618082523345947 0.723283588886261 4456788 0 -1
-2.2345824241638184 2.8801510334014893 0.9836657047271729 4456788 0 -1
3.412294864654541 1.612166166305542 0.11572537571191788 4456788 0 -1
-2.5083656311035156 2.863138437271118 0.11672300845384598 4456788 0 -1
-2.2230961322784424 2.9821701049804688 0.8170610666275024 4456788 0 -1
-2.2303645610809326 2.9327900409698486 0.9629648327827454 4456788 0 -1
-3.3525750637054443 1.8683271408081055 0.14715079963207245 4456788 0 -1
-3.1137304306030273 2.236360788345337 0.23544128239154816 4456788 0 -1
-2.0413482189178467 3.0860884189605713 1.0300556421279907 4456788 0 -1
3.4262030124664307 1.6931673288345337 -0.3825920820236206 4456788 0 -1
3.4113922119140625 1.7586385011672974 -0.14715079963207245 4456788 0 -1
-2.914889335632324 2.4443511962890625 -0.5297428965568542 4456788 0 -1
-2.9116599559783936 2.441643238067627 -0.559173047542572 4456788 0 -1
-2.93748140335083 2.463296413421631 -0.23544128239154816 4523353 0 -1
-3.19513201713562 2.0399084091186523 0.6180333495140076 4724328 0 -1
-3.0477705001831055 2.31050443649292 0.35316193103790283 4724328 0 -1
-3.118931531906128 2.1780033111572266 0.5297428965568542 4726897 0 -1
-3.176123857498169 2.154679536819458 -0.14715079963207245 4728182 0 -1
-1.240128993988037 3.5536787509918213 0.7651841640472412 4728182 0 -1
-3.4789795875549316 1.643671989440918 0.4451935291290283 4456788 0 -1
-2.736682176589966 2.6942811012268066 0.5045526623725891 4456788 0 -1
-3.4847705364227295 1.646407961845398 0.38583439588546753 4456788 0 -1
-3.272082567214966 1.9572035074234009 0.6826300621032715 4456788 0 -1
-2.763216257095337 2.6612753868103027 0.5342322587966919 4456788 0 -1
-3.435512065887451 1.6977676153182983 0.5639117956161499 4456788 0 -1
-2.8220081329345703 2.5988497734069824 0.5342322587966919 4456788 0 -1
-3.61824893951416 1.3745567798614502 0.14839784801006317 4456788 0 -1
-2.773780584335327 2.671449899673462 0.4155139625072479 4456788 0 -1
-3.4427289962768555 1.7747931480407715 0.029679568484425545 4456788 0 -1
-3.2569801807403564 2.079394817352295 0.26711612939834595 4456788 0 -1
-3.057175397872925 2.317634344100952 0.5342322587966919 4456788 0 -1
3.4715919494628906 1.7155976295471191 -0.08903870731592178 4456788 0 -1
-3.1008553504943848 2.2888824939727783 0.38583439588546753 4456788 0 -1
3.467510938644409 1.713580846786499 -0.20775698125362396 4456788 0 -1
-2.982727527618408 2.440824270248413 0.38583439588546753 4456788 0 -1
-2.4039745330810547 3.036968946456909 0.029679568484425545 4456788 0 -1
-2.990499973297119 2.4471845626831055 0.26711612939834595 4456788 0 -1
-2.965698480606079 2.426888942718506 0.5639117956161499 4456788 0 -1
-2.9750232696533203 2.4345197677612305 0.4748730957508087 4456788 0 -1
-2.9720957279205322 2.432124137878418 0.5045526623725891 4523353 0 -1
-2.958574056625366 2.4210591316223145 0.6232709288597107 4590430 0 -1
-2.988823413848877 2.445812702178955 0.29679569602012634 4657508 0 -1
-2.9968442916870117 2.452376365661621 0.08903870731592178 4728182 0 -1
-2.9968442916870117 2.452376365661621 0.08903870731592178 4729209 0 -1
-2.93612003326416 2.5219695568084717 0.14839784801006317 4017546 0 -1
-3.6775646209716797 1.2069180011749268 0.14839784801006317 3887499 0 -1
-3.0569956302642822 2.37864089012146 0 3887499 0 -1
-2.8704543113708496 2.583710193634033 0.29679569602012634 3887499 0 -1
-2.2514052391052246 3.142920970916748 0.23743654787540436 3887499 0 -1
-2.6839520931243896 2.700401782989502 0.7123096585273743 2271109 0 -1
-3.1437244415283203 2.257903575897217 -0.14839784801006317 2468738 0 -1
-2.966562509536743 2.487683057785034 0.11871827393770218 2468738 0 -1
-3.7971999645233154 0.755203366279602 -0.11871827393770218 2468738 0 -1
-3.5082147121429443 1.6574844121932983 0.4489346444606781 4456788 0 -1
-2.794679641723633 2.691577911376953 0.4489346444606781 4456788 0 -1
-3.6383421421051025 1.3821899890899658 0.3292187452316284 4456788 0 -1
-3.6383421421051025 1.3821899890899658 0.3292187452316284 4456788 0 -1
-3.265458822250366 2.01920747756958 0.7182954549789429 4456788 0 -1
-2.6514475345611572 2.7843034267425537 0.6883664727210999 4456788 0 -1
-3.434771776199341 1.7706910371780396 0.5686505436897278 4456788 0 -1
-2.92061448097229 2.5685386657714844 0.35914772748947144 4456788 0 -1
-2.6770877838134766 2.752021074295044 0.7182954549789429 4456788 0 -1
-3.6161932945251465 1.4613769054412842 0.20950284600257874 4456788 0 -1
-3.2788257598876953 2.027472972869873 0.6285085082054138 4456788 0 -1
-2.7623977661132812 2.7195982933044434 0.4788636267185211 4456788 0 -1
-3.2913174629211426 2.1013174057006836 0.08978693187236786 4456788 0 -1
-3.097132682800293 2.347925901412964 0.38907670974731445 4456788 0 -1
-3.1366326808929443 2.315291404724121 0.23943181335926056 4456788 0 -1
-3.0156302452087402 2.4677493572235107 0.2693607807159424 4456788 0 -1
-3.0171420574188232 2.4689862728118896 0.23943181335926056 4456788 0 -1
-2.9970712661743164 2.452562093734741 0.5087926387786865 4456788 0 -1
-3.002794027328491 2.457245111465454 0.4489346444606781 4456788 0 -1
-2.9970712661743164 2.452562093734741 0.5087926387786865 4523353 0 -1
-2.9970712661743164 2.452562093734741 0.5087926387786865 4590430 0 -1
-3.013939619064331 2.4663658142089844 0.2992897629737854 4657508 0 -1
-3.0196304321289062 2.471022605895996 0.17957386374473572 4726897 0 -1
-3.171633243560791 2.2779481410980225 -0.08978693187236786 4728182 0 -1
-2.9885895252227783 2.5061542987823486 0.20950284600257874 4728182 0 -1
-3.021406412124634 2.472476005554199 0.11971590667963028 4729209 0 -1
-2.7921009063720703 2.6890945434570312 0.4788636267185211 4729209 0 -1
-2.9598357677459717 2.542340040206909 0.17957386374473572 4017546 0 -1
-2.3857979774475098 3.0750527381896973 0.3292187452316284 4017546 0 -1
-3.708468437194824 1.2170600891113281 0.1496448814868927 3887499 0 -1
-3.0826845169067383 2.3986294269561768 0 3887499 0 -1
-2.8610100746154785 2.634767770767212 0.35914772748947144 3887499 0 -1
-2.35597562789917 3.0979607105255127 0.3292187452316284 3887499 0 -1
-3.262162685394287 2.14796781539917 -0.02992897666990757 2977934 0 -1
-3.1424503326416016 2.3195855617523193 0.02992897666990757 2977934 0 -1
-2.293069362640381 3.1379642486572266 0.38907670974731445 2977934 0 -1
-1.9325768947601318 3.296743392944336 0.8080824017524719 2199437 0 -1
-2.265228033065796 3.0998647212982178 0.7182954549789429 2134668 0 -1
-1.9416240453720093 3.3121767044067383 0.7182954549789429 2134668 0 -1
1.643458366394043 3.3849854469299316 -1.0475142002105713 2134668 0 -1
1.9710426330566406 3.294754981994629 -0.7182954549789429 2134668 0 -1
2.8983936309814453 2.548996686935425 -0.5985795259475708 2134668 0 -1
-3.527510166168213 1.5883384943008423 0.5387215614318848 2271109 0 -1
-3.227033853530884 1.9954472780227661 0.9277982711791992 2271109 0 -1
-2.9914915561676025 2.5085878372192383 0.11971590667963028 2271109 0 -1
-2.6730990409851074 2.7479207515716553 0.7482244372367859 2271109 0 -1
3.7706081867218018 1.0174957513809204 -0.05985795333981514 2271109 0 -1
-2.9921069145202637 2.509103775024414 0.08978693187236786 2468738 0 -1
-3.545963764190674 1.6753191947937012 0.36214062571525574 4456788 0 -1
-2.7903943061828613 2.7471611499786377 0.42249739170074463 4456788 0 -1
-3.4373462200164795 1.8442541360855103 0.5432109236717224 4456788 0 -1
-2.71044659614563 2.786313772201538 0.6337460875511169 4456788 0 -1
-3.289057731628418 2.1656768321990967 -0.06035676971077919 4456788 0 -1
-3.1664040088653564 2.3372669219970703 0.15089192986488342 4456788 0 -1
-2.9378821849823 2.5837247371673584 0.45267578959465027 4456788 0 -1
3.7381629943847656 1.226805329322815 -0.18107031285762787 4456788 0 -1
-3.045779228210449 2.4924206733703613 0.15089192986488342 4456788 0 -1
-3.0422849655151367 2.4895613193511963 0.24142707884311676 4456788 0 -1
-3.0278172492980957 2.47772216796875 0.45267578959465027 4456788 0 -1
-3.0278172492980957 2.47772216796875 0.45267578959465027 4456788 0 -1
-3.0250236988067627 2.475435972213745 0.4828541576862335 4523353 0 -1
-3.030428409576416 2.479858875274658 0.42249739170074463 4590430 0 -1
-3.039055824279785 2.4869189262390137 0.30178385972976685 4657508 0 -1
-3.0465848445892334 2.4930801391601562 0.12071353942155838 4726897 0 -1
-3.198533058166504 2.2972683906555176 -0.06035676971077919 4728182 0 -1
-3.0134942531585693 2.527038812637329 0.21124869585037231 4728182 0 -1
-2.809656858444214 2.706002712249756 0.5432109236717224 4728182 0 -1
-2.779766798019409 2.7366983890533447 0.5432109236717224 4729209 0 -1
-2.4085230827331543 3.1043431758880615 0.2716054618358612 4017546 0 -1
-3.16863751411438 2.3389155864715576 0.030178384855389595 2977934 0 -1
-3.0042731761932373 2.277529239654541 -1.2475395202636719 4456788 0 -1
-2.280197858810425 3.120349884033203 -0.9128338098526001 4456788 0 -1
-3.2158637046813965 2.309715747833252 -0.3042779266834259 4456788 0 -1
-3.041975259780884 2.550922155380249 0.09128338098526001 4456788 0 -1
-3.0528404712677 2.498199224472046 0.45641690492630005 4456788 0 -1
-2.841341257095337 2.6763110160827637 0.7302670478820801 4456788 0 -1
-3.047022581100464 2.493438243865967 0.5172724723815918 4456788 0 -1
-2.8371078968048096 2.67232346534729 0.7606948614120483 4456788 0 -1
-3.047022581100464 2.493438243865967 0.5172724723815918 4523353 0 -1
-2.8669722080230713 2.640258312225342 0.7606948614120483 4523353 0 -1
-3.094510316848755 2.46993350982666 0.3042779266834259 4590430 0 -1
-2.886563539505005 2.6583003997802734 0.6085558533668518 4590430 0 -1
-3.0395619869232178 2.548898458480835 0.18256676197052002 4726897 0 -1
-2.8412575721740723 2.7364375591278076 0.45641690492630005 4726897 0 -1
-2.843707799911499 2.738797187805176 0.4259890913963318 4728182 0 -1
-3.2509241104125977 2.334897041320801 0.09203160554170609 4456788 0 -1
-3.126777172088623 2.49568772315979 -0.15338601171970367 4456788 0 -1
-2.5293335914611816 3.0691118240356445 -0.46015802025794983 4456788 0 -1
-2.965099573135376 2.668900966644287 -0.33744922280311584 4456788 0 -1
-2.9428491592407227 2.7101352214813232 -0.15338601171970367 4456788 0 -1
-3.227252960205078 2.3178956508636475 -0.4908352196216583 4523353 0 -1
-2.84930682182312 2.623990058898926 1.01234769821167 4523353 0 -1
-2.919919013977051 2.6890182495117188 0.5215124487876892 4590430 0 -1
-2.43873929977417 3.019535541534424 0.9816704392433167 4726897 0 -1
3.648911476135254 1.7239576578140259 -0.06185321882367134 4456788 0 -1
-2.2461864948272705 3.2630157470703125 -0.773165225982666 4456788 0 -1
-3.0484023094177246 2.55631160736084 0.680385410785675 4456788 0 -1
-2.3810691833496094 3.258388042449951 0.06185321882367134 4456788 0 -1
-3.029383897781372 2.664196014404297 -0.12370643764734268 4456788 0 -1
-3.023592233657837 2.65910267829895 -0.2783394753932953 4456788 0 -1
-2.8479979038238525 2.5634970664978027 1.2679909467697144 4523353 0 -1
-2.713806390762329 2.8497869968414307 0.8968716859817505 4590430 0 -1
-2.402271270751953 3.0348172187805176 1.1442846059799194 4590430 0 -1
-2.269257068634033 3.167841672897339 1.0515047311782837 4590430 0 -1
-3.0157337188720703 2.652191400527954 0.40204593539237976 4657508 0 -1
-2.231720447540283 3.3738911151885986 0.43646425008773804 4456788 0 -1
-3.0245556831359863 2.597931146621704 0.8105764389038086 4456788 0 -1
-2.3960390090942383 3.2788734436035156 0.24940814077854156 4456788 0 -1
-3.236208438873291 2.4533586502075195 0.24940814077854156 4456788 0 -1
-2.415613889694214 3.2404227256774902 0.4676402509212494 4456788 0 -1
-3.0183866024017334 2.716865062713623 -0.24940814077854156 4523353 0 -1
-2.325498342514038 3.2463533878326416 0.7794004678726196 4590430 0 -1
-3.099611759185791 2.599254608154297 0.43646425008773804 4657508 0 -1
-2.262216567993164 3.221513271331787 1.02880859375 4657508 0 -1
-3.0544424057006836 2.6862337589263916 0.09352805465459824 4724328 0 -1
-2.257113218307495 3.278888702392578 0.8417524695396423 4724328 0 -1
-2.3096606731414795 3.289076328277588 0.8170610666275024 4456788 0 -1
-2.3572099208831787 3.2906222343444824 0.6599339246749878 4456788 0 -1
-3.2170896530151367 2.4388647079467773 0.7227848172187805 4456788 0 -1
-3.00368332862854 2.580002784729004 1.0684645175933838 4456788 0 -1
-2.5364015102386475 3.204265594482422 0.3456796705722809 4456788 0 -1
-2.3991408348083496 3.2831180095672607 0.5342322587966919 4456788 0 -1
-3.2253007888793945 2.509598731994629 0.3456796705722809 4456788 0 -1
-2.511375665664673 3.236909866333008 0.18855255842208862 4456788 0 -1
-3.3307039737701416 2.3921968936920166 -0.06285085529088974 4456788 0 -1
-2.3562841415405273 3.3554704189300537 0.09427627921104431 4523353 0 -1
-2.372504472732544 3.3119733333587646 0.47138139605522156 4590430 0 -1
-2.3132588863372803 3.2942001819610596 0.7856356501579285 4657508 0 -1
-2.357691764831543 3.3574748039245605 0.5067973732948303 4456788 0 -1
-3.1945531368255615 2.6141653060913086 0.22172383964061737 4456788 0 -1
-2.4027602672576904 3.3542096614837646 0.25339868664741516 4456788 0 -1
-3.2231414318084717 2.5726025104522705 0.28507351875305176 4456788 0 -1
-3.3539822101593018 2.4089159965515137 -0.19004900753498077 4456788 0 -1
-3.198312997817993 2.6172420978546143 0.09502450376749039 4523353 0 -1
-2.4027602672576904 3.3542096614837646 0.25339868664741516 4523353 0 -1
-2.398721218109131 3.3485710620880127 0.34842318296432495 4590430 0 -1
-3.199158191680908 2.617933750152588 0 4657508 0 -1
-3.0692100524902344 2.7626113891601562 0.19004900753498077 4657508 0 -1
-2.5279541015625 3.258277416229248 0.28507351875305176 4724328 0 -1
-2.375333547592163 3.3825979232788086 0.06334967166185379 4724328 0 -1
-2.3848636150360107 3.32922625541687 0.7661818265914917 4456788 0 -1
3.548374891281128 1.977442741394043 -0.925803005695343 4456788 0 -1
-2.450939655303955 3.3540027141571045 0.3192424178123474 4456788 0 -1
-3.210689067840576 2.6273698806762695 0.38309091329574585 4456788 0 -1
-2.4555673599243164 3.3603355884552 0.19154545664787292 4523353 0 -1
-3.1049747467041016 2.7306745052337646 0.510787844657898 4590430 0 -1
-2.3841750621795654 3.395188570022583 0.38309091329574585 4590430 0 -1
-2.4069252014160156 3.3600237369537354 0.7399939298629761 4456788 0 -1
-2.4929134845733643 3.3441162109375 0.4826047420501709 4456788 0 -1
-2.294646739959717 3.469022274017334 0.7781534194946289 4456788 0 -1
-3.2764570713043213 2.8814847469329834 1.0669680833816528 4456788 0 -1
-3.263382911682129 2.8699870109558105 1.1358046531677246 4523353 0 -1
-4.35703706741333 2.5175259113311768 -1.5757606029510498 4456788 0 -1
-4.468897819519043 2.7633581161499023 0.44444531202316284 4590430 0 -1
-4.111118316650391 3.1166248321533203 1.0909112691879272 4590430 0 -1
-2.9289677143096924 4.008162975311279 1.7777812480926514 4590430 0 -1
-2.932480573654175 4.345724105834961 -0.5656576752662659 4590430 0 -1
-2.665419101715088 4.546883583068848 0.1616164743900299 4590430 0 -1
4.950929641723633 1.6248160600662231 0.8080824017524719 4590430 0 -1
4.753669261932373 2.2459094524383545 0.40404120087623596 4657508 0 -1
5.003033638000488 1.183831810951233 1.1717194318771362 4724328 0 -1
-4.471888065338135 2.855043888092041 0 4456788 0 -1
-3.1809346675872803 4.182730674743652 0.731763482093811 4456788 0 -1
-4.341746807098389 3.031916379928589 0.325228214263916 4456788 0 -1
-3.2361066341400146 4.171014785766602 0.5284958481788635 4456788 0 -1
-4.331500053405762 3.0247604846954346 0.487842321395874 4456788 0 -1
-3.181919574737549 4.101172924041748 -1.0976452827453613 4456788 0 -1
-3.5359222888946533 3.9536612033843994 0.1219605803489685 4456788 0 -1
-3.325652837753296 4.117671489715576 -0.3658817410469055 4456788 0 -1
-4.593848705291748 2.6543571949005127 0 4456788 0 -1
-3.483762264251709 3.9764909744262695 0.4471887946128845 4523353 0 -1
-3.372657537460327 4.0924072265625 0.162614107131958 4523353 0 -1
-3.29807186126709 4.083521842956543 0.7724170088768005 4590430 0 -1
4.968895435333252 1.6307121515274048 -0.894377589225769 4725613 0 -1
-4.250537395477295 3.137515068054199 -0.487842321395874 4726897 0 -1
-4.024226665496826 3.456594705581665 -0.081307053565979 4726897 0 -1
-3.170602798461914 4.253201484680176 0.081307053565979 4726897 0 -1
-3.5125887393951416 4.009394645690918 -0.2863205373287201 4456788 0 -1
-4.412846088409424 2.993670701980591 -0.24541760981082916 4456788 0 -1
-3.7140331268310547 3.7367961406707764 0.8589616417884827 4456788 0 -1
-4.498134136199951 2.871800422668457 -0.12270880490541458 4456788 0 -1
-3.554792642593384 3.9747607707977295 -0.24541760981082916 4456788 0 -1
-3.2099173069000244 4.220840930938721 0.6135440468788147 4456788 0 -1
-4.613339424133301 2.665619373321533 -0.3272234797477722 4456788 0 -1
-4.375457763671875 3.0554568767547607 0.12270880490541458 4456788 0 -1
-3.5559427738189697 3.9760468006134033 -0.20451468229293823 4456788 0 -1
-3.2176430225372314 4.23099946975708 0.4908352196216583 4456788 0 -1
-4.373400688171387 3.054020643234253 0.20451468229293823 4456788 0 -1
-3.159937620162964 4.238894939422607 0.7362528443336487 4456788 0 -1
-3.558450937271118 3.978851318359375 0.04090293496847153 4456788 0 -1
-3.34773325920105 4.145010471343994 -0.3272234797477722 4456788 0 -1
-4.6220316886901855 2.6706416606903076 0 4456788 0 -1
-3.548093318939209 3.9672701358795166 0.40902936458587646 4523353 0 -1
-3.394544839859009 4.1189656257629395 0.08180586993694305 4523353 0 -1
-3.362497568130493 4.080079078674316 0.7362528443336487 4590430 0 -1
-3.362497568130493 4.080079078674316 0.7362528443336487 4590430 0 -1
-4.0902934074401855 3.4300150871276855 0 4726897 0 -1
-3.5408565998077393 3.9591784477233887 -0.5317381620407104 4726897 0 -1
-3.536503314971924 4.036691188812256 -0.20576171576976776 4456788 0 -1
-3.5374388694763184 4.037759304046631 -0.1646093726158142 4456788 0 -1
-3.243295431137085 4.264730930328369 0.37037110328674316 4456788 0 -1
-3.5735208988189697 3.995701789855957 -0.3292187452316284 4456788 0 -1
-3.580148696899414 4.00311279296875 0.04115234315395355 4456788 0 -1
-4.6480302810668945 2.6856637001037598 0.1646093726158142 4456788 0 -1
-3.5139503479003906 3.929093360900879 1.02880859375 4456788 0 -1
-3.569728136062622 3.9914608001708984 -0.4115234315395355 4590430 0 -1
-3.326200246810913 4.118349075317383 0.9053515791893005 4590430 0 -1
-3.5735208988189697 3.995701789855957 -0.3292187452316284 4728182 0 -1
-3.5735208988189697 3.995701789855957 -0.3292187452316284 4728182 0 -1
-3.2107017040252686 4.306992530822754 -0.5796245336532593 4456788 0 -1
-2.89351487159729 4.462685585021973 0.9522402882575989 4456788 0 -1
-3.0646681785583496 4.364245891571045 0.8694368004798889 4456788 0 -1
-2.920043706893921 4.503601551055908 0.6210262775421143 4456788 0 -1
-3.8499107360839844 3.790261745452881 -0.08280350267887115 4456788 0 -1
-4.671663284301758 2.6993191242218018 0.28981226682662964 4456788 0 -1
-3.8499107360839844 3.790261745452881 -0.08280350267887115 4456788 0 -1
-3.8499107360839844 3.790261745452881 0.08280350267887115 4523353 0 -1
-3.5500826835632324 4.052191734313965 -0.41401752829551697 4724328 0 -1
-2.9401676654815674 4.534638404846191 0.5831162333488464 4456788 0 -1
-3.3317015171051025 4.29422664642334 0.0833023190498352 4456788 0 -1
-2.873856544494629 4.522040843963623 0.9163255095481873 4456788 0 -1
-2.9109456539154053 4.489569187164307 0.9579766988754272 4456788 0 -1
-2.9349238872528076 4.526551246643066 0.6664185523986816 4456788 0 -1
-3.4104785919189453 4.222699165344238 0.2915581166744232 4456788 0 -1
-2.944704532623291 4.541635990142822 0.49981391429901123 4456788 0 -1
-3.9966328144073486 3.6805877685546875 -0.1666046380996704 4456788 0 -1
-3.9889919757843018 3.673551321029663 -0.3748604357242584 4456788 0 -1
-3.998041868209839 3.6818854808807373 0.0833023190498352 4523353 0 -1
-3.9909918308258057 3.6753928661346436 -0.3332092761993408 4590430 0 -1
-2.915238857269287 4.587156295776367 0.0833023190498352 4590430 0 -1
-2.9465084075927734 4.544417858123779 0.7542102336883545 4456788 0 -1
-3.60249662399292 4.112018585205078 -0.12570171058177948 4456788 0 -1
-3.350470542907715 4.318418025970459 -0.1676022708415985 4456788 0 -1
-2.8948190212249756 4.555025577545166 0.8799118995666504 4456788 0 -1
-3.5145812034606934 4.179015636444092 0.2933039665222168 4456788 0 -1
-2.8983936309814453 4.56065034866333 0.8380113840103149 4456788 0 -1
-3.6034488677978516 4.113105297088623 0 4456788 0 -1
-2.96014404296875 4.565448760986328 0.5447073578834534 4456788 0 -1
-4.501733303070068 2.874098300933838 1.1732158660888672 4456788 0 -1
-3.9763450622558594 3.745391368865967 -0.25140342116355896 4456788 0 -1
-3.9805538654327393 3.7493560314178467 0 4523353 0 -1
-4.016664028167725 3.699035167694092 -0.2933039665222168 4590430 0 -1
-3.1810760498046875 4.4407243728637695 -0.25140342116355896 4590430 0 -1
-2.88425612449646 4.630479335784912 0.37710511684417725 4590430 0 -1
-3.643636703491211 4.074100971221924 0.1676022708415985 4724328 0 -1
-2.751993417739868 4.418139934539795 1.6760227680206299 4724328 0 -1
-3.665325164794922 4.098351955413818 -0.1685999035835266 4456788 0 -1
-3.4140477180480957 4.313006401062012 0.04214997589588165 4456788 0 -1
-3.2431652545928955 4.438128471374512 0.21074987947940826 4456788 0 -1
-3.2025516033172607 4.470704078674316 0.12644992768764496 4456788 0 -1
-4.622866153717041 2.951434850692749 -0.42149975895881653 4456788 0 -1
-3.661769151687622 4.0943756103515625 -0.29504984617233276 4590430 0 -1
-3.244023323059082 4.439302444458008 0.1685999035835266 4590430 0 -1
-3.706474781036377 4.059205532073975 0.21074987947940826 4657508 0 -1
-4.322687149047852 3.19077205657959 1.180199384689331 4724328 0 -1
-3.7082178592681885 4.06111478805542 0.12644992768764496 4724328 0 -1
-3.004973888397217 4.542887210845947 0.9751858115196228 4456788 0 -1
-3.6860382556915283 4.121511936187744 0.211996927857399 4456788 0 -1
-3.2646567821502686 4.467538356781006 -0.04239938408136368 4456788 0 -1
-2.9590156078338623 4.5637078285217285 1.017585277557373 4456788 0 -1
-3.261300563812256 4.462945461273193 0.25439631938934326 4456788 0 -1
-3.5548505783081055 4.226897716522217 -0.3391950726509094 4456788 0 -1
-3.3595333099365234 4.330099105834961 0.763188898563385 4456788 0 -1
-4.644174575805664 2.965038776397705 0.5087926387786865 4456788 0 -1
-3.51904559135437 4.270035266876221 0.04239938408136368 4523353 0 -1
-3.6221821308135986 4.134488105773926 -0.6359907388687134 4590430 0 -1
-4.586669445037842 3.020087957382202 0.6783901453018188 4657508 0 -1
-3.3062779903411865 4.4352030754089355 -0.12719815969467163 4724328 0 -1
-5.2817864418029785 1.0504642724990845 1.2719814777374268 4725613 0 -1
-3.13779878616333 4.558253288269043 0.5970830917358398 4456788 0 -1
-4.64749002456665 3.0601351261138916 -0.1279463768005371 4456788 0 -1
-3.4251184463500977 4.326991558074951 0.725029468536377 4456788 0 -1
-3.283571243286133 4.493422508239746 -0.0852975845336914 4456788 0 -1
-4.642026424407959 3.0565378665924072 0.2985415458679199 4456788 0 -1
-3.4967901706695557 4.32956600189209 0.0852975845336914 4523353 0 -1
-3.6200008392333984 4.131998538970947 0.8956246376037598 4590430 0 -1
-3.0916881561279297 4.230838775634766 1.876546859741211 4657508 0 -1
-3.348926305770874 4.403629302978516 0.8579639792442322 4456788 0 -1
-3.156148672103882 4.584909439086914 0.600574791431427 4456788 0 -1
-3.402615547180176 4.385627746582031 0.7292693853378296 4724328 0 -1
4.7257795333862305 2.922201633453369 -0.6863712072372437 4724328 0 -1
-3.461554527282715 4.373022079467773 0.7766569256782532 4657508 0 -1
4.74857759475708 2.9362988471984863 -0.733509361743927 4657508 0 -1
-3.415031671524048 4.401630878448486 0.8198045492172241 4724328 0 -1
4.772341728210449 2.950993537902832 -0.4746236801147461 4724328 0 -1
-3.4777064323425293 4.393426895141602 0.824543297290802 4657508 0 -1
-3.460139036178589 4.3712334632873535 0.9981313943862915 4724328 0 -1
4.853469371795654 2.90311336517334 -0.30377912521362305 4724328 0 -1
-3.610424280166626 4.843199729919434 0.7462291717529297 4456788 0 -1
-3.5677847862243652 4.882355690002441 0.9377745985984802 4456788 0 -1
-3.340019464492798 5.049405574798584 0.8908858895301819 4456788 0 -1
-4.504866123199463 4.83143949508667 -0.15188956260681152 4456788 0 -1
-3.985525369644165 5.240716934204102 0.5569283962249756 4456788 0 -1
-4.524929523468018 4.852957248687744 -0.25439631938934326 4456788 0 -1
-4.006631851196289 5.164144039154053 1.1702229976654053 4456788 0 -1
-4.549249172210693 4.879039764404297 -0.15338601171970367 4456788 0 -1
-4.020534515380859 5.182063102722168 1.2270880937576294 4456788 0 -1
-4.491591453552246 5.022233963012695 0 4456788 0 -1
-4.513157367706299 5.0463480949401855 0.051876895129680634 4456788 0 -1
-2.181514024734497 6.418015956878662 -0.5733892917633057 4456788 6 -1
-4.5349884033203125 5.07075834274292 0 4456788 0 -1
-2.3012137413024902 6.425933361053467 -0.366629958152771 4456788 6 -1
-2.042592763900757 6.522859573364258 -0.052375711500644684 4456788 6 -1
-1.7805650234222412 6.598578453063965 0.10475142300128937 4456788 0 -1
-2.551600217819214 6.298753261566162 -0.733259916305542 4456788 0 -1
-2.199521541595459 6.470993518829346 -0.10475142300128937 4456788 6 -1
-2.551600217819214 6.298753261566162 -0.733259916305542 4456788 0 -1
-2.1471519470214844 6.488558292388916 -0.10475142300128937 4456788 6 -1
-1.7782107591629028 6.589853763580322 0.366629958152771 4456788 0 -1
-3.5409963130950928 5.800542831420898 -0.733259916305542 4456788 0 -1
-2.6913657188415527 6.195312023162842 -1.0475142002105713 4456788 0 -1
-2.3512959480285645 6.400924205780029 -0.47138139605522156 4456788 0 -1
-2.3512959480285645 6.400924205780029 -0.47138139605522156 4456788 0 -1
-1.2017734050750732 6.71238899230957 -0.47138139605522156 4456788 0 -1
-2.5329666137695312 6.252755165100098 -1.099889874458313 4456788 0 -1
-2.5329666137695312 6.252755165100098 -1.099889874458313 4456788 0 -1
-2.447453260421753 6.339946746826172 -0.733259916305542 4456788 0 -1
-2.1410908699035645 6.470242023468018 -0.5237571001052856 4456788 6 -1
-2.165348768234253 6.370457649230957 -1.204641342163086 4456788 0 -1
-2.1956429481506348 6.459582805633545 0.41900569200515747 4456788 6 -1
-4.556151866912842 5.094421863555908 -0.10475142300128937 4456788 0 -1
-3.192572593688965 6.038337707519531 -0.2618785500526428 7589974 0 -1
-2.8252978324890137 6.216233730316162 0.3142542541027069 7589974 0 -1
-2.0950284004211426 6.506418228149414 0 8180304 6 -1
-2.9798011779785156 6.137413501739502 -0.41900569200515747 8705099 0 -1
-2.0829389095306396 6.468873023986816 0.733259916305542 11918891 0 -1
-1.8855255842208862 6.570191860198975 0 11918891 0 -1
-2.64890718460083 6.239442825317383 -1.1051274538040161 4456788 0 -1
-2.4087154865264893 6.3952107429504395 -0.6841265559196472 4456788 0 -1
-2.6418728828430176 6.222873687744141 -1.2103776931762695 4456788 0 -1
-2.203756809234619 6.48345422744751 -0.5262511968612671 4456788 6 -1
-2.209216594696045 6.499516487121582 0.21050047874450684 4456788 6 -1
-2.563750743865967 6.328747272491455 -0.7367516756057739 4456788 0 -1
-2.15604567527771 6.515435218811035 -0.26312559843063354 4456788 6 -1
-2.20238995552063 6.479432106018066 -0.5788763165473938 4456788 6 -1
-1.9949936866760254 6.554718971252441 -0.473626047372818 4456788 6 -1
-3.904832124710083 5.560682773590088 -0.9998772144317627 4456788 0 -1
-2.6973443031311035 6.2090744972229 -1.1577526330947876 4456788 0 -1
-2.4121413230895996 6.404306411743164 -0.5788763165473938 4456788 0 -1
-2.755079507827759 5.928503513336182 -2.1050047874450684 4456788 0 -1
-2.4157841205596924 6.257909774780273 -1.4735033512115479 4456788 0 -1
-2.6019504070281982 6.1288371086120605 -1.6840038299560547 4456788 0 -1
-2.089125156402588 6.4880852699279785 -0.8420019149780273 4456788 6 -1
-1.0878299474716187 6.672351360321045 -1.2103776931762695 4456788 0 -1
-0.6824978590011597 6.817516803741455 -0.473626047372818 4456788 0 -1
-2.20238995552063 6.479432106018066 -0.5788763165473938 4456788 6 -1
-2.837665557861328 6.243445873260498 0.36837583780288696 4147337 0 -1
-3.4608983993530273 5.903875350952148 -0.5788763165473938 8180304 0 -1
-1.947072148323059 6.5859551429748535 0.05262511968612671 8180304 0 -1
-1.6265825033187866 6.651762962341309 0.5262511968612671 8180304 0 -1
-2.4523065090179443 6.3525190353393555 -0.8946269750595093 12640037 0 -1
-1.8940036296844482 6.599733829498291 -0.15787535905838013 12640037 0 -1
-3.21003794670105 6.071371078491211 -0.05262511968612671 13164576 0 -1
-2.25862455368042 6.472250938415527 -0.42100095748901367 13164576 6 -1
-1.6274948120117188 6.655494213104248 0.473626047372818 13164576 0 -1
-2.4686336517333984 6.39481258392334 -0.793117880821228 4456788 0 -1
-2.1970694065093994 6.463779926300049 -1.0046160221099854 4456788 6 -1
-1.9554383754730225 6.614253520965576 0.21149811148643494 4456788 0 -1
-2.2060129642486572 6.490091323852539 -0.793117880821228 4456788 6 -1
-2.1995062828063965 6.470948696136475 -0.9517414569854736 4456788 6 -1
-2.251875400543213 6.452911376953125 -0.9517414569854736 4456788 6 -1
-1.9020854234695435 6.627895355224609 -0.2643726170063019 4456788 0 -1
-1.5311540365219116 6.718287944793701 0.37012168765068054 4456788 0 -1
-2.212827682495117 6.510140419006348 -0.5816197991371155 4456788 6 -1
-2.4427199363708496 6.327685356140137 -1.2689886093139648 4456788 0 -1
-2.4557478427886963 6.361433506011963 -1.0574904680252075 4456788 0 -1
-2.9595823287963867 6.230004787445068 0.21149811148643494 3302798 0 -1
-2.9578425884246826 6.22634220123291 0.3172471523284912 2070155 0 -1
-1.687956690788269 6.673916816711426 0.4758707284927368 2070155 0 -1
-2.2121946811676025 6.5082783699035645 -0.9031068682670593 4456788 6 -1
-2.218330144882202 6.5263285636901855 -0.7437350749969482 4456788 6 -1
-2.867344617843628 6.308745861053467 0.21249572932720184 4456788 0 -1
-1.483928918838501 6.755475997924805 0.47811540961265564 4456788 0 -1
-2.1655125617980957 6.54404354095459 -0.7437350749969482 4456788 6 -1
-2.2217531204223633 6.5363993644714355 -0.6374872326850891 4456788 6 -1
-2.119898557662964 6.583656311035156 0.47811540961265564 2977934 6 -1
-1.9097086191177368 6.654458522796631 0.3718675374984741 2977934 0 -1
-1.5241799354553223 6.687687873840332 1.0093547105789185 2977934 0 -1
-1.855841040611267 6.666508197784424 0.4249914586544037 2468738 0 -1
-2.489423990249634 6.145267486572266 2.1349337100982666 4456788 0 -1
-2.934758186340332 6.315144062042236 0.16012002527713776 4456788 0 -1
-1.4916431903839111 6.790594100952148 0.4269867241382599 4456788 0 -1
-1.1617029905319214 6.792757034301758 1.0140935182571411 4456788 0 -1
-2.5038294792175293 6.485985279083252 -0.4269867241382599 4456788 0 -1
-3.0941994190216064 6.236973285675049 0.21349336206912994 4728182 0 -1
-1.9214403629302979 6.695338249206543 0 4728182 0 -1
-2.291749954223633 6.567174434661865 -0.3736133873462677 3238030 6 -1
-2.0813159942626953 6.646519184112549 -0.10674668103456497 3238030 6 -1
-1.860153317451477 6.681998252868652 0.640480101108551 3107982 0 -1
-2.1346828937530518 6.629571437835693 0.10674668103456497 2782862 6 -1
-1.8645539283752441 6.697806358337402 0.4269867241382599 2468738 0 -1
-2.114529848098755 6.566983222961426 0.9607201814651489 2666112 0 -1
-1.768686294555664 6.353432655334473 -2.241680383682251 2666112 0 -1
-2.198274612426758 6.64304780960083 0.10724549740552902 4456788 6 -1
-3.1369268894195557 6.059329986572266 -1.555059790611267 4456788 0 -1
-1.5521353483200073 6.8103485107421875 -0.4289819896221161 4456788 0 -1
-2.3587775230407715 6.58667516708374 -0.16086825728416443 4341894 6 -1
-2.0910415649414062 6.677577495574951 0.10724549740552902 3238030 6 -1
-1.9267886877059937 6.713974952697754 0.4289819896221161 3107982 0 -1
-2.0367071628570557 6.6917724609375 0.21449099481105804 2588302 6 -1
-1.87630033493042 6.740001201629639 0.16086825728416443 2523534 0 -1
-2.5820541381835938 6.081971645355225 2.3057782649993896 11918891 0 -1
-2.561150074005127 6.475401401519775 0.9696988463401794 4456788 0 -1
-2.208693742752075 6.674533843994141 0.053872156888246536 4456788 6 -1
-2.4171199798583984 6.580117225646973 -0.5387215614318848 4341894 0 -1
-3.489229679107666 6.074926853179932 -0.5925937294960022 3257723 0 -1
-2.898744583129883 6.377831935882568 0.5925937294960022 3257723 0 -1
-2.405959367752075 6.549734592437744 0.8619545102119446 3257723 0 -1
-1.49971604347229 6.827345848083496 0.7542102336883545 3257723 0 -1
-2.3228509426116943 6.656296253204346 0.4329725205898285 4456788 6 -1
-2.151245594024658 6.500929355621338 1.731890082359314 3692940 0 -1
-2.84680438041687 6.405874252319336 0.865945041179657 2070922 0 -1
-2.335479736328125 6.692485332489014 0.3262258470058441 2782862 6 -1
-3.370109796524048 6.242275714874268 0.16311292350292206 2199437 0 -1
-1.9009718894958496 6.8286261558532715 0.3262258470058441 2199437 0 -1
-1.2807376384735107 6.845606803894043 1.3592743873596191 2199437 0 -1
-2.4866323471069336 6.6020827293396 0.7611936330795288 2070922 0 -1
-1.9564355611801147 6.817280292510986 0.21748389303684235 2070922 0 -1
-2.5925111770629883 6.554692268371582 0.8155646324157715 2006409 0 -1
-2.2388439178466797 6.765645980834961 -0.16386115550994873 4456788 6 -1
-2.2388439178466797 6.765645980834961 -0.16386115550994873 4456788 6 -1
-2.2393698692321777 6.76723575592041 -0.05462038144469261 4456788 6 -1
-2.2391726970672607 6.766639709472656 -0.10924076288938522 4456788 6 -1
-3.4309675693511963 6.224416732788086 0.5462038516998291 4456788 0 -1
-2.6763203144073486 6.606630325317383 0.05462038144469261 4456788 0 -1
-2.4026618003845215 6.7092180252075195 -0.16386115550994873 4456788 0 -1
-3.6595656871795654 6.117255687713623 0 4456788 0 -1
-2.620546579360962 6.625574588775635 0.21848152577877045 4456788 0 -1
-2.018044948577881 6.826019763946533 0.382342666387558 4456788 6 -1
-2.24800968170166 6.793344497680664 -0.2743489444255829 4456788 6 -1
-2.24800968170166 6.793344497680664 -0.2743489444255829 4456788 6 -1
-2.2486045360565186 6.795141696929932 -0.21947915852069855 4456788 6 -1
-2.2486045360565186 6.795141696929932 -0.21947915852069855 4456788 6 -1
-2.2490670680999756 6.796539306640625 -0.1646093726158142 4456788 6 -1
-2.358292579650879 6.757856845855713 0.21947915852069855 3562893 6 -1
-2.257497549057007 6.82201623916626 -0.33071520924568176 4456788 6 -1
-2.258228063583374 6.824223518371582 -0.2755959928035736 4456788 6 -1
-2.258228063583374 6.824223518371582 -0.2755959928035736 4456788 6 -1
-2.2588255405426025 6.826028823852539 -0.22047679126262665 4456788 6 -1
-2.4912948608398438 6.782042980194092 -0.11073721200227737 4212104 0 -1
-4.5029425621032715 5.688619613647461 0.22247205674648285 4456788 0 -1
-4.5247297286987305 5.716143608093262 0.11173484474420547 4456788 0 -1
-4.488819122314453 5.785634994506836 -0.11223366111516953 4456788 0 -1
-4.509166717529297 5.81186056137085 -0.05636623874306679 4456788 0 -1
-4.557079315185547 5.7570109367370605 0.4509299099445343 4523353 0 -1
-2.755781888961792 6.802785873413086 -0.8492347002029419 4456788 0 -1
-4.585732936859131 5.793209552764893 0.05661564692854881 4456788 0 -1
-4.528719902038574 5.837062835693359 0.11323129385709763 4456788 0 -1
-4.57926607131958 5.785039901733398 0.3963095247745514 4523353 0 -1
-2.188837766647339 6.98988151550293 -1.1941661834716797 4456788 0 -1
-2.194108486175537 7.006713390350342 -1.080436110496521 4456788 0 -1
-4.548002243041992 5.8619160652160645 0.1705951690673828 4456788 0 -1
-2.2127022743225098 7.066091537475586 -0.8567169904708862 4456788 0 -1
-2.2127022743225098 7.066091537475586 -0.8567169904708862 4456788 0 -1
-2.2084853649139404 7.0526251792907715 -0.9709458947181702 4456788 0 -1
-4.511512756347656 5.9323577880859375 -0.11422892659902573 4456788 0 -1
-2.2203142642974854 7.090399742126465 -0.9178219437599182 4456788 0 -1
-2.2260642051696777 7.108761310577393 -0.7457303404808044 4456788 0 -1
-2.2181293964385986 7.083422660827637 -0.9751858115196228 4456788 0 -1
-4.528419017791748 5.954587936401367 -0.28681936860084534 4456788 0 -1
-2.1747958660125732 7.145473957061768 -0.8641992211341858 4456788 0 -1
-2.232027292251587 7.127803802490234 -0.8641992211341858 4456788 0 -1
-2.227773666381836 7.114220142364502 -0.9794257879257202 4456788 0 -1
-2.2299678325653076 7.121227264404297 -0.9218124747276306 4456788 0 -1
-2.232027292251587 7.127803802490234 -0.8641992211341858 4456788 0 -1
-2.1842105388641357 7.1764068603515625 -0.8679403066635132 4456788 0 -1
-2.1821951866149902 7.169785499572754 -0.925803005695343 4456788 0 -1
-2.186094045639038 7.182595252990723 -0.8100776672363281 4456788 0 -1
-2.2436227798461914 7.1648335456848145 -0.8100776672363281 4456788 0 -1
-2.1842105388641357 7.1764068603515625 -0.8679403066635132 4456788 0 -1
-2.2436227798461914 7.1648335456848145 -0.8100776672363281 4456788 0 -1
-2.1989047527313232 7.224686145782471 -0.6973451375961304 4456788 0 -1
-2.137740135192871 7.230887413024902 -0.8135693669319153 4456788 0 -1
-2.191601276397705 7.200689792633057 -0.9297935366630554 4456788 0 -1
-2.1972765922546387 7.219336986541748 -0.7554572820663452 4456788 0 -1
-4.399203777313232 7.062625408172607 0.4469393789768219 4456788 0 -1
-2.1715734004974365 8.047612190246582 0.7050768136978149 2588302 0 -1
-4.436704158782959 7.122829437255859 -0.32173651456832886 4456788 0 -1
-5.553529262542725 6.209631443023682 -1.2919341325759888 4456788 0 -1
-4.516988277435303 7.107524394989014 -0.3875802457332611 4456788 0 -1
-5.5319504737854 6.185503005981445 1.4857243299484253 4523353 0 -1
-4.530691623687744 7.129086971282959 -0.5187689065933228 4456788 0 -1
-5.528521537780762 6.181668758392334 1.6859990358352661 4523353 0 -1
-4.556552886962891 7.1697797775268555 -0.06509552150964737 4456788 0 -1
-4.551868438720703 7.162408828735352 -0.3905731439590454 4456788 0 -1
-4.621782302856445 7.128203392028809 0 4523353 0 -1
-4.621782302856445 7.128203392028809 0 4523353 0 -1
-4.574010848999023 7.197249889373779 -0.0653449296951294 4456788 0 -1
-4.569308757781982 7.189850807189941 -0.39206960797309875 4456788 0 -1
-4.5066819190979 7.235174655914307 -0.2613797187805176 4456788 0 -1
-4.498066425323486 7.22134256362915 -0.5881044268608093 4456788 0 -1
-4.4556989669799805 7.298926830291748 -0.3935660421848297 4456788 0 -1
-4.436593055725098 7.416118621826172 -0.53074049949646 4456788 0 -1
-4.456944465637207 7.450138092041016 -0.3995518386363983 4456788 0 -1
-4.437262058258057 7.725500106811523 -0.41002699732780457 4456788 0 -1
-4.416583061218262 9.096713066101074 -0.46539559960365295 4523353 0 -1
-4.43430233001709 9.133209228515625 -0.23344601690769196 4523353 0 -1
-3.4323270320892334 9.584465980529785 -0.3903237283229828 4456788 4 -1
-3.1151559352874756 9.674574851989746 -0.7025827169418335 4456788 4 -1
-1.714194655418396 10.023308753967285 -0.6245179772377014 4456788 0 -1
-4.448514938354492 9.162482261657715 0.23419424891471863 4523353 0 -1
-3.492589235305786 9.272927284240723 -2.7584540843963623 4590430 0 -1
-3.7099318504333496 8.944574356079102 -3.46777081489563 4657508 0 -1
-3.0297183990478516 9.67516803741455 -1.733885407447815 4657508 4 -1
-4.426323413848877 9.317536354064941 -0.23718714714050293 4456788 0 -1
-4.422811985015869 9.310144424438477 -0.47437429428100586 4456788 0 -1
-5.331628799438477 8.389369010925293 -2.767183303833008 4590430 0 -1
-3.5461320877075195 9.185993194580078 -3.083432912826538 4590430 0 -1
-4.180266857147217 8.799579620361328 -3.3996822834014893 4657508 0 -1
-3.0888516902923584 9.59288215637207 -2.2137465476989746 4657508 0 -1
-3.427475690841675 9.330604553222656 -2.767183303833008 4724328 0 -1
-3.4079031944274902 9.765591621398926 -0.396558940410614 4456788 4 -1
-4.436763763427734 9.339513778686523 -0.4758707284927368 4456788 0 -1
-4.181422233581543 8.802011489868164 -3.4897186756134033 4657508 0 -1
-3.4382877349853516 9.360038757324219 -2.7759125232696533 4657508 0 -1
-3.420729637145996 9.802347183227539 0.15912239253520966 4456788 4 -1
-3.420227527618408 9.800908088684082 -0.23868359625339508 4456788 4 -1
-3.3352861404418945 9.812414169311523 -0.6364895701408386 4456788 4 -1
-3.3400003910064697 9.82628345489502 -0.3182447850704193 4456788 4 -1
-3.3511595726013184 9.859113693237305 -0.23943181335926056 4456788 4 -1
-3.431452989578247 9.833075523376465 -0.1596212089061737 4456788 4 -1
