VERSION .7
FIELDS x y z rgb label object
SIZE 4 4 4 4 4 4
TYPE F F F I I I
COUNT 1 1 1 1 1 1
WIDTH 686
HEIGHT 1
POINTS 686
VIEWPOINT 0 0 0 1 0 0 0
DATA ascii
-1.3354145288467407 3.0049474239349365 -0.457913339138031 4456788 0 -1
-1.1699137687683105 3.1061556339263916 -0.0763188898563385 4456788 0 -1
-1.5934484004974365 2.8908133506774902 0.35615482926368713 4456788 0 -1
-1.620038628578186 2.8790323734283447 0.33071520924568176 4456788 0 -1
-1.3911056518554688 2.993443489074707 0.35615482926368713 4456788 0 -1
-2.2892978191375732 2.4040074348449707 0.05087926238775253 4456788 0 -1
-1.846376657485962 2.736196756362915 -0.35615482926368713 4456788 0 -1
-1.6790156364440918 2.8641982078552246 0 4456788 0 -1
-1.8494713306427002 2.5309197902679443 1.0939041376113892 4456788 0 -1
-2.8946640491485596 1.6131418943405151 -0.20351704955101013 4657508 0 -1
-1.9132366180419922 2.6181797981262207 0.7123096585273743 4724328 0 -1
3.0453989505767822 1.2307074069976807 -0.48335298895835876 4726897 0 -1
-1.7479557991027832 2.64254093170166 0.9921455979347229 4728182 0 -1
3.026745319366455 1.2940266132354736 -0.43247371912002563 4728182 0 -1
-1.9497482776641846 2.6681442260742188 -0.5651588439941406 4456788 0 -1
-1.796912431716919 2.8274588584899902 -0.12844519317150116 4456788 0 -1
-2.0860605239868164 2.531240940093994 -0.693604052066803 4456788 0 -1
-1.906150221824646 2.714456558227539 -0.48809173703193665 4456788 0 -1
-1.8942242860794067 2.751723051071167 -0.2825794219970703 4456788 0 -1
-1.8461323976516724 2.7909634113311768 -0.20551231503486633 4456788 0 -1
-1.864478349685669 2.7630221843719482 -0.3596465289592743 4456788 0 -1
-1.6954765319824219 2.8922786712646484 0 4456788 0 -1
-1.8461323976516724 2.7909634113311768 -0.20551231503486633 4456788 0 -1
-1.8230648040771484 2.8117241859436035 -0.10275615751743317 4724328 0 -1
-1.7980215549468994 2.8292040824890137 -0.05137807875871658 4726897 0 -1
-1.796912431716919 2.8274588584899902 -0.12844519317150116 4664956 0 -1
-1.8225826025009155 2.8109803199768066 -0.12844519317150116 4471684 0 -1
-1.867355465888977 2.7672858238220215 -0.3082684576511383 3887499 0 -1
-1.796912431716919 2.8274588584899902 -0.12844519317150116 3562893 0 -1
-1.7460339069366455 2.860196352005005 -0.10275615751743317 2523534 0 -1
-1.3025808334350586 3.0682005882263184 -0.3596465289592743 2523534 0 -1
-1.9456335306167603 2.716068983078003 -0.5447073578834534 4456788 0 -1
-1.8396823406219482 2.837353467941284 -0.1556306779384613 4456788 0 -1
-1.9348145723342896 2.7009661197662354 -0.6484611630439758 4456788 0 -1
-1.911313772201538 2.7765488624572754 -0.3112613558769226 4456788 0 -1
-1.8879398107528687 2.797790288925171 -0.2593844532966614 4456788 0 -1
-1.9288082122802734 2.74672269821167 -0.4409535825252533 4456788 0 -1
-2.8259623050689697 1.8607522249221802 0.10375379025936127 4456788 0 -1
-1.8631219863891602 2.816648006439209 -0.23344601690769196 4456788 0 -1
-2.8906571865081787 1.729053020477295 0.3371998071670532 4523353 0 -1
-2.883190870285034 1.7245869636535645 0.41501516103744507 4590430 0 -1
-2.7983901500701904 1.8984253406524658 0.1556306779384613 4590430 0 -1
-1.9288082122802734 2.74672269821167 -0.4409535825252533 4657508 0 -1
-1.8396823406219482 2.837353467941284 -0.1556306779384613 4724328 0 -1
-1.8407645225524902 2.839022397994995 -0.10375379025936127 4726897 0 -1
-1.83897864818573 2.836268186569214 -0.18156912922859192 4664956 0 -1
-1.83897864818573 2.836268186569214 -0.18156912922859192 4471684 0 -1
-1.8631219863891602 2.816648006439209 -0.23344601690769196 2523534 0 -1
-1.8819797039031982 2.8451569080352783 -0.20950284600257874 4456788 0 -1
-1.9002618789672852 2.706071138381958 -0.8641992211341858 4456788 0 -1
-2.067728042602539 2.6650924682617188 -0.5499449372291565 4456788 0 -1
-1.9408886432647705 2.763925790786743 -0.5237571001052856 4456788 0 -1
-1.881036639213562 2.843731164932251 -0.23569069802761078 4456788 0 -1
-2.837808609008789 1.6397053003311157 -0.968950629234314 4726897 0 -1
-2.822969436645508 1.9150999784469604 0.20950284600257874 4726897 0 -1
-1.9007428884506226 2.8735227584838867 0.18506084382534027 4456788 0 -1
-2.98915958404541 2.3858461380004883 0.35316193103790283 4456788 0 -1
-2.938770294189453 2.2866499423980713 -0.9417651295661926 4456788 0 -1
-2.404470205307007 2.9176013469696045 -0.6768937110900879 4456788 0 -1
-2.9128611087799072 2.3836512565612793 -0.7651841640472412 4523353 0 -1
-2.9319729804992676 2.3402016162872314 -0.8240445256233215 4590430 0 -1
-2.870041608810425 2.2331724166870117 -1.2360666990280151 4657508 0 -1
-3.0808985233306885 2.15144419670105 0.794614315032959 4664956 0 -1
-2.134486436843872 2.9797041416168213 1.1477762460708618 4664956 0 -1
-2.8854146003723145 2.245134115219116 -1.1772063970565796 3887499 0 -1
-3.0555593967437744 2.377523183822632 0.11871827393770218 4456788 0 -1
-3.0339345932006836 2.360697031021118 0.4748730957508087 4456788 0 -1
-3.0440452098846436 2.3685641288757324 0.35615482926368713 4456788 0 -1
-2.9351704120635986 2.5211539268493652 0.17807741463184357 4456788 0 -1
-2.982727527618408 2.440824270248413 0.38583439588546753 4456788 0 -1
-2.9983835220336914 2.3932082653045654 0.5342322587966919 4523353 0 -1
-2.960026979446411 2.2439863681793213 1.0981440544128418 4724328 0 -1
-2.9275238513946533 2.574615240097046 0.23943181335926056 4456788 0 -1
-2.9756271839141846 2.4952845573425293 0.41900569200515747 4456788 0 -1
-2.9970712661743164 2.452562093734741 0.5087926387786865 4456788 0 -1
-3.0235800743103027 2.4133193492889404 0.5387215614318848 4523353 0 -1
-2.9985907077789307 2.273221492767334 1.0475142002105713 4724328 0 -1
-3.110328435897827 2.3579294681549072 0.1496448814868927 4664956 0 -1
-2.9326953887939453 2.579163074493408 0.05985795333981514 4664956 0 -1
-2.9788765907287598 2.558695077896118 0.30178385972976685 4456788 0 -1
-3.092913866043091 2.4065887928009033 0.392318993806839 4456788 0 -1
-2.975003480911255 2.555368423461914 0.36214062571525574 4456788 0 -1
-2.9728007316589355 2.553476333618164 0.392318993806839 4456788 0 -1
-2.9921257495880127 2.5091195106506348 0.5130325555801392 4456788 0 -1
-3.0220468044281006 2.4730000495910645 0.5130325555801392 4456788 0 -1
-3.0519680976867676 2.4359776973724365 0.5130325555801392 4523353 0 -1
-3.0250236988067627 2.475435972213745 0.4828541576862335 4590430 0 -1
-2.995072841644287 2.5115911960601807 0.4828541576862335 4657508 0 -1
-2.9945061206817627 2.3300178050994873 1.0562435388565063 4724328 0 -1
-2.8835411071777344 2.5359342098236084 0.8751731514930725 4724328 0 -1
-3.1352334022521973 2.37680983543396 0.18107031285762787 4664956 0 -1
-2.9504408836364746 2.5947694778442383 0.2716054618358612 4664956 0 -1
-2.943066120147705 2.5882837772369385 0.6389836668968201 4456788 0 -1
-2.9896273612976074 2.56792950630188 0.4868446886539459 4456788 0 -1
-3.122910261154175 2.429928779602051 0.33470574021339417 4456788 0 -1
-2.976768732070923 2.556884527206421 0.6085558533668518 4456788 0 -1
-2.976768732070923 2.556884527206421 0.6085558533668518 4456788 0 -1
-2.976768732070923 2.556884527206421 0.6085558533668518 4456788 0 -1
-2.94670033454895 2.591479778289795 0.6085558533668518 4456788 0 -1
-2.7983322143554688 2.6950957775115967 0.8215504288673401 4456788 0 -1
-3.00312876701355 2.5183465480804443 0.6389836668968201 4456788 0 -1
-2.8326950073242188 2.6681668758392334 0.7911226153373718 4456788 0 -1
-3.077191114425659 2.4561097621917725 0.5172724723815918 4523353 0 -1
-2.87534761428833 2.6479713916778564 0.6998392343521118 4523353 0 -1
-3.113292932510376 2.42244553565979 0.45641690492630005 4590430 0 -1
-2.973097324371338 2.5537312030792236 0.6389836668968201 4590430 0 -1
-2.7638888359069824 2.721066474914551 0.8519781827926636 4590430 0 -1
-3.0103602409362793 2.5244107246398926 0.5781280994415283 4657508 0 -1
-2.917410373687744 2.565720796585083 0.8215504288673401 4724328 0 -1
-3.0580222606658936 2.257265329360962 -1.257765293121338 4456788 0 -1
-3.0604169368743896 2.5663869380950928 -0.27609482407569885 4456788 0 -1
-3.209644079208374 2.3691842555999756 -0.33744922280311584 4456788 0 -1
-2.901292562484741 2.6114680767059326 0.8896388411521912 4456788 0 -1
-2.9413235187530518 2.5867512226104736 0.8282844424247742 4456788 0 -1
-2.800144672393799 2.756760597229004 0.7669300436973572 4456788 0 -1
-2.565366506576538 2.8684425354003906 1.1043792963027954 4456788 0 -1
-3.248344898223877 2.3330445289611816 -0.18406321108341217 4456788 0 -1
-2.9501194953918457 2.533994436264038 0.9509932398796082 4456788 0 -1
-2.7956278324127197 2.692491292953491 0.9816704392433167 4456788 0 -1
-3.277735471725464 2.2888987064361572 -0.21474041044712067 4456788 0 -1
-3.111018180847168 2.483109474182129 -0.42948082089424133 4456788 0 -1
-2.8960015773773193 2.6067054271698 0.9203160405158997 4523353 0 -1
-3.175009250640869 2.343618869781494 0.6748984456062317 4590430 0 -1
-2.9501194953918457 2.533994436264038 0.9509932398796082 4590430 0 -1
-2.3259167671203613 3.2469375133514404 0.27609482407569885 4724328 0 -1
-2.972670316696167 2.492804765701294 -1.1133579015731812 4456788 0 -1
-2.567667245864868 2.8710150718688965 1.206137776374817 4456788 0 -1
-1.7861605882644653 3.378291606903076 1.2989176511764526 4456788 0 -1
-2.9791181087493896 2.6199898719787598 0.7422386407852173 4456788 0 -1
-2.8926424980163574 2.7859268188476562 0.40204593539237976 4456788 0 -1
-2.675126552581787 2.929708242416382 0.7422386407852173 4456788 0 -1
-3.0745387077331543 2.2694568634033203 -1.2989176511764526 4456788 0 -1
-3.2778356075286865 2.3542253971099854 -0.06185321882367134 4456788 0 -1
-2.2729995250701904 3.2368688583374023 0.8040918707847595 4456788 0 -1
-2.9143779277801514 2.5032942295074463 1.2370643615722656 4523353 0 -1
-3.0571718215942383 2.2566375732421875 -1.36077082157135 4590430 0 -1
-2.9325027465820312 2.7621774673461914 -0.24741287529468536 4657508 0 -1
-2.318882703781128 3.3022091388702393 -0.09277983009815216 4724328 0 -1
-3.2107527256011963 2.498278856277466 0.06235203519463539 4456788 0 -1
-3.0569283962249756 2.625737428665161 -0.5611683130264282 4456788 0 -1
-2.211872100830078 3.411384105682373 0.15588009357452393 4456788 0 -1
-3.176591396331787 2.535447835922241 -0.18705610930919647 4456788 0 -1
-2.326364040374756 3.1206986904144287 1.184688687324524 4456788 0 -1
-2.3265719413757324 3.3131589889526367 0.4052882194519043 4456788 0 -1
-3.1428563594818115 2.5718607902526855 -0.24940814077854156 4456788 0 -1
-2.3015329837799072 3.343416929244995 0.2805841565132141 4456788 0 -1
3.598431348800659 1.8550608158111572 -0.4052882194519043 4456788 0 -1
-3.2096211910247803 2.4973983764648438 0.12470407038927078 4456788 0 -1
-3.2345869541168213 2.452129364013672 -0.2805841565132141 4456788 0 -1
-2.1946375370025635 3.384803056716919 -0.5299922823905945 4456788 0 -1
-2.3064157962799072 3.3505098819732666 0.09352805465459824 4724328 0 -1
-2.1972591876983643 3.256179094314575 1.059984564781189 4726897 0 -1
-2.275585889816284 3.2405519485473633 0.9352805018424988 4600703 0 -1
-2.277448892593384 3.1792774200439453 1.1223366260528564 4536450 0 -1
-3.2344424724578857 2.516711711883545 -0.15712712705135345 4456788 0 -1
-2.3782145977020264 3.3199446201324463 0.37710511684417725 4456788 0 -1
-2.148074150085449 3.2474355697631836 1.2884424924850464 4456788 0 -1
-2.348520040512085 3.344413995742798 0.3456796705722809 4456788 0 -1
-3.0271685123443604 2.662247657775879 0.7542102336883545 4456788 0 -1
-2.3826465606689453 3.3261311054229736 0.28282883763313293 4456788 0 -1
-3.069363594055176 2.5738894939422607 0.8799118995666504 4456788 0 -1
-2.307938814163208 3.352722644805908 0.5028068423271179 4456788 0 -1
3.6178500652313232 1.865071415901184 -0.5028068423271179 4456788 0 -1
-3.1424503326416016 2.6351780891418457 -0.03142542764544487 4456788 0 -1
-2.41719913482666 3.307830333709717 0.18855255842208862 4456788 0 -1
-3.291814088821411 2.429837942123413 -0.28282883763313293 4456788 0 -1
-2.2824153900146484 3.3156449794769287 0.7856356501579285 4456788 0 -1
-3.109060525894165 2.607178211212158 0.5970830917358398 4523353 0 -1
-2.2673416137695312 3.2937474250793457 0.9113373756408691 4523353 0 -1
-3.112508773803711 2.610069990158081 0.5656576752662659 4590430 0 -1
-2.3458900451660156 3.210247039794922 1.0056136846542358 4657508 0 -1
-2.254931688308716 3.3416454792022705 0.7542102336883545 4657508 0 -1
-2.2451775074005127 3.261549711227417 1.0684645175933838 4724328 0 -1
-3.0130631923675537 2.6498427391052246 0.8484864830970764 4600703 0 -1
-2.2589237689971924 3.2815189361572266 0.9741882085800171 4600703 0 -1
-2.290337562561035 3.1972696781158447 1.162740707397461 4536450 0 -1
-2.523252010345459 3.2522170543670654 0.38009801506996155 4456788 0 -1
-2.330411911010742 3.385369300842285 0.44344767928123474 4456788 0 -1
-2.365548849105835 3.368663787841797 0.38009801506996155 4456788 0 -1
-2.4047420024871826 3.35697603225708 0.19004900753498077 4456788 0 -1
-3.0710608959198 2.7008490562438965 0.6018218398094177 4456788 0 -1
-2.4015562534332275 3.3525290489196777 0.28507351875305176 4456788 0 -1
-3.117905855178833 2.614595651626587 0.7285211682319641 4456788 0 -1
-2.3529083728790283 3.350663423538208 0.5701470375061035 4456788 0 -1
-3.386718988418579 2.365003824234009 0.15837417542934418 4456788 0 -1
-2.4659907817840576 3.3080008029937744 0.25339868664741516 4456788 0 -1
-2.4618453979492188 3.3024399280548096 -0.34842318296432495 4456788 0 -1
-2.3215363025665283 3.3724756240844727 -0.5701470375061035 4456788 0 -1
-3.140495538711548 2.6335387229919434 0.5384721755981445 4523353 0 -1
-2.2811686992645264 3.3138339519500732 0.9502450227737427 4523353 0 -1
-3.1121530532836914 2.6731724739074707 0.5067973732948303 4590430 0 -1
-2.3202927112579346 3.3042168617248535 0.8868953585624695 4590430 0 -1
-2.307620048522949 3.286170244216919 0.9819198250770569 4657508 0 -1
-2.2723846435546875 3.3010733127593994 1.0135947465896606 4724328 0 -1
-3.1899948120117188 2.6104352474212646 0.6065605878829956 4456788 0 -1
-2.421679735183716 3.3806207180023193 0.255393922328949 4456788 0 -1
-3.1193153858184814 2.6793243885040283 0.670409083366394 4456788 0 -1
-2.434673547744751 3.3317432403564453 0.5746363401412964 4456788 0 -1
-3.4332122802734375 2.329087972640991 0.38309091329574585 4456788 0 -1
-3.456681728363037 2.2760486602783203 -0.4788636267185211 4456788 0 -1
-3.2981183528900146 2.5002923011779785 -0.4788636267185211 4456788 0 -1
-3.3401172161102295 2.4654927253723145 0.35116666555404663 4523353 0 -1
-2.408890724182129 3.2964603900909424 0.8300303220748901 4523353 0 -1
-3.3814852237701416 2.4286692142486572 0.1596212089061737 4590430 0 -1
-3.139554977416992 2.696709156036377 0.4788636267185211 4590430 0 -1
-2.3186442852020264 3.368274211883545 0.7981060743331909 4590430 0 -1
-2.3285858631134033 3.382716417312622 0.7023333311080933 4657508 0 -1
-2.419691324234009 3.3112406730651855 0.7342575788497925 4725613 0 -1
-2.312889337539673 3.427534818649292 0.510787844657898 4725613 0 -1
-2.671077251434326 3.1119823455810547 -0.9008622169494629 4724328 0 -1
-3.266347885131836 2.940056085586548 0.929294764995575 4456788 0 -1
-3.266523838043213 2.9402143955230713 1.0746996402740479 4456788 0 -1
-4.177780628204346 3.167161226272583 -0.5656576752662659 4456788 0 -1
-3.9957783222198486 3.432159185409546 -0.24242471158504486 4456788 0 -1
-4.3808488845825195 2.7969205379486084 -0.8888906240463257 4456788 0 -1
-4.187075614929199 3.174207925796509 -0.44444531202316284 4456788 0 -1
-3.178403377532959 4.179401874542236 -0.4848494231700897 4456788 0 -1
-4.388524055480957 2.535719394683838 -1.4545482397079468 4456788 0 -1
-3.3214917182922363 4.030322074890137 -0.7272741198539734 4523353 0 -1
4.111118316650391 3.1166248321533203 1.0909112691879272 4590430 0 -1
-1.5359195470809937 5.046392440795898 0.569149374961853 4456788 0 -1
0 5.153717517852783 -1.2602593898773193 4456788 0 -1
-4.693331241607666 2.217402219772339 -1.0976452827453613 4456788 0 -1
-3.575424909591675 3.8346197605133057 -0.81307053565979 4456788 0 -1
-3.211845874786377 3.8972771167755127 1.62614107131958 4456788 0 -1
4.788078784942627 2.047050714492798 1.0163382291793823 4456788 0 -1
-4.172412872314453 3.246544361114502 -0.4471887946128845 4456788 0 -1
-5.1643967628479 1.0271172523498535 -0.650456428527832 4456788 0 -1
-3.249894380569458 4.188785552978516 -0.2032676339149475 4456788 0 -1
5.0957183837890625 1.2057632207870483 -0.8537240624427795 4456788 0 -1
-4.593713760375977 2.6542794704437256 0.0406535267829895 4456788 0 -1
-3.2789857387542725 4.142380714416504 -0.487842321395874 4523353 0 -1
-5.015227317810059 1.18671715259552 1.2602593898773193 4590430 0 -1
-4.1543097496032715 3.0664849281311035 1.219605803489685 4728182 0 -1
4.968895435333252 1.6307121515274048 0.894377589225769 4728182 0 -1
-3.86645245552063 3.6418817043304443 -0.5317381620407104 4456788 0 -1
-4.7221245765686035 2.231005907058716 -1.1043792963027954 4456788 0 -1
-3.432213544845581 4.081076145172119 -0.24541760981082916 4456788 0 -1
-4.6220316886901855 2.6706416606903076 0 4456788 0 -1
-3.7595021724700928 3.5411431789398193 1.3497968912124634 4724328 0 -1
-4.187432765960693 3.0909345149993896 1.1861851215362549 4728182 0 -1
5.012052536010742 1.6448755264282227 0.8180587291717529 4728182 0 -1
-4.650214672088623 2.6869261264801025 0 4456788 0 -1
-3.5764682292938232 3.998997211456299 0.2469140589237213 4456788 0 -1
-3.4979491233825684 4.075343132019043 0 4523353 0 -1
-3.8271679878234863 3.767871379852295 0 4590430 0 -1
-3.883563995361328 3.657999277114868 -0.6172851324081421 4724328 0 -1
-3.331894636154175 3.8031437397003174 1.810703158378601 4728182 0 -1
-4.676199913024902 2.7019405364990234 0.1656070053577423 4456788 0 -1
-3.8899362087249756 3.7464282512664795 -0.1656070053577423 4523353 0 -1
-3.682142972946167 3.8666439056396484 -0.8280350565910339 4523353 0 -1
-3.4338223934173584 4.166625022888184 0.20700876414775848 4523353 0 -1
-3.8917646408081055 3.7481892108917236 0 4590430 0 -1
-3.3393352031707764 4.218620777130127 0.49682101607322693 4590430 0 -1
-3.5886147022247314 3.6890623569488525 1.749348759651184 4456788 0 -1
-3.665194511413574 4.0139970779418945 0.0416511595249176 4456788 0 -1
-4.704370021820068 2.718217134475708 0.1666046380996704 4456788 0 -1
-3.9539551734924316 3.724302053451538 0.208255797624588 4456788 0 -1
-3.4053540229797363 4.216353893280029 0.416511595249176 4590430 0 -1
-4.554618835449219 2.907862663269043 -0.8380113840103149 4456788 0 -1
-4.14815616607666 3.5630435943603516 0 4456788 0 -1
-4.487360954284668 2.954698324203491 -1.180199384689331 4456788 0 -1
-4.172847747802734 3.584252119064331 0 4456788 0 -1
-4.210540771484375 3.530851125717163 -0.2528998553752899 4523353 0 -1
-4.210540771484375 3.530851125717163 -0.2528998553752899 4523353 0 -1
-3.8149361610412598 4.0060906410217285 0.12719815969467163 4456788 0 -1
-4.530445575714111 2.8924293518066406 -1.3143808841705322 4456788 0 -1
-3.7734344005584717 4.04698371887207 -0.04239938408136368 4523353 0 -1
-3.4122183322906494 3.975461006164551 1.7807741165161133 4523353 0 -1
-3.6870133876800537 4.122602462768555 -0.1695975363254547 4590430 0 -1
-3.5104310512542725 4.70906400680542 0.7716687917709351 4456788 0 -1
-4.560818195343018 3.824584722518921 -0.22820845246315002 4456788 0 -1
-3.733708620071411 4.622907638549805 -0.41077521443367004 4456788 0 -1
-3.624438762664795 4.765910625457764 0.1376732885837555 4456788 0 -1
-3.5069580078125 4.799117088317871 -0.7342575788497925 4456788 0 -1
-3.333388328552246 4.939840316772461 -0.5965842604637146 4456788 0 -1
-3.6249709129333496 4.766610622406006 0.09178219735622406 4456788 0 -1
-3.7118279933929443 4.68919563293457 -0.3212376832962036 4456788 0 -1
-3.531020164489746 4.832045078277588 -0.22945548593997955 4456788 0 -1
-3.5592148303985596 4.58746862411499 1.468515157699585 4523353 0 -1
-2.999044895172119 5.221490383148193 0.046140506863594055 4456788 0 -1
-4.396073818206787 4.0484418869018555 -0.7382481098175049 4456788 0 -1
-3.8224599361419678 4.638200759887695 0.36912405490875244 4456788 0 -1
-3.5937788486480713 4.820870876312256 0.3229835331439972 4456788 0 -1
-4.4459686279296875 4.001838207244873 -0.692107617855072 4456788 0 -1
-3.4310531616210938 4.885997295379639 -0.7843886017799377 4456788 0 -1
-4.324456214904785 4.164917945861816 -0.46140506863594055 4456788 0 -1
-3.6893718242645264 4.476710319519043 -1.6149177551269531 4456788 0 -1
-3.669940233230591 4.73018217086792 -0.6459670662879944 4456788 0 -1
-3.4942002296447754 4.877840042114258 -0.5075455904006958 4456788 0 -1
-4.3121795654296875 4.153094291687012 -0.6459670662879944 4523353 0 -1
-3.8278627395629883 4.644756317138672 0.18456202745437622 4523353 0 -1
-3.4236679077148438 4.8754801750183105 -0.8766696453094482 4523353 0 -1
-3.679572582244873 4.742597579956055 -0.7886285185813904 4456788 0 -1
-3.4591665267944336 4.926032066345215 -0.6494588255882263 4456788 0 -1
-2.203187942504883 5.70719575881958 0.1406661868095398 2468738 4 -1
-2.1680996417999268 5.756368637084961 0.09427627921104431 2468738 4 -1
-2.1683542728424072 5.757044792175293 0 2994813 4 -1
-2.120967149734497 5.773901462554932 -0.09427627921104431 3651704 4 -1
-2.0848071575164795 5.821637153625488 0.09477509558200836 2070922 4 -1
-2.132439613342285 5.805132865905762 0 2139270 4 -1
-2.1323769092559814 5.804962158203125 0.04738754779100418 2468738 4 -1
-2.1321892738342285 5.804450988769531 0.09477509558200836 3651704 4 -1
-2.1321892738342285 5.804450988769531 0.09477509558200836 4045940 4 -1
-2.179251194000244 5.785975933074951 -0.14216263592243195 6343264 4 -1
-2.130873918533325 5.800870895385742 -0.2369377315044403 6933851 4 -1
-2.0957798957824707 5.852277755737305 0.09527391195297241 3107982 4 -1
-2.237884998321533 5.7970757484436035 0.19054782390594482 2070155 4 -1
-2.0957798957824707 5.852277755737305 0.09527391195297241 2070922 4 -1
-2.142655849456787 5.832944393157959 0.19054782390594482 2139270 4 -1
-2.143096446990967 5.834144115447998 0.14291086792945862 2468738 4 -1
-2.1420891284942627 5.831401824951172 0.23818477988243103 3651704 4 -1
-2.094487190246582 5.848667621612549 0.23818477988243103 4899181 4 -1
-2.1912355422973633 5.817795276641846 0.047636955976486206 6343264 4 -1
-2.284895181655884 5.776940822601318 0.23818477988243103 8705099 4 -1
-2.094487190246582 5.848667621612549 0.23818477988243103 8705099 4 -1
-2.143411159515381 5.835000991821289 0.09527391195297241 9360965 4 -1
-2.1435999870300293 5.835515022277832 0.047636955976486206 11197490 4 -1
-2.095041275024414 5.850214958190918 0.19054782390594482 12640037 4 -1
-2.1889829635620117 5.811814308166504 0.28582173585891724 13164576 4 -1
-2.294222831726074 5.8005242347717285 -0.38309091329574585 4341894 4 -1
-2.010282278060913 5.914251804351807 0.19154545664787292 3107982 4 -1
-2.0581462383270264 5.89776611328125 -0.19154545664787292 2782862 4 -1
-2.0591135025024414 5.900538444519043 0 2328718 4 -1
-2.1060101985931396 5.880844593048096 -0.19154545664787292 2264205 4 -1
-2.1543169021606445 5.864689350128174 0.1436590850353241 2070922 4 -1
-2.1047720909118652 5.877387523651123 0.2873181700706482 2139270 4 -1
-2.153873920440674 5.863483428955078 0.19154545664787292 2468738 4 -1
-2.1047720909118652 5.877387523651123 0.2873181700706482 4505456 4 -1
-2.2474193572998047 5.821773529052734 0.335204541683197 5949540 4 -1
-2.2496016025543213 5.827426910400391 0.19154545664787292 7589974 4 -1
-2.0581462383270264 5.89776611328125 0.19154545664787292 7589974 4 -1
-2.249006748199463 5.82588529586792 0.23943181335926056 8705099 4 -1
-2.249006748199463 5.82588529586792 0.23943181335926056 8705099 4 -1
-2.1533043384552 5.861932754516602 0.23943181335926056 9360965 4 -1
-2.2500643730163574 5.828625202178955 0.1436590850353241 11197490 4 -1
-2.1060101985931396 5.880844593048096 0.19154545664787292 12640037 4 -1
-2.1638193130493164 5.890557765960693 -0.28881463408470154 4728182 4 -1
-2.1597414016723633 5.879456520080566 -0.48135772347450256 4471684 4 -1
-2.0610697269439697 5.906143665313721 -0.5776292681694031 4341894 4 -1
-2.1584017276763916 5.875809192657471 -0.529493510723114 4017546 4 -1
-2.0610697269439697 5.906143665313721 -0.5776292681694031 3757452 4 -1
-2.0624728202819824 5.910163879394531 -0.529493510723114 2977934 4 -1
-2.0668585300445557 5.922732353210449 -0.3369503915309906 2782862 4 -1
-2.069291114807129 5.9297027587890625 -0.14440731704235077 2328718 4 -1
-2.069291114807129 5.9297027587890625 -0.14440731704235077 2264205 4 -1
-2.1658554077148438 5.8961005210876465 -0.09627154469490051 2199437 4 -1
-2.2141804695129395 5.878714561462402 0.048135772347450256 2072968 4 -1
-2.2126197814941406 5.874570846557617 0.24067886173725128 2468738 4 -1
-2.1164190769195557 5.909910202026367 0.24067886173725128 3651704 4 -1
-2.1149251461029053 5.905738830566406 0.3369503915309906 4505456 4 -1
-2.1609528064727783 5.882754325866699 0.4332219362258911 5424489 4 -1
-2.2100813388824463 5.867831230163574 0.38508617877960205 5949540 4 -1
-2.2617833614349365 5.858982563018799 0.14440731704235077 7589974 4 -1
-2.2126197814941406 5.874570846557617 0.24067886173725128 8705099 4 -1
-2.213660478591919 5.877333641052246 0.14440731704235077 11197490 4 -1
-2.069291114807129 5.9297027587890625 0.14440731704235077 11197490 4 -1
-2.0214650630950928 5.947151184082031 0.09627154469490051 12640037 4 -1
-2.3037242889404297 5.824546813964844 0.48135772347450256 13164576 4 -1
-2.116978883743286 5.911473751068115 0.19254308938980103 13164576 4 -1
-2.216289520263672 5.884314060211182 -0.580622136592865 4728182 4 -1
-2.023568630218506 5.95334005355835 -0.580622136592865 4728182 4 -1
-2.170931816101074 5.909919738769531 -0.4838517904281616 4017546 4 -1
-2.1249442100524902 5.933716297149658 -0.38708144426345825 3757452 4 -1
-2.220419406890869 5.895279407501221 -0.43546661734580994 3692940 4 -1
-2.027339458465576 5.9644341468811035 -0.43546661734580994 3107982 4 -1
-2.1238794326782227 5.930743217468262 -0.43546661734580994 2977934 4 -1
-2.032177448272705 5.978667736053467 0 2264205 4 -1
-2.4186196327209473 5.831244945526123 0.14515553414821625 2006409 4 -1
-2.2735025882720947 5.889339923858643 0.14515553414821625 2666112 4 -1
-2.128885507583618 5.944721698760986 0.04838518053293228 2994813 4 -1
-2.1695852279663086 5.906253814697266 0.5322369933128357 5424489 4 -1
-2.1279478073120117 5.942103385925293 0.19354072213172913 8705099 4 -1
-2.1279478073120117 5.942103385925293 0.19354072213172913 8705099 4 -1
-2.0775678157806396 5.9534196853637695 0.33869627118110657 10016830 4 -1
-2.1258833408355713 5.936338424682617 0.33869627118110657 10672695 4 -1
-2.0766501426696777 5.9507904052734375 0.38708144426345825 11197490 4 -1
-2.127384901046753 5.9405317306518555 0.2419258952140808 13164576 4 -1
-2.2181293964385986 5.889199256896973 -0.8267880082130432 4523353 4 -1
-2.0208895206451416 5.945457935333252 -0.9240571856498718 4523353 4 -1
-2.0755112171173096 5.947526931762695 -0.7781534194946289 4590430 4 -1
-2.0755112171173096 5.947526931762695 -0.7781534194946289 4657508 4 -1
-2.1194703578948975 5.918430805206299 -0.8754225969314575 4724328 4 -1
-2.2260642051696777 5.910265922546387 -0.632249653339386 4728182 4 -1
-2.035383939743042 5.988101005554199 -0.5349804759025574 4728182 4 -1
-2.182122230529785 5.940383434295654 -0.48634588718414307 4017546 4 -1
-2.1348273754119873 5.9613142013549805 -0.43771129846572876 3757452 4 -1
-2.2292301654815674 5.918671607971191 -0.5349804759025574 3692940 4 -1
-2.035383939743042 5.988101005554199 -0.5349804759025574 3692940 4 -1
-2.0416929721832275 6.006661891937256 -0.19453835487365723 2588302 4 -1
-2.0397121906280518 6.000834941864014 0.34044212102890015 2199437 4 -1
-2.138916492462158 5.9727325439453125 -0.19453835487365723 2134668 4 -1
-1.882440447807312 6.011425971984863 -0.7781534194946289 2134668 4 -1
-2.042412757873535 6.008779525756836 0.09726917743682861 2070155 4 -1
-2.281527042388916 5.910126686096191 0.38907670974731445 2468738 4 -1
-2.331991672515869 5.8960161209106445 0.29180753231048584 2666112 4 -1
-2.331991672515869 5.8960161209106445 0.29180753231048584 3257723 4 -1
-2.2791054248809814 5.903853893280029 0.48634588718414307 8705099 4 -1
-2.0882768630981445 5.984107494354248 0.34044212102890015 8705099 4 -1
-2.185405969619751 5.9493231773376465 0.34044212102890015 10016830 4 -1
-2.086308479309082 5.9784674644470215 0.43771129846572876 11197490 4 -1
-2.0404927730560303 6.003130912780762 0.29180753231048584 13164576 4 -1
-2.1870858669281006 5.953896522521973 -0.6843759417533875 4728182 4 -1
-1.9942755699157715 6.026575565338135 -0.6354919672012329 4728182 4 -1
-2.19454288482666 5.974195957183838 -0.4399559497833252 3757452 4 -1
-2.239137887954712 5.944976806640625 -0.5866079330444336 3692940 4 -1
-2.0458219051361084 6.0188093185424805 -0.537723958492279 3692940 4 -1
-2.1888389587402344 5.9586687088012695 -0.6354919672012329 3238030 4 -1
-1.9971117973327637 6.035146713256836 -0.537723958492279 3238030 4 -1
-2.050956964492798 6.033916473388672 -0.2933039665222168 2588302 4 -1
-2.0531277656555176 6.0403032302856445 0 2199437 4 -1
-2.1991984844207764 5.986870288848877 -0.1466519832611084 2134668 4 -1
-2.053067445755005 6.040125846862793 0.04888399690389633 2070155 4 -1
-2.196613311767578 5.979832172393799 -0.3421879708766937 2070922 4 -1
-2.0040085315704346 6.05598783493042 -0.09776799380779266 2070922 4 -1
-2.3408455848693848 5.918401718139648 0.4399559497833252 2666112 4 -1
-2.3447091579437256 5.9281697273254395 0.24441997706890106 3257723 4 -1
-1.9971117973327637 6.035146713256836 0.537723958492279 5949540 4 -1
-2.196613311767578 5.979832172393799 0.3421879708766937 8705099 4 -1
-2.196613311767578 5.979832172393799 0.3421879708766937 9360965 4 -1
-2.346362829208374 5.932351112365723 0.04888399690389633 10016830 4 -1
-2.147799491882324 5.997538089752197 0.3421879708766937 11197490 4 -1
-2.0033020973205566 6.053853511810303 0.19553598761558533 11918891 4 -1
-2.199521541595459 5.9877495765686035 -0.09776799380779266 12640037 4 -1
-2.206845283508301 6.007687091827393 -0.39306724071502686 4728182 4 -1
-2.206845283508301 6.007687091827393 -0.39306724071502686 4728182 4 -1
-2.0597221851348877 6.059703826904297 -0.39306724071502686 2588302 4 -1
-2.1616158485412598 6.036118984222412 -0.09826681017875671 2264205 4 -1
-2.258477210998535 5.996323585510254 -0.24566702544689178 2199437 4 -1
-2.0633606910705566 6.070408344268799 -0.09826681017875671 2199437 4 -1
-2.407466173171997 5.94295072555542 -0.04913340508937836 2134668 4 -1
-2.161806344985962 6.036650657653809 0.04913340508937836 2134668 4 -1
-2.112736463546753 6.054198265075684 0 2070155 4 -1
-2.058690071105957 6.056667804718018 0.442200630903244 5949540 4 -1
-2.208665370941162 6.012641429901123 0.29480043053627014 6933851 4 -1
-2.159583806991577 6.030444622039795 0.29480043053627014 7589974 4 -1
-2.207820415496826 6.010341644287109 0.3439338207244873 8705099 4 -1
-2.1567230224609375 6.02245569229126 0.442200630903244 9360965 4 -1
-2.304927110671997 5.970743656158447 0.39306724071502686 10016830 4 -1
-2.2534918785095215 5.983087539672852 0.49133405089378357 10672695 4 -1
-2.1527113914489746 6.011253833770752 0.5896008610725403 11197490 4 -1
-1.8555938005447388 5.762819290161133 -2.112736463546753 11197490 0 -1
-2.123398542404175 6.084751605987549 0.04938281327486038 2070155 4 -1
-2.3700966835021973 5.99235725402832 0.09876562654972076 3651704 4 -1
-2.1228997707366943 6.083322048187256 -0.14814843237400055 4505456 4 -1
-2.117218017578125 6.06704044342041 0.4938281178474426 9360965 4 -1
-2.316627264022827 6.001051902770996 0.39506250619888306 10016830 4 -1
-2.316627264022827 6.001051902770996 0.39506250619888306 10016830 4 -1
-2.2649309635162354 6.013458251953125 0.4938281178474426 10672695 4 -1
-2.222226619720459 6.049559593200684 0 12640037 4 -1
-1.580331802368164 6.248384952545166 -0.6452188491821289 4456788 0 -1
-2.0707385540008545 6.092114448547363 -0.7444832921028137 4728182 4 -1
-2.133934736251831 6.114943981170654 0.09926444292068481 2070155 4 -1
-2.1291046142578125 6.101102352142334 -0.44668999314308167 2006409 4 -1
-2.1673436164855957 6.052113056182861 -0.7941155433654785 2072968 4 -1
-2.4316933155059814 6.002756595611572 0.09926444292068481 3651704 4 -1
-2.083573818206787 6.129875659942627 0.19852888584136963 8705099 4 -1
-2.0707385540008545 6.092114448547363 0.7444832921028137 9360965 4 -1
-1.8824775218963623 6.185037612915039 0.39705777168273926 9360965 4 -1
-2.1265909671783447 6.093899726867676 0.5459544062614441 10016830 4 -1
-2.22688364982605 6.06223726272583 0.4963222146034241 11197490 4 -1
-2.2292497158050537 6.068678855895996 0.39705777168273926 11918891 4 -1
-2.233449935913086 6.080112934112549 0 12640037 4 -1
-2.247347354888916 5.966773509979248 -1.1415411233901978 13164576 0 -1
-2.0722367763519287 5.786535739898682 -2.1449100971221924 4456788 0 -1
-2.0722367763519287 5.786535739898682 -2.1449100971221924 4456788 0 -1
-2.1924707889556885 6.122278690338135 -0.2992897629737854 2977934 4 -1
-2.0934903621673584 6.1590495109558105 0.24940814077854156 2070922 4 -1
-2.4439127445220947 6.032920837402344 0.09976325929164886 3651704 4 -1
-2.279083490371704 5.762247085571289 -1.9952651262283325 4045940 0 -1
-2.243025302886963 6.106179714202881 0.24940814077854156 6933851 4 -1
-2.441615343093872 6.027249813079834 0.2992897629737854 7589974 4 -1
-2.2813141345977783 6.0569562911987305 0.6983428001403809 11197490 4 -1
-2.0422027111053467 6.171408653259277 0.34917140007019043 11197490 4 -1
-2.390871524810791 6.0448832511901855 0.34917140007019043 12640037 4 -1
-2.390871524810791 6.0448832511901855 0.34917140007019043 12640037 4 -1
-2.287808895111084 6.07420015335083 0.49881628155708313 13164576 4 -1
-2.1550650596618652 6.1754937171936035 -0.15039311349391937 3107982 4 -1
-2.3057568073272705 6.121852397918701 -0.10026207566261292 2468738 4 -1
-2.4546172618865967 6.059345722198486 0.2506551742553711 6933851 4 -1
-2.2526493072509766 6.132379055023193 0.350917249917984 6933851 4 -1
-2.127544403076172 6.0966315269470215 1.0527517795562744 8705099 0 -1
-2.3405442237854004 6.063006401062012 0.7519655227661133 9360965 4 -1
-1.9481532573699951 6.221274375915527 0.5514414310455322 11918891 4 -1
-2.1393730640411377 6.130527496337891 -0.8020966053009033 12640037 4 -1
-2.1393730640411377 6.130527496337891 -0.8020966053009033 12640037 4 -1
-2.2025904655456543 6.15053653717041 0.350917249917984 13164576 4 -1
-2.1159164905548096 6.225027561187744 -0.05038044601678848 3107982 4 -1
-2.367811441421509 6.133640289306641 -0.05038044601678848 2468738 4 -1
-2.0630764961242676 6.069572448730469 -1.4610328674316406 8180304 0 -1
-2.1520023345947266 6.166717529296875 0.7557066679000854 8705099 4 -1
-2.1500167846679688 6.161027908325195 0.8060871362686157 9360965 4 -1
-2.1263914108276367 6.255844593048096 0.05062985420227051 4456788 4 -1
-2.378974199295044 6.162557125091553 -0.15188956260681152 2199437 4 -1
-2.379533290863037 6.164004802703857 0.05062985420227051 2070922 4 -1
-2.430161476135254 6.14422082901001 0.05062985420227051 4899181 4 -1
-2.1662557125091553 6.207561492919922 0.6581881046295166 8705099 4 -1
-2.1606605052948 6.191527843475342 0.8100776672363281 9360965 4 -1
-2.198683977127075 6.1396284103393555 1.0632269382476807 10016830 0 -1
-2.441917657852173 6.173943996429443 -0.10175852477550507 2199437 4 -1
-2.4930837154388428 6.15430212020874 0 2134668 4 -1
-2.126300811767578 6.25557804107666 0.6614304184913635 8705099 4 -1
-2.1691675186157227 6.21590518951416 0.8649474382400513 9360965 4 -1
-3.7700579166412354 5.4767303466796875 -0.562415361404419 4456788 0 -1
-3.767493486404419 5.4730048179626465 -0.6135440468788147 4456788 0 -1
-3.7795207500457764 5.490477085113525 -0.30677202343940735 4456788 0 -1
-3.9312403202056885 5.3797287940979 0.3579006791114807 4523353 0 -1
-3.9312403202056885 5.3797287940979 0.3579006791114807 4523353 0 -1
-2.4027652740478516 6.224185466766357 0.10225734114646912 2134668 4 -1
-3.794827699661255 5.512713432312012 -0.41102463006973267 4456788 0 -1
-3.7452006340026855 5.550116539001465 -0.3596465289592743 4456788 0 -1
-3.7965047359466553 5.5151495933532715 -0.3596465289592743 4523353 0 -1
-3.816394329071045 5.544042587280273 -0.30976492166519165 4456788 0 -1
-3.9218454360961914 5.474824905395508 -0.20650994777679443 4456788 0 -1
-3.761718988418579 5.5745954513549805 -0.41301989555358887 4456788 0 -1
-3.9143476486206055 5.464358329772949 -0.4646473824977875 7589974 0 -1
-5.6996073722839355 3.6388721466064453 -1.3747376203536987 5424489 0 -1
-5.442447185516357 3.6921513080596924 -2.295053720474243 3757452 0 -1
-5.692488670349121 3.86177921295166 -1.2869460582733154 10016830 0 -1
-5.666012287139893 3.9566733837127686 -1.2929317951202393 10016830 0 -1
-4.487237453460693 5.783596038818359 0.22446732223033905 4456788 0 -1
-5.009374141693115 5.372520923614502 -0.3945636749267578 4456788 0 -1
-4.557079315185547 5.7570109367370605 0.4509299099445343 4456788 0 -1
-4.507180690765381 5.809300899505615 0.22546495497226715 4456788 0 -1
-6.366392612457275 3.6785454750061035 -0.22546495497226715 4523353 0 -1
-4.953088760375977 5.424455642700195 -0.3945636749267578 4523353 0 -1
-4.496042251586914 5.7949442863464355 0.5636624097824097 4523353 0 -1
-4.557079315185547 5.7570109367370605 0.4509299099445343 4590430 0 -1
-4.57926607131958 5.785039901733398 0.3963095247745514 4456788 0 -1
-4.529252052307129 5.837748050689697 0 4456788 0 -1
-4.513134956359863 5.816975116729736 0.6227721571922302 4523353 0 -1
-4.577243328094482 5.782484531402588 0.4529251754283905 4590430 0 -1
-4.548670291900635 5.862776756286621 -0.11373011022806168 4456788 0 -1
-4.538374423980713 5.84950590133667 0.5117855072021484 4523353 0 -1
-4.510850429534912 5.9314866065979 -0.1713433861732483 4456788 0 -1
-4.683248519897461 5.798584461212158 0.05711446329951286 4523353 0 -1
-4.472280025482178 5.999335289001465 -0.22945548593997955 4456788 0 -1
-6.3854193687438965 3.9484455585479736 -1.283953070640564 2072968 0 -1
-1.8379241228103638 7.0323357582092285 2.2760987281799316 2072968 0 -1
-6.434179306030273 3.848618507385254 -1.342314600944519 2139270 0 -1
-1.8633068799972534 7.129456520080566 2.051382064819336 2006409 0 -1
-6.3948564529418945 3.9542810916900635 -1.406661868095398 2072968 0 -1
-6.452467918395996 3.859557867050171 -1.406661868095398 2139270 0 -1
-6.403982162475586 3.9599239826202393 -1.3480509519577026 2468738 0 -1
-6.611311912536621 3.5471956729888916 -1.648089051246643 2134668 0 -1
-6.4220685958862305 3.9711077213287354 -1.4126477241516113 2072968 0 -1
-6.537781715393066 3.7775752544403076 -1.4126477241516113 2139270 0 -1
-6.498013496398926 3.88680100440979 -1.2949271202087402 2468738 0 -1
-6.498013496398926 3.88680100440979 -1.2949271202087402 2468738 0 -1
-2.2630650997161865 7.028281211853027 2.118971586227417 2468738 0 -1
-6.479925155639648 3.875981569290161 -1.4126477241516113 2666112 0 -1
-6.639326095581055 3.5622260570526123 -1.6550724506378174 2134668 0 -1
-6.507382392883301 3.8924052715301514 -1.4186334609985352 2468738 0 -1
-6.4296555519104 3.975799083709717 -1.5368529558181763 2666112 0 -1
-6.224246501922607 4.222523212432861 -1.7141821384429932 2666112 0 -1
-1.9055159091949463 7.061633110046387 2.552443027496338 2468738 0 -1
-2.3668594360351562 6.963302135467529 2.4337246417999268 2666112 0 -1
-6.462471961975098 3.996091365814209 -1.669039249420166 2006409 0 -1
-1.588711142539978 7.232488632202148 2.3843417167663574 2006409 0 -1
-2.3380556106567383 7.065457344055176 2.265124797821045 2468738 0 -1
-1.8519134521484375 7.085862159729004 2.6227760314941406 2468738 0 -1
-6.369132995605469 4.32081413269043 -1.1325623989105225 2666112 0 -1
-6.334889888763428 4.171202182769775 -1.7286478281021118 3257723 0 -1
-6.582814693450928 3.803595781326294 -1.7957385778427124 2006409 0 -1
-6.468925952911377 4.259458065032959 -1.017585277557373 2666112 0 -1
-2.456277847290039 7.038640975952148 2.3344602584838867 2994813 0 -1
-6.393727779388428 4.209943771362305 -1.5563068389892578 3257723 0 -1
-2.4636380672454834 7.248024940490723 1.5563068389892578 3651704 0 -1
-6.511043548583984 4.026125907897949 -1.5563068389892578 4045940 0 -1
-6.43996524810791 4.240388870239258 -1.4425766468048096 3257723 0 -1
-4.453300952911377 6.732452869415283 0.06185321882367134 4456788 0 -1
-4.470207691192627 6.758012294769287 0.1863078773021698 4456788 0 -1
-4.5699052810668945 6.772269248962402 0 4456788 0 -1
-4.5771894454956055 6.7830634117126465 -0.5656576752662659 4456788 0 -1
-4.5240654945373535 6.8394341468811035 -0.18855255842208862 4456788 0 -1
3.2134807109832764 7.569283485412598 0.44170182943344116 4456788 5 -1
3.2120614051818848 7.565939903259277 0.5048021078109741 4456788 5 -1
3.2134807109832764 7.569283485412598 0.44170182943344116 4456788 5 -1
3.2147104740142822 7.572179794311523 0.3786015510559082 4456788 5 -1
-4.541084289550781 6.8651628494262695 -0.25240105390548706 4456788 0 -1
3.226182222366333 7.599201679229736 0.44344767928123474 4456788 5 -1
3.2231414318084717 7.592039108276367 0.5701470375061035 4456788 5 -1
3.2231414318084717 7.592039108276367 0.5701470375061035 4456788 5 -1
3.224757194519043 7.595844745635986 0.5067973732948303 4456788 5 -1
3.2284610271453857 7.604569435119629 0.31674835085868835 4456788 5 -1
3.224757194519043 7.595844745635986 0.5067973732948303 4456788 5 -1
3.3047239780426025 7.607214450836182 0.3179953694343567 4456788 5 -1
3.3047239780426025 7.607214450836182 0.3179953694343567 4456788 5 -1
3.2340168952941895 7.617656230926514 0.6359907388687134 4456788 5 -1
3.2388837337493896 7.629119873046875 0.4451935291290283 4456788 5 -1
3.1791136264801025 7.664781093597412 0.19079722464084625 4456788 5 -1
3.176591396331787 7.658699989318848 0.3815944492816925 4456788 5 -1
3.299278736114502 7.594679832458496 0.5723916888237 4456788 5 -1
2.874023199081421 7.266444206237793 -2.7983593940734863 4456788 0 -1
3.2931418418884277 7.5805535316467285 0.763188898563385 4456788 0 -1
3.246699333190918 7.647529125213623 0.6384848356246948 4456788 5 -1
3.190080404281616 7.691221714019775 0.3192424178123474 4456788 5 -1
3.2485203742980957 7.651818752288818 0.5746363401412964 4456788 5 -1
3.3803915977478027 7.606551170349121 0.38309091329574585 4456788 5 -1
3.1240720748901367 7.711928367614746 0.4469393789768219 4456788 5 -1
3.3671391010284424 7.576730728149414 0.8300303220748901 4456788 0 -1
3.0864553451538086 7.270078182220459 -2.756209373474121 4456788 0 -1
3.1988675594329834 7.71240758895874 0.5127831101417542 4456788 5 -1
3.3326990604400635 7.6716108322143555 0.12819577753543854 4456788 5 -1
2.942958116531372 7.813640594482422 0.5127831101417542 4456788 5 -1
3.266592502593994 7.694386959075928 0.32048946619033813 4456788 5 -1
3.0709128379821777 7.7642436027526855 0.5127831101417542 4456788 5 -1
3.0094153881073 7.795668125152588 0.3845873475074768 4456788 5 -1
3.0186357498168945 7.819552421569824 -0.5147783756256104 4456788 5 -1
3.085404396057129 7.800882816314697 -0.38608381152153015 4456788 5 -1
3.048421859741211 7.70737886428833 1.3512933254241943 4456788 0 -1
3.0115113258361816 7.8010969161987305 0.7721676230430603 4456788 5 -1
3.280170440673828 7.726369857788086 0.2573891878128052 4456788 5 -1
3.023967981338501 7.833365440368652 0.1286945939064026 4456788 5 -1
3.021125316619873 7.8260016441345215 0.38608381152153015 4456788 5 -1
2.956845998764038 7.850513458251953 0.38608381152153015 4456788 5 -1
3.0221028327941895 7.82853364944458 0.32173651456832886 4456788 5 -1
2.9596283435821533 7.857900142669678 0.1286945939064026 4456788 5 -1
3.0303359031677246 7.849860668182373 -0.5167736411094666 4456788 5 -1
3.0973634719848633 7.831119060516357 -0.3875802457332611 4456788 5 -1
3.157703161239624 7.794948577880859 0.5813703536987305 4456788 5 -1
3.1592862606048584 7.798856258392334 0.5167736411094666 4456788 5 -1
3.0209453105926514 7.825535297393799 0.8397572040557861 4456788 5 -1
3.2935616970062256 7.7579121589660645 0.19379012286663055 4456788 5 -1
3.035688877105713 7.86372709274292 -0.12919341027736664 4456788 5 -1
3.035243034362793 7.86257266998291 0.19379012286663055 4456788 5 -1
3.0359561443328857 7.864419937133789 0.06459670513868332 4456788 5 -1
2.8849234580993652 7.853617191314697 1.033547282218933 4456788 0 -1
3.0288174152374268 7.8459272384643555 0.5813703536987305 4456788 5 -1
3.0420358180999756 7.880168914794922 -0.5187689065933228 4456788 5 -1
3.0420358180999756 7.880168914794922 -0.5187689065933228 4456788 5 -1
3.101818799972534 7.478425025939941 -2.4641523361206055 4456788 0 -1
3.0698158740997314 7.401266574859619 -2.723536968231201 4456788 0 -1
3.10520339012146 7.850941181182861 0.5836150646209717 4456788 5 -1
3.0369222164154053 7.866922378540039 0.71330726146698 4456788 5 -1
3.305598258972168 7.786263942718506 0.2593844532966614 4456788 5 -1
3.047767400741577 7.895016193389893 0 4456788 5 -1
2.8160486221313477 7.863563060760498 1.3617684841156006 4456788 0 -1
3.0860931873321533 7.802624225616455 1.1023839712142944 4456788 0 -1
3.0433802604675293 7.883651256561279 0.4539228081703186 4456788 5 -1
2.9206864833831787 7.950974941253662 -0.6509552597999573 4456788 5 -1
2.9206864833831787 7.950974941253662 -0.6509552597999573 4456788 5 -1
3.113466501235962 7.871832847595215 -0.7160508036613464 4456788 5 -1
3.124218225479126 7.899016380310059 0.13019104301929474 4456788 5 -1
3.2382988929748535 7.454309463500977 -2.473629951477051 4456788 0 -1
3.0465288162231445 7.891807556152344 0.7811462879180908 4456788 5 -1
2.985590696334839 7.9268317222595215 0.6509552597999573 4456788 5 -1
3.317434310913086 7.814144134521484 0.32547762989997864 4456788 5 -1
2.6965692043304443 7.727212905883789 -2.278343439102173 4456788 0 -1
3.046466588973999 7.7024359703063965 -1.887770175933838 4456788 0 -1
3.0593998432159424 7.925148963928223 0.06509552150964737 4456788 5 -1
2.8303701877593994 7.903555393218994 1.3019105195999146 4456788 0 -1
3.121281385421753 7.8915910720825195 0.3905731439590454 4456788 5 -1
3.1113486289978027 7.866477966308594 0.7811462879180908 4456788 5 -1
2.988762855529785 7.935253620147705 0.520764172077179 4456788 5 -1
3.317434310913086 7.814144134521484 -0.32547762989997864 4456788 5 -1
2.9909169673919678 7.940972805023193 -0.8494841456413269 4456788 0 -1
3.005513906478882 7.9797282218933105 -0.1306898593902588 4456788 5 -1
3.0689570903778076 7.949906349182129 0.32672467827796936 4456788 5 -1
3.20190167427063 7.904054641723633 0 4456788 5 -1
2.9404356479644775 8.004737854003906 0.0653449296951294 4456788 5 -1
3.2015256881713867 7.9031267166137695 0.1306898593902588 4456788 5 -1
3.1364645957946777 7.92997932434082 0.0653449296951294 4456788 5 -1
3.133240222930908 7.9218268394470215 0.39206960797309875 4456788 5 -1
3.1306581497192383 7.915298938751221 0.5227594375610352 4456788 5 -1
3.134253978729248 7.9243903160095215 -0.32672467827796936 4456788 5 -1
3.13655686378479 7.930212497711182 0 4456788 5 -1
3.1350831985473633 7.926486492156982 0.2613797187805176 4456788 5 -1
3.058201313018799 7.922044277191162 0.7841392159461975 4456788 5 -1
3.332200288772583 7.84892463684082 -0.1306898593902588 4456788 5 -1
3.264847993850708 7.871484756469727 -0.32672467827796936 4456788 5 -1
3.263791799545288 7.86893892288208 -0.39206960797309875 4456788 5 -1
3.078496217727661 7.974616527557373 -0.45916038751602173 4456788 5 -1
3.075594425201416 7.967100143432617 -0.5903490781784058 4456788 5 -1
3.0821194648742676 7.984002590179443 -0.19678302109241486 4456788 5 -1
3.0169854164123535 8.010185241699219 -0.13118867576122284 4456788 5 -1
3.0101563930511475 7.992053985595703 0.5903490781784058 4456788 5 -1
2.9516587257385254 8.035289764404297 0.06559433788061142 4456788 5 -1
3.279331922531128 7.906405448913574 -0.13118867576122284 4456788 5 -1
3.148158550262451 7.959545612335205 0.13118867576122284 4456788 5 -1
3.0151243209838867 8.005244255065918 0.3279716968536377 4456788 5 -1
3.1485283374786377 7.960480213165283 0 4456788 5 -1
2.9945778846740723 7.950692653656006 1.0495094060897827 4456788 0 -1
3.2117629051208496 7.9283976554870605 -0.3279716968536377 4456788 5 -1
3.3417742252349854 7.871475696563721 -0.3935660421848297 4456788 5 -1
3.143996000289917 7.949021339416504 -0.45916038751602173 4456788 5 -1
