VERSION .7
FIELDS x y z rgb label object
SIZE 4 4 4 4 4 4
TYPE F F F I I I
COUNT 1 1 1 1 1 1
WIDTH 679
HEIGHT 1
POINTS 679
VIEWPOINT 0 0 0 1 0 0 0
DATA ascii
-1.5242459774017334 2.2142586708068848 -0.26911139488220215 4456788 0 -1
-1.5377275943756104 2.1898036003112793 -0.3726157546043396 4456788 0 -1
-1.5377275943756104 2.1898036003112793 -0.3726157546043396 4456788 0 -1
-1.6323702335357666 2.1039602756500244 -0.45541927218437195 4456788 0 -1
-1.595595359802246 2.1404097080230713 -0.41401752829551697 4456788 0 -1
-1.566782832145691 2.144073009490967 -0.49682101607322693 4456788 0 -1
-1.5819430351257324 2.1648192405700684 -0.3312140107154846 4523353 0 -1
-1.5871306657791138 2.1290547847747803 -0.49682101607322693 4590430 0 -1
-1.597464919090271 2.1429176330566406 -0.3933166265487671 4657508 0 -1
-1.591560959815979 2.134997844696045 -0.45541927218437195 4724328 0 -1
-1.63448965549469 2.10669207572937 -0.43471840023994446 4471684 0 -1
-1.3863071203231812 2.3173227310180664 -0.08280350267887115 4471684 0 -1
-1.6197397708892822 2.129856586456299 -0.3726157546043396 2139270 0 -1
-1.5011491775512695 2.2245945930480957 -0.31051313877105713 2139270 0 -1
-0.7425508499145508 2.511672019958496 -0.6624280214309692 7589974 0 -1
0.4510667622089386 2.637495994567871 -0.3726157546043396 7589974 0 -1
-1.571473240852356 2.1937479972839355 -0.4399559497833252 4456788 0 -1
-1.658165693283081 2.1372082233428955 -0.39805540442466736 4456788 0 -1
-1.6726877689361572 2.113125801086426 -0.4609062373638153 4456788 0 -1
-1.5562543869018555 2.216186761856079 -0.37710511684417725 4456788 0 -1
-1.6392546892166138 2.155517578125 -0.37710511684417725 4456788 0 -1
-1.6244217157363892 2.1360132694244385 -0.5237571001052856 4456788 0 -1
-1.649789571762085 2.1264121532440186 -0.4818565249443054 4456788 0 -1
-1.6128277778625488 2.1635260581970215 -0.4399559497833252 4456788 0 -1
-1.58792245388031 2.173001766204834 -0.4818565249443054 4456788 0 -1
-1.5959844589233398 2.1840341091156006 -0.39805540442466736 4523353 0 -1
-1.606252670288086 2.1547060012817383 -0.5028068423271179 4590430 0 -1
-1.61073637008667 2.1607205867767334 -0.4609062373638153 4657508 0 -1
-1.658165693283081 2.1372082233428955 -0.39805540442466736 4471684 0 -1
-1.8858861923217773 2.0226006507873535 -0.08479876816272736 4456788 0 -1
-1.645351767539978 2.207155466079712 0.2755959928035736 4456788 0 -1
-1.4795078039169312 2.2818539142608643 0.5087926387786865 4456788 0 -1
-1.8443732261657715 2.062270164489746 0 4456788 0 -1
-1.801973819732666 2.099419116973877 0 4456788 0 -1
-1.6861886978149414 2.1733269691467285 0.29679569602012634 4456788 0 -1
-1.5502463579177856 2.2520294189453125 0.423993855714798 4456788 0 -1
-1.8858861923217773 2.0226006507873535 -0.08479876816272736 4456788 0 -1
-1.645351767539978 2.207155466079712 0.2755959928035736 4456788 0 -1
-1.8443191051483154 2.0622096061706543 0.02119969204068184 4456788 0 -1
-1.8231199979782104 2.0809743404388428 0.02119969204068184 4456788 0 -1
-1.585958480834961 2.2139692306518555 -0.4875929057598114 4456788 0 -1
-1.8231735229492188 2.081035614013672 0 4523353 0 -1
-1.8424229621887207 2.060089349746704 0.12719815969467163 4657508 0 -1
-1.9052257537841797 2.0006906986236572 -0.14839784801006317 4471684 0 -1
-1.6440340280532837 2.205387592315674 0.29679569602012634 4471684 0 -1
-1.886551022529602 2.023313522338867 -0.04239938408136368 4147337 0 -1
-1.8441566228866577 2.062027931213379 0.04239938408136368 3757452 0 -1
-2.4428670406341553 1.2593450546264648 -0.3179953694343567 2006409 0 -1
-1.8646963834762573 2.0421524047851562 -0.08479876816272736 2006409 0 -1
-0.14518727362155914 2.702953815460205 0.5723916888237 2006409 0 -1
-0.0417926125228405 2.7267932891845703 0.46639323234558105 2006409 0 -1
-2.6141560077667236 0.5199145078659058 -0.7419891953468323 2006409 0 -1
-1.8658525943756104 2.086287021636963 -0.04289820045232773 4456788 0 -1
-1.8223170042037964 2.1231203079223633 -0.08579640090465546 4456788 0 -1
-1.8872991800308228 2.066906213760376 -0.04289820045232773 4456788 0 -1
-1.8446226119995117 2.105518341064453 0 4456788 0 -1
-1.844406008720398 2.105271100997925 -0.04289820045232773 4456788 0 -1
-1.8445684909820557 2.1054563522338867 -0.021449100226163864 4523353 0 -1
-1.8658525943756104 2.086287021636963 0.04289820045232773 4657508 0 -1
-1.9080730676651 2.046395778656006 -0.08579640090465546 4471684 0 -1
-1.8660169839859009 2.1299386024475098 -0.02169850841164589 4456788 0 -1
-1.8443191051483154 2.148754119873047 -0.02169850841164589 4456788 0 -1
-1.8660169839859009 2.1299386024475098 -0.02169850841164589 4523353 0 -1
-1.9575400352478027 2.523071527481079 0.7808969020843506 4726897 0 -1
-2.045065402984619 2.583554983139038 -0.40703409910202026 4456788 0 -1
-2.0386555194854736 2.5754570960998535 -0.48335298895835876 4456788 0 -1
-2.7745165824890137 1.7713695764541626 -0.43247371912002563 4523353 0 -1
-2.0157201290130615 2.59805965423584 -0.457913339138031 4590430 0 -1
-1.9648914337158203 2.5325467586517334 0.8649474382400513 4726897 0 -1
-1.9065715074539185 2.7150564193725586 -0.12719815969467163 4536450 0 -1
-1.8828208446502686 2.7351574897766113 -0.46240270137786865 4456788 0 -1
-1.7956441640853882 2.82546329498291 -0.17982326447963715 4456788 0 -1
-1.886648416519165 2.740717649459839 -0.41102463006973267 4456788 0 -1
-1.7939516305923462 2.8228001594543457 -0.23120135068893433 4456788 0 -1
-1.7929459810256958 2.8212175369262695 -0.2568903863430023 4456788 0 -1
-1.919821858406067 2.7339255809783936 -0.2825794219970703 4456788 0 -1
-1.9139095544815063 2.725506067276001 -0.3853355646133423 4456788 0 -1
-2.728213310241699 1.7418075799942017 -0.8734273314476013 4456788 0 -1
-1.870835304260254 2.772442579269409 -0.23120135068893433 4456788 0 -1
-1.8452074527740479 2.789564847946167 -0.23120135068893433 4456788 0 -1
-2.781564950942993 1.7758694887161255 -0.590847909450531 4523353 0 -1
-1.8238681554794312 2.8129632472991943 -0.02568903937935829 4523353 0 -1
-2.0586423873901367 2.6007065773010254 -0.48809173703193665 4590430 0 -1
-1.8929357528686523 2.7498512268066406 -0.3082684576511383 4590430 0 -1
-2.0688047409057617 2.6135451793670654 -0.3596465289592743 4657508 0 -1
-1.8712345361709595 2.7183260917663574 -0.590847909450531 4657508 0 -1
-1.9954349994659424 2.5208561420440674 0.9504944086074829 4724328 0 -1
-1.7998566627502441 2.614636182785034 1.07893967628479 4724328 0 -1
-2.017291307449341 2.5484676361083984 0.8220492601394653 4726897 0 -1
-1.8995932340621948 2.7595224380493164 -0.12844519317150116 4536450 0 -1
-1.8982523679733276 2.7575747966766357 -0.17982326447963715 4471684 0 -1
-1.9011006355285645 2.7617123126983643 -0.4668920338153839 4456788 0 -1
-1.81035315990448 2.8486080169677734 -0.2593844532966614 4456788 0 -1
-1.8130775690078735 2.8528950214385986 -0.18156912922859192 4456788 0 -1
-1.8840891122817993 2.792083740234375 -0.3371998071670532 4456788 0 -1
-1.811368703842163 2.850205898284912 -0.23344601690769196 4456788 0 -1
-1.9425830841064453 2.76633882522583 -0.18156912922859192 4456788 0 -1
-1.81035315990448 2.8486080169677734 -0.2593844532966614 4456788 0 -1
-1.9384609460830688 2.7604687213897705 -0.285322904586792 4456788 0 -1
-1.911313772201538 2.7765488624572754 -0.3112613558769226 4456788 0 -1
-1.83897864818573 2.836268186569214 -0.18156912922859192 4456788 0 -1
-1.9126148223876953 2.7784388065338135 -0.285322904586792 4456788 0 -1
-1.8620775938034058 2.8150689601898193 -0.2593844532966614 4456788 0 -1
-2.839038372039795 1.8125630617141724 0.3371998071670532 4523353 0 -1
-1.864879846572876 2.819305419921875 -0.18156912922859192 4523353 0 -1
-1.911313772201538 2.7765488624572754 -0.3112613558769226 4590430 0 -1
-1.9030908346176147 2.76460337638855 -0.4409535825252533 4657508 0 -1
-1.8317358493804932 2.6609466075897217 1.0115994215011597 4724328 0 -1
-1.9158353805541992 2.7831172943115234 -0.20750758051872253 4471684 0 -1
-1.899044156074524 2.81424617767334 -0.39281782507896423 4456788 0 -1
-1.8297024965286255 2.879054307937622 -0.20950284600257874 4456788 0 -1
-1.9022053480148315 2.8189306259155273 -0.34044212102890015 4456788 0 -1
-1.8287856578826904 2.8776116371154785 -0.23569069802761078 4456788 0 -1
-1.9603954553604126 2.7917046546936035 -0.20950284600257874 4456788 0 -1
-1.8277604579925537 2.8759984970092773 -0.2618785500526428 4456788 0 -1
-1.9583147764205933 2.7887415885925293 -0.2618785500526428 4456788 0 -1
-1.9296917915344238 2.80324649810791 -0.3142542541027069 4456788 0 -1
-1.9310053586959839 2.80515456199646 -0.28806641697883606 4456788 0 -1
-1.9322038888931274 2.8068957328796387 -0.2618785500526428 4456788 0 -1
-1.8799822330474854 2.842137098312378 -0.2618785500526428 4456788 0 -1
-2.870413303375244 1.8325941562652588 0.28806641697883606 4523353 0 -1
-1.9071621894836426 2.8262765407562256 -0.23569069802761078 4523353 0 -1
-1.9060930013656616 2.8246920108795166 -0.2618785500526428 4590430 0 -1
-1.9282629489898682 2.801170825958252 -0.34044212102890015 4657508 0 -1
-1.853933334350586 2.693192720413208 0.9951384663581848 4724328 0 -1
-1.93511164188385 2.811119794845581 -0.1833149790763855 4471684 0 -1
-1.8725769519805908 2.888087034225464 -0.2379353642463684 4456788 0 -1
-1.9790658950805664 2.8182921409606934 -0.21149811148643494 4456788 0 -1
-1.84712815284729 2.9064738750457764 -0.21149811148643494 4456788 0 -1
-1.950605869293213 2.8336281776428223 -0.2643726170063019 4456788 0 -1
-2.905963897705078 1.8552911281585693 0.13218630850315094 4456788 0 -1
-1.9493958950042725 2.8318703174591064 -0.29080989956855774 4456788 0 -1
-1.9526784420013428 2.836638927459717 -0.21149811148643494 4456788 0 -1
-2.952268362045288 1.7659058570861816 0.2643726170063019 4456788 0 -1
-1.9007428884506226 2.8735227584838867 -0.18506084382534027 4456788 0 -1
-2.948429822921753 1.7636098861694336 0.3172471523284912 4523353 0 -1
-2.8484270572662354 1.9323703050613403 0.2379353642463684 4523353 0 -1
-1.950605869293213 2.8336281776428223 -0.2643726170063019 4523353 0 -1
-1.95169997215271 2.8352174758911133 -0.2379353642463684 4590430 0 -1
-2.0884416103363037 2.585813045501709 0.9253042340278625 4657508 0 -1
-2.083571672439575 2.7397665977478027 -0.2379353642463684 4724328 0 -1
-1.9561277627944946 2.8416497707366943 -0.052874527871608734 4725613 0 -1
-1.9294102191925049 2.8592464923858643 -0.0793117880821228 4726897 0 -1
-2.4476864337921143 2.3055202960968018 0.9073468446731567 4456788 0 -1
-2.1071131229400635 2.7158560752868652 0.5604200959205627 4456788 0 -1
-1.7273553609848022 2.829598903656006 -1.0674668550491333 4456788 0 -1
-2.8083982467651367 1.8491870164871216 -0.9073468446731567 4456788 0 -1
-2.071889638900757 2.565319061279297 1.1208401918411255 4456788 0 -1
-2.9289920330047607 1.7519830465316772 -0.6938534379005432 4456788 0 -1
-2.937932252883911 1.7573306560516357 -0.640480101108551 4456788 0 -1
-2.966359853744507 1.7743346691131592 0.4269867241382599 4523353 0 -1
-2.143012762069702 2.6003472805023193 0.8806601762771606 4657508 0 -1
-1.9848135709762573 2.609905958175659 1.1742135286331177 4724328 0 -1
-3.121281385421753 1.6090806722640991 -0.1616164743900299 4456788 0 -1
-3.0866262912750244 1.6560808420181274 -0.2962968647480011 4456788 0 -1
-2.954586982727051 1.8269788026809692 -0.5387215614318848 4456788 0 -1
-2.9846982955932617 1.7853038311004639 -0.5117855072021484 4456788 0 -1
-3.1113486289978027 1.6039601564407349 -0.3232329487800598 4590430 0 -1
-2.9580490589141846 1.8291195631027222 -0.5117855072021484 4657508 0 -1
-2.197871685028076 2.6133811473846436 0.8350184559822083 4724328 0 -1
-2.087278366088867 2.7999773025512695 0.6252661943435669 4456788 0 -1
-3.066183090209961 1.771661639213562 -0.21748389303684235 4456788 0 -1
-2.2323548793792725 2.7087554931640625 -0.5165242552757263 4456788 0 -1
-3.0933172702789307 1.7238476276397705 -0.21748389303684235 4456788 0 -1
-2.226992130279541 2.7022485733032227 -0.570895254611969 4456788 0 -1
-2.158432722091675 2.7820017337799072 0.4349677860736847 4523353 0 -1
-2.2264885902404785 2.6474080085754395 0.7883791327476501 4590430 0 -1
-3.0025808811187744 1.8566559553146362 -0.35341134667396545 4657508 0 -1
-2.047994613647461 2.8025903701782227 0.7340081334114075 4657508 0 -1
-2.1442649364471436 2.8195743560791016 -0.5212630033493042 4456788 0 -1
-2.1442649364471436 2.8195743560791016 -0.5212630033493042 4456788 0 -1
-2.1586239337921143 2.7270147800445557 0.8504817485809326 4456788 0 -1
-2.899094820022583 2.4901669025421143 -0.3825920820236206 4456788 0 -1
-2.8791697025299072 2.4730522632598877 -0.5886031985282898 4456788 0 -1
-2.845738649368286 2.4443366527557373 -0.8240445256233215 4523353 0 -1
-2.865041971206665 2.519665479660034 0.44145241379737854 4657508 0 -1
-2.899094820022583 2.4901669025421143 0.3825920820236206 4724328 0 -1
-2.934363603591919 2.460681915283203 0.2943015992641449 4729209 0 -1
-1.8514071702957153 3.29020619392395 0.7063238620758057 4729209 0 -1
-2.9132437705993652 2.5023200511932373 0.05886032059788704 4664956 0 -1
-2.9555201530456543 2.299682855606079 0.8534746766090393 4536450 0 -1
-3.3257668018341064 1.8533873558044434 0.7123096585273743 4456788 0 -1
-2.918804883956909 2.507096767425537 0.4451935291290283 4456788 0 -1
-2.942668914794922 2.467646598815918 0.5045526623725891 4456788 0 -1
-2.955383777618408 2.478308916091919 0.35615482926368713 4456788 0 -1
-2.942668914794922 2.467646598815918 0.5045526623725891 4523353 0 -1
-2.955383777618408 2.478308916091919 0.35615482926368713 4724328 0 -1
-2.955383777618408 2.478308916091919 0.35615482926368713 4729209 0 -1
-2.9676084518432617 2.4885599613189697 0.05935913696885109 4664956 0 -1
-2.929281234741211 2.4564199447631836 0.6232709288597107 4536450 0 -1
-2.6216933727264404 2.7530581951141357 0.7419891953468323 10672695 0 -1
-2.9906201362609863 2.4472830295562744 0.5686505436897278 4456788 0 -1
-2.970320224761963 2.4908342361450195 0.4788636267185211 4456788 0 -1
-2.9780123233795166 2.497284412384033 0.38907670974731445 4456788 0 -1
-2.9730632305145264 2.4931344985961914 0.4489346444606781 4523353 0 -1
-2.9780123233795166 2.497284412384033 0.38907670974731445 4724328 0 -1
-3.0053834915161133 2.459364175796509 0.41900569200515747 4729209 0 -1
-2.992546319961548 2.509472370147705 0.05985795333981514 4664956 0 -1
-3.1424503326416016 2.3195855617523193 -0.02992897666990757 4600703 0 -1
-2.9970712661743164 2.452562093734741 0.5087926387786865 4536450 0 -1
-3.030428409576416 2.479858875274658 0.42249739170074463 4456788 0 -1
-3.0004241466522217 2.516078472137451 0.42249739170074463 4456788 0 -1
-2.9978389739990234 2.5139105319976807 0.45267578959465027 4523353 0 -1
-3.0278172492980957 2.47772216796875 0.45267578959465027 4724328 0 -1
-3.008297920227051 2.4617490768432617 0.6337460875511169 4726897 0 -1
-3.065155029296875 2.446503162384033 0.36214062571525574 4729209 0 -1
-3.137077569961548 2.3782079219818115 0.12071353942155838 4600703 0 -1
-3.030428409576416 2.479858875274658 0.42249739170074463 4536450 0 -1
-3.065155029296875 2.446503162384033 0.36214062571525574 4341894 0 -1
-3.1012561321258545 2.2274014949798584 0.965708315372467 3651704 0 -1
-2.907287359237671 2.437976360321045 1.0562435388565063 3651704 0 -1
-2.394209384918213 2.9644007682800293 0.9958866834640503 3651704 0 -1
-3.0528404712677 2.498199224472046 0.45641690492630005 4726897 0 -1
-3.0962460041046143 2.4713189601898193 0.27385014295578003 4729209 0 -1
-2.879265069961548 2.6515791416168213 0.6694114804267883 4729209 0 -1
-2.567589044570923 2.9307379722595215 0.9203160405158997 4729209 0 -1
-2.9361093044281006 2.521960496902466 1.1442846059799194 4456788 0 -1
-2.3498013019561768 3.2802798748016357 -0.09277983009815216 4456788 0 -1
-1.7308272123336792 3.8947043418884277 0.1306898593902588 4456788 4 -1
-1.7298097610473633 3.8924148082733154 0.19603480398654938 4456788 4 -1
-1.6957732439041138 3.903536558151245 0.2613797187805176 4456788 4 -1
-1.7314373254776 3.8960773944854736 0.0653449296951294 4456788 4 -1
-1.7298097610473633 3.8924148082733154 0.19603480398654938 4456788 4 -1
-1.6971718072891235 3.9067559242248535 0.19603480398654938 4456788 4 -1
-1.6971718072891235 3.9067559242248535 0.19603480398654938 4456788 4 -1
-1.743578314781189 3.9233968257904053 0.1646093726158142 4456788 4 -1
-1.7423475980758667 3.9206275939941406 0.23045311868190765 4456788 4 -1
-1.7415779829025269 3.918895721435547 0.2633749842643738 4456788 4 -1
-1.67066490650177 3.9352145195007324 0.427984356880188 4456788 4 -1
-1.7415779829025269 3.918895721435547 0.2633749842643738 4456788 4 -1
-1.7087180614471436 3.9333345890045166 0.2633749842643738 4456788 4 -1
-1.7087180614471436 3.9333345890045166 0.2633749842643738 4456788 4 -1
-1.7094731330871582 3.935072660446167 0.23045311868190765 4456788 4 -1
-1.7415779829025269 3.918895721435547 0.2633749842643738 4456788 4 -1
-1.7415779829025269 3.918895721435547 0.2633749842643738 4456788 4 -1
-1.7407053709030151 3.9169321060180664 0.2962968647480011 4456788 4 -1
-1.7397295236587524 3.914736270904541 0.3292187452316284 4456788 4 -1
-1.737467646598816 3.909646511077881 0.39506250619888306 4456788 4 -1
-1.706904411315918 3.9291598796844482 0.3292187452316284 4456788 4 -1
-1.8549178838729858 3.9046545028686523 0.23219898343086243 4456788 4 -1
-1.8224914073944092 3.9217185974121094 0.19902770221233368 4456788 4 -1
-1.7904077768325806 3.9392638206481934 0.132685124874115 4456788 4 -1
-1.7572519779205322 3.954165458679199 0.132685124874115 4456788 4 -1
-1.7547718286514282 3.9485843181610107 0.26537024974823 4456788 4 -1
-1.7529093027114868 3.9443933963775635 0.33171284198760986 4456788 4 -1
-1.750630259513855 3.939265012741089 0.39805540442466736 4456788 4 -1
-1.7848751544952393 3.927091121673584 0.3648841083049774 4456788 4 -1
-1.7836610078811646 3.924419641494751 0.39805540442466736 4456788 4 -1
-1.7208001613616943 3.961146831512451 0.2985415458679199 4456788 4 -1
-1.7538925409317017 3.946605920791626 0.2985415458679199 4456788 4 -1
-1.7538925409317017 3.946605920791626 0.2985415458679199 4456788 4 -1
-1.7823402881622314 3.921513795852661 0.4312266707420349 4456788 4 -1
-1.7518219947814941 3.9419467449188232 0.3648841083049774 4456788 4 -1
-1.7493339776992798 3.9363481998443604 0.4312266707420349 4456788 4 -1
-1.9029650688171387 3.9194841384887695 0.20052415132522583 4456788 4 -1
-1.8354920148849487 3.9496939182281494 0.233944833278656 4456788 4 -1
-1.8648988008499146 3.9256649017333984 0.3676275908946991 4456788 4 -1
-1.7970720529556274 3.9539265632629395 0.40104830265045166 4456788 4 -1
-1.7327666282653809 3.98869252204895 0.3342069089412689 4456788 4 -1
-1.8346812725067139 3.947949171066284 0.2673655152320862 4456788 4 -1
-1.7003974914550781 4.0052490234375 0.30078622698783875 4456788 4 -1
-1.798295259475708 3.956618070602417 0.3676275908946991 4456788 4 -1
-1.7624869346618652 3.96594500541687 0.43446898460388184 4456788 4 -1
-1.8337619304656982 3.9459710121154785 0.30078622698783875 4456788 4 -1
-1.795741319656372 3.9509987831115723 0.43446898460388184 4456788 4 -1
-1.7624869346618652 3.96594500541687 0.43446898460388184 4456788 4 -1
-1.798295259475708 3.956618070602417 0.3676275908946991 4456788 4 -1
-1.7649935483932495 3.971585273742676 0.3676275908946991 4456788 4 -1
-1.76796555519104 3.9782729148864746 0.2673655152320862 4456788 4 -1
-1.7970720529556274 3.9539265632629395 0.40104830265045166 4456788 4 -1
-1.795741319656372 3.9509987831115723 0.43446898460388184 4456788 4 -1
-1.9164329767227173 3.947223663330078 0.23569069802761078 4456788 4 -1
-1.8474466800689697 3.9754185676574707 0.3030308783054352 4456788 4 -1
-1.8128399848937988 3.988619327545166 0.33670100569725037 4456788 4 -1
-1.87881600856781 3.954960823059082 0.37037110328674316 4456788 4 -1
-1.8117153644561768 3.98614501953125 0.37037110328674316 4456788 4 -1
-1.9110653400421143 3.9361681938171387 0.40404120087623596 4456788 4 -1
-1.747552514076233 4.022728443145752 0.2693607807159424 4456788 4 -1
-1.7341121435165405 3.9917895793914795 0.6060617566108704 4456788 4 -1
-1.8452657461166382 3.9707252979278564 0.37037110328674316 4456788 4 -1
-1.7407418489456177 4.00705099105835 0.47138139605522156 4456788 4 -1
-1.8104829788208008 3.983433485031128 0.40404120087623596 4456788 4 -1
-1.8474466800689697 3.9754185676574707 0.3030308783054352 4456788 4 -1
-1.8168504238128662 3.997443199157715 0.16835050284862518 4456788 4 -1
-1.7781651020050049 4.001224040985107 0.37037110328674316 4456788 4 -1
-1.846411108970642 3.9731900691986084 0.33670100569725037 4456788 4 -1
-1.8620645999908447 4.006873607635498 0.2713560461997986 4456788 4 -1
-1.8576698303222656 3.9974169731140137 0.40703409910202026 4456788 4 -1
-1.8620645999908447 4.006873607635498 0.2713560461997986 4456788 4 -1
-1.8600882291793823 4.002621173858643 0.3391950726509094 4456788 4 -1
-1.8611315488815308 4.004866123199463 0.305275559425354 4456788 4 -1
-1.7901182174682617 4.028120517730713 0.40703409910202026 4456788 4 -1
-1.8210837841033936 4.0067572593688965 0.4748730957508087 4456788 4 -1
-1.8967580795288086 3.992729425430298 0.23743654787540436 4456788 4 -1
-1.8576698303222656 3.9974169731140137 0.40703409910202026 4456788 4 -1
-1.7225664854049683 4.057467460632324 0.40703409910202026 4456788 4 -1
-1.7934540510177612 4.0356268882751465 0.305275559425354 4456788 4 -1
-1.827292799949646 4.020418643951416 0.305275559425354 4456788 4 -1
-1.729844093322754 4.074609756469727 -0.03391950577497482 4456788 4 -1
-1.729844093322754 4.074609756469727 -0.03391950577497482 4456788 4 -1
-1.863600254058838 4.010178565979004 -0.20351704955101013 4456788 4 -1
-1.7636072635650635 4.059685230255127 -0.06783901154994965 4456788 4 -1
-1.9089038372039795 4.018296718597412 0.3075202405452728 4456788 4 -1
-1.905353307723999 4.010822772979736 0.41002699732780457 4456788 4 -1
-1.9066503047943115 4.013552665710449 0.3758580684661865 4456788 4 -1
-1.9007785320281982 4.001192569732666 0.5125337243080139 4456788 4 -1
-1.9039424657821655 4.007853031158447 0.4441958963871002 4456788 4 -1
-1.9078338146209717 4.0160441398620605 0.3416891396045685 4456788 4 -1
-1.7715599536895752 4.077991485595703 0.3416891396045685 4456788 4 -1
-1.8066412210464478 4.065300941467285 0.3075202405452728 4456788 4 -1
-1.9078338146209717 4.0160441398620605 0.3416891396045685 4456788 4 -1
-1.740106225013733 4.098782062530518 0.23918241262435913 4456788 4 -1
-1.7413352727890015 4.101676940917969 -0.17084456980228424 4456788 4 -1
-1.8108993768692017 4.074882507324219 -0.03416891396045685 4456788 4 -1
-1.8045083284378052 4.060501575469971 -0.3758580684661865 4456788 4 -1
-1.7749048471450806 4.085691452026367 -0.20501349866390228 4456788 4 -1
-1.7749048471450806 4.085691452026367 -0.20501349866390228 4523353 4 -1
-1.8104740381240845 4.073925495147705 -0.10250674933195114 4590430 4 -1
-1.8335986137390137 3.7766120433807373 -1.503432273864746 4725613 0 -1
-1.7767835855484009 4.090015888214111 0 4729209 4 -1
-1.8107398748397827 4.074523448944092 0.0683378279209137 4664956 4 -1
-1.9192609786987305 4.040098667144775 0.41301989555358887 4456788 4 -1
-1.9217596054077148 4.045358180999756 0.3441832363605499 4456788 4 -1
-1.9192609786987305 4.040098667144775 0.41301989555358887 4456788 4 -1
-1.9146528244018555 4.030398368835449 0.5162748694419861 4456788 4 -1
-1.857224941253662 4.086275100708008 0.17209161818027496 4456788 4 -1
-1.8150984048843384 4.084331512451172 0.44743821024894714 4456788 4 -1
-1.749088168144226 4.119938850402832 0.3786015510559082 4456788 4 -1
-1.8176798820495605 4.090140342712402 0.3786015510559082 4456788 4 -1
-1.8519757986068726 4.074726104736328 0.3786015510559082 4456788 4 -1
-1.8519757986068726 4.074726104736328 0.3786015510559082 4456788 4 -1
-1.9178398847579956 4.037107467651367 0.44743821024894714 4456788 4 -1
-1.7208656072616577 4.14897346496582 0.03441832214593887 4456788 4 -1
-1.8835927248001099 4.053199291229248 0.44743821024894714 4456788 4 -1
-1.8150984048843384 4.084331512451172 0.44743821024894714 4456788 4 -1
-1.8531253337860107 4.0772552490234375 0.3441832363605499 4456788 4 -1
-1.6815396547317505 4.150964736938477 -0.3441832363605499 4456788 4 -1
-1.8198283910751343 4.094974517822266 -0.30976492166519165 4456788 4 -1
-1.8047356605529785 4.061013221740723 -0.6539481282234192 4456788 4 -1
-1.8902828693389893 4.0675950050354 -0.2409282624721527 4456788 4 -1
-1.8580983877182007 4.088197231292725 -0.10325497388839722 4456788 4 -1
-1.787176489830017 4.1139397621154785 -0.2409282624721527 4456788 4 -1
-1.7889119386672974 4.117934703826904 -0.1376732885837555 4523353 4 -1
-1.787176489830017 4.1139397621154785 -0.2409282624721527 4725613 4 -1
-1.8239569664001465 4.104264736175537 0.06883664429187775 4729209 4 -1
-1.8241175413131714 4.104626178741455 0.03441832214593887 4664956 4 -1
-1.6172997951507568 3.9923853874206543 -1.2734780311584473 4017546 0 -1
-1.8972419500350952 4.0825700759887695 0.45068052411079407 4456788 4 -1
-1.9367711544036865 4.076958179473877 0.3120095729827881 4456788 4 -1
-1.935685396194458 4.074672698974609 0.346677303314209 4456788 4 -1
-1.9031394720077515 4.0952606201171875 0.2773418426513672 4456788 4 -1
-1.8308515548706055 4.119778633117676 -0.38134506344795227 4456788 4 -1
-1.8579353094100952 4.087838172912598 0.5546836853027344 4456788 4 -1
-1.854166030883789 4.079545021057129 0.6240191459655762 4456788 4 -1
-1.7891228199005127 4.118420124053955 0.5546836853027344 4456788 4 -1
-1.8561069965362549 4.083815574645996 0.5893514156341553 4456788 4 -1
-1.933168649673462 4.0693745613098145 0.41601279377937317 4456788 4 -1
-1.895722508430481 4.079300403594971 0.48534825444221497 4456788 4 -1
-1.8267871141433716 4.110633373260498 0.48534825444221497 4456788 4 -1
-1.8369042873382568 4.133398532867432 -0.10400319844484329 4456788 4 -1
-1.8718376159667969 4.118426322937012 -0.0693354606628418 4456788 4 -1
-1.801875114440918 4.147774696350098 -0.1386709213256836 4523353 4 -1
-1.7661848068237305 4.160209655761719 -0.20800639688968658 4725613 4 -1
-1.8026691675186157 4.14960241317749 0.0346677303314209 4726897 4 -1
-1.802510380744934 4.149237155914307 -0.0693354606628418 4729209 4 -1
-1.802510380744934 4.149237155914307 -0.0693354606628418 4664956 4 -1
-1.6210957765579224 4.001756191253662 -1.352041482925415 4017546 0 -1
-1.9136089086532593 4.117789268493652 0.38408854603767395 4456788 4 -1
-1.9456346035003662 4.095615863800049 0.4539228081703186 4456788 4 -1
-1.9470763206481934 4.098650932312012 0.41900569200515747 4456788 4 -1
-1.9456346035003662 4.095615863800049 0.4539228081703186 4456788 4 -1
-1.87881600856781 4.133780002593994 0.38408854603767395 4456788 4 -1
-1.8713017702102661 4.117247104644775 0.5586742162704468 4456788 4 -1
-1.8130775690078735 4.173562049865723 -0.24441997706890106 4456788 4 -1
-1.8414041996002197 4.143524646759033 0.4539228081703186 4456788 4 -1
-1.8130775690078735 4.173562049865723 0.24441997706890106 4456788 4 -1
-1.8853040933609009 4.148055076599121 0.06983427703380585 4456788 4 -1
-1.885027289390564 4.147446155548096 -0.10475142300128937 4725613 4 -1
-1.78072190284729 4.194451332092285 -0.034917138516902924 4726897 4 -1
-1.779937505722046 4.192603588104248 -0.1396685540676117 4729209 4 -1
-1.815211534500122 4.178473949432373 -0.10475142300128937 4664956 4 -1
-1.9562757015228271 4.118015766143799 0.5274982452392578 4456788 4 -1
-1.9562757015228271 4.118015766143799 0.5274982452392578 4456788 4 -1
-1.9579626321792603 4.1215667724609375 0.49233168363571167 4456788 4 -1
-1.9562757015228271 4.118015766143799 0.5274982452392578 4456788 4 -1
-1.855931282043457 4.176213264465332 0.4219985902309418 4456788 4 -1
-2.635554790496826 3.7531661987304688 -0.17583273351192474 4456788 0 -1
-1.9505056142807007 4.105869293212891 0.6329978704452515 4456788 4 -1
-1.7517297267913818 4.126160621643066 -0.9846633672714233 4456788 0 -1
-1.9332515001296997 4.160057067871094 0.1406661868095398 4523353 4 -1
-1.7227054834365845 4.252584934234619 0.10549964755773544 4726897 4 -1
-1.723110318183899 4.253583908081055 0.03516654670238495 4728182 4 -1
-1.723110318183899 4.253583908081055 0.03516654670238495 3757452 4 -1
-2.003480911254883 4.126513957977295 0.5666552782058716 4456788 4 -1
-2.001509428024292 4.122453212738037 0.602071225643158 4456788 4 -1
-2.0386297702789307 4.109262943267822 0.5666552782058716 4456788 4 -1
-1.8725769519805908 4.213669300079346 0.31874361634254456 4456788 4 -1
-1.8662141561508179 4.199351787567139 0.49582338333129883 4456788 4 -1
-1.8411431312561035 4.238166332244873 0.10624786466360092 4456788 4 -1
-1.7957910299301147 4.229946136474609 0.49582338333129883 4456788 4 -1
-1.9122370481491089 4.207313060760498 0.07083190977573395 4523353 4 -1
-1.734566569328308 4.281864166259766 0.1416638195514679 4726897 4 -1
-1.734566569328308 4.281864166259766 0.1416638195514679 4728182 4 -1
-1.734566569328308 4.281864166259766 0.1416638195514679 4536450 4 -1
-1.7335468530654907 4.2793474197387695 0.21249572932720184 4212104 4 -1
-1.7867064476013184 4.020443916320801 -1.4166382551193237 3692940 0 -1
-1.9602726697921753 4.126429557800293 0.8916341066360474 4456788 4 -1
-1.9821937084197998 4.172574043273926 0.570645809173584 4456788 4 -1
-2.0992469787597656 4.141887187957764 0.320988267660141 4456788 4 -1
-2.0228147506713867 4.166335582733154 0.4636497497558594 4456788 4 -1
-1.8491464853286743 4.256589889526367 0.35665363073349 4456788 4 -1
-1.7952308654785156 4.2286272048950195 0.7489726543426514 4456788 4 -1
-1.808437466621399 4.259734630584717 0.4993151128292084 4456788 4 -1
-1.7471410036087036 4.312905311584473 -0.106996089220047 4456788 4 -1
-1.783058762550354 4.298920154571533 -0.071330726146698 4725613 4 -1
-1.7827969789505005 4.298288822174072 0.106996089220047 4726897 4 -1
-1.783058762550354 4.298920154571533 0.071330726146698 4728182 4 -1
-1.7819589376449585 4.296268463134766 0.178326815366745 4600703 4 -1
-1.7827969789505005 4.298288822174072 0.106996089220047 4536450 4 -1
-1.8146032094955444 4.274258136749268 0.320988267660141 4212104 4 -1
-1.8545445203781128 4.269015312194824 -0.035665363073349 2006409 4 -1
-2.1485509872436523 4.150169849395752 0.35914772748947144 4456788 4 -1
-2.082078218460083 4.196841716766357 0.1436590850353241 4456788 4 -1
-1.8661969900131226 4.295838832855225 -0.17957386374473572 4456788 4 -1
-1.8675132989883423 4.298868656158447 0.035914771258831024 4456788 4 -1
-1.7245466709136963 4.257129669189453 0.9337840676307678 4456788 4 -1
-1.7298105955123901 4.2701239585876465 0.8619545102119446 4456788 4 -1
-1.7346391677856445 4.282043933868408 0.7901250123977661 4456788 4 -1
-1.7298105955123901 4.2701239585876465 0.8619545102119446 4456788 4 -1
-1.795527696609497 4.328982353210449 -0.07182954251766205 4456788 4 -1
-1.795527696609497 4.328982353210449 -0.07182954251766205 4725613 4 -1
-1.739036202430725 4.292898178100586 0.7182954549789429 4726897 4 -1
-1.8311693668365479 4.313279151916504 0.10774431377649307 4728182 4 -1
-1.7166061401367188 4.340125560760498 0.4309772551059723 4729209 4 -1
-1.7598237991333008 4.344213485717773 0 4600703 4 -1
-1.6615570783615112 4.10163688659668 1.5443352460861206 3692940 0 -1
-2.059844970703125 4.242605209350586 0.18082089722156525 4456788 4 -1
-1.8225868940353394 4.293063640594482 0.723283588886261 4456788 4 -1
-1.8225868940353394 4.293063640594482 0.723283588886261 4456788 4 -1
-1.815505027770996 4.2763824462890625 0.8317761421203613 4456788 4 -1
-1.7747224569320679 4.2788214683532715 0.9041045308113098 4456788 4 -1
-1.7418230772018433 4.299777507781982 0.8679403066635132 4456788 4 -1
-1.7418230772018433 4.299777507781982 0.8679403066635132 4456788 4 -1
-1.7747224569320679 4.2788214683532715 0.9041045308113098 4456788 4 -1
-1.7392280101776123 4.293371200561523 0.9041045308113098 4456788 4 -1
-1.7245906591415405 4.257238388061523 1.0849254131317139 4456788 0 -1
-1.7179498672485352 4.240845203399658 1.1572537422180176 4456788 0 -1
-1.7179498672485352 4.240845203399658 1.1572537422180176 4456788 0 -1
-1.840904712677002 4.33621072769165 -0.2893134355545044 4456788 4 -1
-1.8079966306686401 4.359045028686523 -0.0723283588886261 4456788 4 -1
-1.8796539306640625 4.326815605163574 -0.1446567177772522 4725613 4 -1
-1.7346062660217285 4.385635852813721 -0.18082089722156525 4725613 4 -1
-1.8800405263900757 4.327705383300781 -0.10849253833293915 4729209 4 -1
-1.7618192434310913 4.349139213562012 -0.5062985420227051 4536450 4 -1
-1.7645379304885864 4.3558502197265625 0.4339701533317566 4471684 4 -1
-1.9136767387390137 4.210480690002441 1.0924077033996582 4456788 0 -1
-1.7969540357589722 4.33242130279541 0.764685332775116 4456788 4 -1
-1.7991729974746704 4.337770938873291 0.7282717823982239 4456788 4 -1
-1.7921820878982544 4.320916175842285 0.8375125527381897 4456788 4 -1
-1.822701096534729 4.293332576751709 0.9103397130966187 4456788 4 -1
-1.789628267288208 4.314758777618408 0.8739261031150818 4456788 4 -1
-1.7512226104736328 4.322980880737305 0.9103397130966187 4456788 4 -1
-1.7751601934432983 4.279876708984375 1.0559940338134766 4456788 0 -1
-1.753835678100586 4.329431056976318 0.8739261031150818 4456788 4 -1
-1.856874942779541 4.373828411102295 0.07282717525959015 4456788 4 -1
-1.7842658758163452 4.404549598693848 0 4456788 4 -1
-1.8478566408157349 4.352585792541504 -0.47337666153907776 4456788 4 -1
-1.7809103727340698 4.396266460418701 -0.2913087010383606 4456788 4 -1
-1.782379150390625 4.399892330169678 -0.21848152577877045 4724328 4 -1
-1.7109863758087158 4.432183742523193 0.10924076288938522 3887499 4 -1
-1.7113884687423706 4.433225154876709 -0.036413587629795074 3692940 4 -1
-1.7790201902389526 4.391600131988525 -0.36413589119911194 3562893 4 -1
-1.7250758409500122 4.361539840698242 -0.764685332775116 2072968 4 -1
-1.9401150941848755 4.268650531768799 0.9532378911972046 4456788 4 -1
-1.8044573068618774 4.35051155090332 0.8432489037513733 4456788 4 -1
-1.9267840385437012 4.239319801330566 1.099889874458313 4456788 0 -1
-1.801885962486267 4.3443121910095215 0.8799118995666504 4456788 4 -1
-1.8454471826553345 4.34691047668457 0.7699229121208191 4456788 4 -1
-1.7939008474349976 4.428333759307861 -0.2566409707069397 4456788 4 -1
-1.8330960273742676 4.419559001922607 0.0366629958152771 4456788 4 -1
-1.8477259874343872 4.352278232574463 -0.733259916305542 4456788 4 -1
-1.8996917009353638 4.372941017150879 -0.4032929539680481 4456788 4 -1
-1.8297024965286255 4.411376953125 -0.2933039665222168 4456788 4 -1
-1.8240325450897217 4.397706985473633 -0.4766189455986023 4456788 4 -1
-1.9224358797073364 4.325861930847168 -0.6965969204902649 4726897 4 -1
-1.7579630613327026 4.4446892738342285 -0.2199779748916626 4726897 4 -1
-1.859023094177246 4.378888130187988 -0.5132819414138794 4341894 4 -1
-1.6615570783615112 4.200944423675537 -1.57650887966156 3887499 0 -1
-1.756514310836792 4.44102668762207 0.2933039665222168 3692940 4 -1
-1.843054175376892 4.341273784637451 -0.8065859079360962 2264205 4 -1
-1.8136186599731445 4.3725996017456055 -0.6965969204902649 2199437 4 -1
-1.7773463726043701 4.387468338012695 -0.6965969204902649 2666112 4 -1
-1.7773463726043701 4.387468338012695 -0.6965969204902649 6933851 4 -1
-1.7084790468215942 4.425688743591309 -0.6232709288597107 7589974 4 -1
-2.0655770301818848 4.348098278045654 0.18456202745437622 4456788 4 -1
-1.8061041831970215 4.45845890045166 -0.2583868205547333 4456788 4 -1
-1.8259562253952026 4.402345180511475 -0.7013356685638428 4456788 4 -1
-1.8731696605682373 4.412209987640381 -0.4798612594604492 4456788 4 -1
-1.9011006355285645 4.376183986663818 -0.6644232869148254 4726897 4 -1
-1.9332484006881714 4.350192070007324 -0.7382481098175049 4471684 4 -1
-1.8716695308685303 4.408676624298096 -0.5167736411094666 4341894 4 -1
-1.920127272605896 4.320666790008545 -0.9228101372718811 3887499 0 -1
-1.8022716045379639 4.448997974395752 -0.40603646636009216 3887499 4 -1
-1.8349701166152954 4.424077033996582 -0.5167736411094666 2912910 4 -1
-1.8238191604614258 4.397192478179932 -0.7382481098175049 2070155 4 -1
-1.8167325258255005 4.3801069259643555 -0.8489853143692017 2070922 4 -1
-1.789437174797058 4.4173150062561035 -0.7013356685638428 2666112 4 -1
-1.7548621892929077 4.436849117279053 -0.6644232869148254 2994813 4 -1
-1.7548621892929077 4.436849117279053 -0.6644232869148254 4045940 4 -1
-1.819207787513733 4.386074542999268 -0.8120729327201843 6343264 4 -1
-1.7873427867889404 4.412145137786865 -0.7382481098175049 6933851 4 -1
-1.752918004989624 4.431933879852295 -0.7013356685638428 7589974 4 -1
-1.821569800376892 4.3917694091796875 -0.7751604914665222 8180304 4 -1
-1.821569800376892 4.3917694091796875 -0.7751604914665222 8180304 4 -1
-1.7487070560455322 4.4212870597839355 -0.7751604914665222 11197490 4 -1
-1.8279813528060913 4.407227516174316 -0.6644232869148254 13164576 4 -1
-1.6817429065704346 4.465076923370361 -0.6644232869148254 13164576 4 -1
-1.8872236013412476 4.445313930511475 -0.4459417462348938 4456788 4 -1
-1.9178367853164673 4.414709568023682 -0.5945889949798584 4726897 4 -1
-1.9072328805923462 4.3902997970581055 -0.7803980708122253 4471684 4 -1
-1.8858262300491333 4.442022323608398 -0.48310357332229614 4341894 4 -1
-1.9095879793167114 4.395721435546875 -0.743236243724823 3887499 4 -1
-1.8705552816390991 4.406052112579346 -0.7803980708122253 3562893 4 -1
-1.9159495830535889 4.410365104675293 -0.6317508220672607 2912910 4 -1
-1.8502192497253418 4.460842609405518 -0.4459417462348938 2782862 4 -1
-1.7948697805404663 4.430725574493408 -0.8175598978996277 2070922 4 -1
-1.8015278577804565 4.447161674499512 -0.7060744762420654 2666112 4 -1
-1.764762043952942 4.461879253387451 -0.7060744762420654 2994813 4 -1
-1.7299126386642456 4.481210708618164 -0.6689126491546631 4045940 4 -1
-1.8290077447891235 4.409702301025391 -0.85472172498703 6343264 4 -1
-1.7994194030761719 4.441956996917725 -0.743236243724823 6933851 4 -1
-1.762696623802185 4.4566569328308105 -0.743236243724823 7589974 4 -1
-1.867868423461914 4.503394603729248 -0.2618785500526428 4341894 4 -1
-1.9307081699371338 4.444338321685791 -0.5985795259475708 4212104 4 -1
-1.9616692066192627 4.414144515991211 -0.7108132243156433 3887499 4 -1
-1.8546233177185059 4.471460819244385 -0.6359907388687134 3562893 4 -1
-1.8461856842041016 4.451117515563965 -0.7856356501579285 3107982 4 -1
-1.817530870437622 4.486665725708008 -0.6359907388687134 2666112 4 -1
-1.7785764932632446 4.496806621551514 -0.6734020113945007 2994813 4 -1
-1.7804384231567383 4.501513957977295 -0.6359907388687134 3651704 4 -1
-1.939636468887329 4.464890480041504 -0.6778913140296936 4212104 4 -1
-1.9747470617294312 4.443572044372559 -0.7155519723892212 3887499 4 -1
-1.9023357629776 4.480910301208496 -0.6778913140296936 3107982 4 -1
-1.8213236331939697 4.496028900146484 -0.7908732295036316 2977934 4 -1
-4.593435764312744 1.9638348817825317 -1.221601128578186 4456788 0 -1
-4.431609153747559 2.2845799922943115 -1.26100754737854 4456788 0 -1
-4.631272315979004 1.980011224746704 -1.1896768808364868 4456788 0 -1
-4.450594425201416 2.2943670749664307 -1.3086445331573486 4456788 0 -1
-4.431571006774902 2.284560203552246 -1.3879562616348267 4456788 0 -1
-4.555802345275879 2.152425527572632 -1.3168749809265137 4456788 0 -1
-4.517193794250488 2.2323150634765625 -1.3168749809265137 4456788 0 -1
-4.677125453948975 1.999614953994751 -1.1173484325408936 4456788 0 -1
-4.53632926940918 2.1432254314422607 -1.3966856002807617 4456788 0 -1
-4.53632926940918 2.1432254314422607 -1.3966856002807617 4456788 0 -1
-4.535865306854248 2.241542100906372 -1.365260124206543 4456788 0 -1
-4.549479007720947 2.345344066619873 -1.1243319511413574 4456788 0 -1
-4.593713760375977 2.6542794704437256 0.0406535267829895 4456788 0 -1
-4.6220316886901855 2.6706416606903076 0 4456788 0 -1
-3.507310628890991 4.0033698081970215 0.40902936458587646 4523353 0 -1
-3.620980978012085 3.965575933456421 -0.0823046863079071 4456788 0 -1
-3.444495916366577 4.0956807136535645 -0.45267578959465027 4456788 0 -1
-4.650078296661377 2.68684720993042 0.04115234315395355 4456788 0 -1
-3.4929139614105225 4.06947660446167 -0.28806641697883606 4523353 0 -1
-3.8485538959503174 3.788926124572754 0.1656070053577423 4456788 0 -1
-3.7244069576263428 3.9110255241394043 0.1656070053577423 4456788 0 -1
-3.377739429473877 4.098573684692383 -0.9936420321464539 4456788 0 -1
-4.676199913024902 2.7019405364990234 0.1656070053577423 4456788 0 -1
-3.7671170234680176 3.872560739517212 0.08280350267887115 4523353 0 -1
-3.626026153564453 3.7275209426879883 -1.5827441215515137 4456788 0 -1
-3.4921178817749023 4.152305603027344 0.3332092761993408 4456788 0 -1
-4.703125476837158 2.717498302459717 0.208255797624588 4456788 0 -1
-3.8314566612243652 3.8549394607543945 -0.0833023190498352 4523353 0 -1
-3.4862475395202637 4.145325660705566 0.45816275477409363 4590430 0 -1
-4.559955596923828 2.9112699031829834 -0.7961108088493347 4456788 0 -1
-3.853041172027588 3.8766560554504395 -0.1676022708415985 4523353 0 -1
-3.5530693531036377 4.139561653137207 0.37710511684417725 4523353 0 -1
-4.509263515472412 2.9691202640533447 -1.053749442100525 4456788 0 -1
-4.083385944366455 4.287992000579834 -0.18156912922859192 4456788 0 -1
-3.2854034900665283 4.868730068206787 -0.7716687917709351 4456788 0 -1
-3.585042715072632 4.714107513427734 -0.13617683947086334 4456788 0 -1
-3.5858850479125977 4.715214729309082 0.04539228230714798 4590430 0 -1
-4.106666564941406 4.31243896484375 -0.13692507147789001 4456788 0 -1
-3.6509063243865967 4.7056498527526855 0.09128338098526001 4456788 0 -1
-3.303455114364624 4.895481586456299 -0.7759087085723877 4456788 0 -1
-3.603046178817749 4.737781047821045 -0.22820845246315002 4456788 0 -1
-3.7372310161590576 4.6272687911987305 -0.31949183344841003 4456788 0 -1
-3.5423455238342285 4.751875877380371 -0.5933419466018677 4456788 0 -1
-3.6503703594207764 4.704958915710449 -0.13692507147789001 4523353 0 -1
-3.6052701473236084 4.7407050132751465 -0.09128338098526001 4590430 0 -1
-3.5989127159118652 4.7323455810546875 -0.36513352394104004 4657508 0 -1
-3.5817980766296387 4.709840774536133 -0.6846253275871277 4724328 0 -1
-3.6147382259368896 4.75315523147583 0.4589109718799591 4456788 0 -1
-3.607365369796753 4.743460178375244 0.5965842604637146 4456788 0 -1
-4.084307670593262 4.380393028259277 0 4456788 0 -1
-3.67742919921875 4.46221923828125 -1.5602973699569702 4456788 0 -1
-3.6252903938293457 4.767030239105225 0.04589109867811203 4456788 0 -1
-3.598047971725464 4.731208324432373 -0.7342575788497925 4456788 0 -1
-3.622735023498535 4.763670444488525 -0.22945548593997955 4456788 0 -1
-3.7590909004211426 4.654335021972656 -0.275346577167511 4456788 0 -1
-3.5186450481414795 4.815110206604004 -0.550693154335022 4456788 0 -1
-3.6708567142486572 4.731363773345947 -0.09178219735622406 4523353 0 -1
-3.620177984237671 4.760307788848877 -0.3212376832962036 4590430 0 -1
-3.6147382259368896 4.75315523147583 -0.4589109718799591 4657508 0 -1
-3.5907483100891113 4.721610069274902 -0.8260397911071777 4724328 0 -1
-3.6449930667877197 4.792938232421875 0.046140506863594055 4456788 0 -1
-3.6528680324554443 4.522814750671387 -1.5687772035598755 4456788 0 -1
-3.6102633476257324 4.747270584106445 -0.8305290937423706 4456788 0 -1
-3.6412456035614014 4.788010597229004 -0.27684304118156433 4456788 0 -1
-3.726393222808838 4.7075958251953125 -0.46140506863594055 4456788 0 -1
-3.5423738956451416 4.84758186340332 -0.46140506863594055 4456788 0 -1
-3.63985276222229 4.786179065704346 -0.3229835331439972 4523353 0 -1
-3.5861527919769287 4.810640811920166 -0.5075455904006958 4590430 0 -1
-3.5837132930755615 4.807368278503418 -0.5536860823631287 4657508 0 -1
-3.571810007095337 4.791400909423828 -0.7382481098175049 4724328 0 -1
-3.587583303451538 4.812560081481934 -0.7886285185813904 4456788 0 -1
-3.78202223777771 4.682727336883545 -0.6494588255882263 4456788 0 -1
-3.5975332260131836 4.825907230377197 -0.6494588255882263 4456788 0 -1
-3.683197021484375 4.747269153594971 -0.7422386407852173 4456788 0 -1
-3.4591665267944336 4.926032066345215 -0.6494588255882263 4456788 0 -1
-3.77876353263855 4.67869234085083 -0.6958487033843994 4590430 0 -1
-3.5514111518859863 4.859949111938477 -0.6494588255882263 4590430 0 -1
-5.745670795440674 2.321942090988159 -1.5154038667678833 4456788 0 -1
-5.767082214355469 2.330594778060913 -1.4176359176635742 4456788 0 -1
-5.681733131408691 2.5583245754241943 -1.368751883506775 4456788 0 -1
-5.82238245010376 2.352942705154419 -1.1243319511413574 4456788 0 -1
-5.57643461227417 2.755772590637207 -1.4176359176635742 4456788 0 -1
-5.5478620529174805 2.860029935836792 -1.3198678493499756 4456788 0 -1
-2.192444324493408 5.821004390716553 1.4176359176635742 4456788 0 -1
-5.6093316078186035 2.6501739025115967 -1.621402382850647 4456788 0 -1
-5.835042476654053 2.3580589294433594 -1.2283351421356201 4456788 0 -1
-2.2720091342926025 5.74436092376709 1.7196691036224365 4456788 0 -1
-5.6093316078186035 2.6501739025115967 -1.621402382850647 4456788 0 -1
-5.704404830932617 2.4388084411621094 -1.621402382850647 4456788 0 -1
-5.729669570922852 2.579908847808838 -1.2774684429168701 4456788 0 -1
-2.2246756553649902 5.762857437133789 1.7196691036224365 4456788 0 -1
-5.748342990875244 2.715851068496704 -0.8352678418159485 4456788 0 -1
-2.2387752532958984 5.799381256103516 1.5722689628601074 4456788 0 -1
-2.4667093753814697 5.678170680999756 1.670535683631897 4657508 0 -1
-5.929589748382568 1.779394507408142 1.670535683631897 4724328 0 -1
-5.756330966949463 2.461008310317993 -1.5308672189712524 4456788 0 -1
-5.767244815826416 2.46567440032959 -1.4814844131469727 4456788 0 -1
-5.756429195404053 2.326289653778076 -1.7283984422683716 4456788 0 -1
-5.792912483215332 2.3410332202911377 -1.5802500247955322 4456788 0 -1
-2.2408430576324463 5.804738521575928 1.6790156364440918 4456788 0 -1
-2.4030187129974365 5.793631553649902 1.4814844131469727 4523353 0 -1
-2.4680376052856445 5.813408374786377 1.283953070640564 4657508 0 -1
-5.452707290649414 2.8109757900238037 1.9753124713897705 4724328 0 -1
-5.798115253448486 2.3431358337402344 -1.687495470046997 4456788 0 -1
-2.480741262435913 5.710471153259277 1.7867599725723267 4456788 0 -1
-5.835761547088623 2.757152557373047 -0.5459544062614441 4456788 0 -1
-2.4094185829162598 5.675332546234131 1.9852888584136963 4456788 0 -1
-5.745100021362305 2.8391239643096924 -0.9430121779441833 4456788 0 -1
-2.37408447265625 5.72387170791626 1.8860243558883667 4456788 0 -1
-5.689330101013184 2.9329593181610107 -0.9926444292068481 4657508 0 -1
-2.446096897125244 5.897492408752441 1.0919088125228882 4657508 0 -1
-5.865805149078369 2.507812023162842 -1.2969223260879517 4456788 0 -1
-2.439582586288452 5.746383190155029 1.8456202745437622 4456788 0 -1
-3.8613381385803223 5.077418327331543 1.453800082206726 4456788 0 -1
-3.781217575073242 5.278511047363281 0.8020966053009033 4725613 0 -1
-3.8059301376342773 5.313009262084961 0.30078622698783875 4726897 0 -1
-5.3750996589660645 3.105769395828247 -2.1663591861724854 4456788 0 -1
-3.8585565090179443 5.073760986328125 1.6121742725372314 4456788 0 -1
-3.828801393508911 5.344937324523926 -0.05038044601678848 4456788 0 -1
-3.9919161796569824 5.145176887512207 0.9068480134010315 4590430 0 -1
-3.775759220123291 5.376876354217529 0.2519022226333618 4590430 0 -1
-3.8248651027679443 5.339442253112793 0.3022826611995697 4724328 0 -1
-3.7923202514648438 5.294010162353516 0.9068480134010315 4725613 0 -1
-4.020840167999268 5.182456970214844 0.45342400670051575 4726897 0 -1
-3.823402166366577 5.337399959564209 0.3526630997657776 4726897 0 -1
-5.416808128356934 3.129868984222412 -2.1264538764953613 4456788 0 -1
-2.381516933441162 6.021231651306152 1.3163762092590332 4456788 0 -1
-5.479578018188477 3.05366587638855 -2.075824022293091 4456788 0 -1
-3.948085069656372 5.296154499053955 -0.15188956260681152 4456788 0 -1
-3.998701572418213 5.258042812347412 0.15188956260681152 4456788 0 -1
-4.038480281829834 5.205193042755127 0.5062985420227051 4590430 0 -1
-3.795454978942871 5.404923915863037 0.20251941680908203 4590430 0 -1
-4.038480281829834 5.205193042755127 0.5062985420227051 4724328 0 -1
-4.030243396759033 5.194576740264893 0.6581881046295166 4726897 0 -1
-5.8429765701293945 2.760561466217041 -1.52637779712677 4456788 0 -1
