VERSION .7
FIELDS x y z rgb label object
SIZE 4 4 4 4 4 4
TYPE F F F I I I
COUNT 1 1 1 1 1 1
WIDTH 688
HEIGHT 1
POINTS 688
VIEWPOINT 0 0 0 1 0 0 0
DATA ascii
-1.9444695711135864 2.7690250873565674 -0.10375379025936127 4523353 0 -1
-1.8362153768539429 2.8320062160491943 -0.2593844532966614 4523353 0 -1
-1.83897864818573 2.836268186569214 -0.18156912922859192 4590430 0 -1
-1.8372453451156616 2.833594799041748 -0.23344601690769196 4657508 0 -1
-1.83897864818573 2.836268186569214 -0.18156912922859192 4725613 0 -1
-1.833828091621399 2.828324317932129 -0.3112613558769226 4600703 0 -1
-1.838166356086731 2.835015296936035 -0.20750758051872253 4212104 0 -1
-1.8664480447769165 2.605527639389038 1.0894147157669067 3692940 0 -1
-1.8453114032745361 2.8460352420806885 -0.41900569200515747 4456788 0 -1
-1.847015619277954 2.848663568496704 -0.39281782507896423 4456788 0 -1
-1.8527213335037231 2.8574635982513428 -0.28806641697883606 4456788 0 -1
-1.848608374595642 2.8511199951171875 -0.366629958152771 4456788 0 -1
-1.9543205499649048 2.783053398132324 -0.34044212102890015 4456788 0 -1
-2.8443186283111572 1.8728388547897339 0.28806641697883606 4456788 0 -1
-1.9583147764205933 2.7887415885925293 -0.2618785500526428 4456788 0 -1
-1.8500901460647583 2.853405237197876 -0.34044212102890015 4456788 0 -1
-1.9310053586959839 2.80515456199646 -0.28806641697883606 4456788 0 -1
-1.855841040611267 2.8622751235961914 -0.20950284600257874 4456788 0 -1
-2.8476805686950684 1.8750524520874023 0.23569069802761078 4456788 0 -1
-1.9865341186523438 2.773165464401245 -0.20950284600257874 4456788 0 -1
-1.87881600856781 2.840373992919922 -0.28806641697883606 4456788 0 -1
-1.9060930013656616 2.8246920108795166 -0.2618785500526428 4456788 0 -1
-1.8799822330474854 2.842137098312378 -0.2618785500526428 4523353 0 -1
-2.8684606552124023 1.8313474655151367 0.3142542541027069 4590430 0 -1
-1.881036639213562 2.843731164932251 -0.23569069802761078 4590430 0 -1
-1.854911208152771 2.8608407974243164 -0.23569069802761078 4657508 0 -1
-2.842383861541748 1.8715648651123047 0.3142542541027069 4725613 0 -1
-1.881036639213562 2.843731164932251 -0.23569069802761078 4725613 0 -1
-2.8380043506622314 1.8686811923980713 0.366629958152771 4600703 0 -1
-1.9865341186523438 2.773165464401245 -0.20950284600257874 4600703 0 -1
-1.8538713455200195 2.8592371940612793 -0.2618785500526428 4600703 0 -1
-3.031217575073242 2.3585829734802246 0.02943016029894352 4456788 0 -1
-3.034658432006836 2.3005642890930176 -0.5003127455711365 4456788 0 -1
-2.97318696975708 2.3730974197387695 -0.5297428965568542 4456788 0 -1
-2.870041608810425 2.2331724166870117 -1.2360666990280151 4523353 0 -1
-2.8793771266937256 2.4732303619384766 0.7716687917709351 4456788 0 -1
-2.9069716930389404 2.4969327449798584 0.5639117956161499 4456788 0 -1
-2.916111946105957 2.5047836303710938 0.4748730957508087 4456788 0 -1
-2.92366361618042 2.511270046234131 0.38583439588546753 4456788 0 -1
-3.004478931427002 2.398073434829712 0.4748730957508087 4456788 0 -1
-2.8999884128570557 2.490934371948242 0.6232709288597107 4523353 0 -1
-2.858992338180542 2.514345169067383 0.7123096585273743 4590430 0 -1
-2.903569459915161 2.4940104484558105 0.5935913920402527 4657508 0 -1
-2.8999884128570557 2.490934371948242 0.6232709288597107 4724328 0 -1
-2.9069716930389404 2.4969327449798584 0.5639117956161499 4536450 0 -1
-2.927969217300415 2.5149683952331543 0.5985795259475708 4456788 0 -1
-2.945870876312256 2.5303449630737305 0.41900569200515747 4456788 0 -1
-2.940617084503174 2.525832176208496 0.4788636267185211 4456788 0 -1
-2.9756271839141846 2.4952845573425293 0.41900569200515747 4456788 0 -1
-3.032524585723877 2.4204585552215576 0.4489346444606781 4456788 0 -1
-2.937723398208618 2.5233466625213623 0.5087926387786865 4523353 0 -1
-2.9346511363983154 2.520707845687866 0.5387215614318848 4590430 0 -1
-2.9346511363983154 2.520707845687866 0.5387215614318848 4657508 0 -1
-2.940617084503174 2.525832176208496 0.4788636267185211 4724328 0 -1
-2.937723398208618 2.5233466625213623 0.5087926387786865 4536450 0 -1
-2.9704198837280273 2.551431179046631 0.42249739170074463 4456788 0 -1
-3.0973126888275146 2.4100112915039062 0.3319622278213501 4456788 0 -1
-2.940415620803833 2.5859527587890625 0.42249739170074463 4456788 0 -1
-2.995072841644287 2.5115911960601807 0.4828541576862335 4456788 0 -1
-3.057795524597168 2.440629005432129 0.45267578959465027 4456788 0 -1
-2.9622044563293457 2.544374704360962 0.5130325555801392 4523353 0 -1
-2.9651222229003906 2.5468809604644775 0.4828541576862335 4590430 0 -1
-3.0877740383148193 2.4025893211364746 0.45267578959465027 4657508 0 -1
-2.9622044563293457 2.544374704360962 0.5130325555801392 4657508 0 -1
-2.9651222229003906 2.5468809604644775 0.4828541576862335 4724328 0 -1
-2.953425168991089 2.5973939895629883 0.5477002859115601 4456788 0 -1
-2.807243585586548 2.7036783695220947 0.7606948614120483 4456788 0 -1
-3.128168821334839 2.434020519256592 0.24342234432697296 4456788 0 -1
-2.9594290256500244 2.6026742458343506 0.4868446886539459 4456788 0 -1
-3.0068371295928955 2.521456241607666 0.6085558533668518 4456788 0 -1
-2.841341257095337 2.6763110160827637 0.7302670478820801 4456788 0 -1
-3.0802221298217773 2.458528995513916 0.4868446886539459 4456788 0 -1
-2.917410373687744 2.565720796585083 0.8215504288673401 4456788 0 -1
-2.976768732070923 2.556884527206421 0.6085558533668518 4523353 0 -1
-2.8154444694519043 2.7115767002105713 0.6998392343521118 4523353 0 -1
-2.8371078968048096 2.67232346534729 0.7606948614120483 4590430 0 -1
-3.1248486042022705 2.4314370155334473 0.3042779266834259 4657508 0 -1
-2.9692420959472656 2.550419569015503 0.6694114804267883 4657508 0 -1
-2.9692420959472656 2.550419569015503 0.6694114804267883 4657508 0 -1
-2.9692420959472656 2.550419569015503 0.6694114804267883 4724328 0 -1
-2.8233273029327393 2.6593432426452637 0.8519781827926636 4724328 0 -1
-2.905299186706543 2.6150741577148438 0.6998392343521118 4725613 0 -1
-3.3664584159851074 2.1492905616760254 0.27609482407569885 4456788 0 -1
-2.8923492431640625 2.724356174468994 -0.4908352196216583 4456788 0 -1
-2.2507708072662354 3.2696752548217773 -0.5215124487876892 4456788 0 -1
3.8515727519989014 1.039344072341919 -0.33744922280311584 4456788 0 -1
-2.80757474899292 2.644505500793457 1.073702096939087 4456788 0 -1
-2.871382474899292 2.644319772720337 0.8896388411521912 4456788 0 -1
-3.1504621505737305 2.451366901397705 -0.30677202343940735 4456788 0 -1
-3.034813165664673 2.6067416667938232 -0.15338601171970367 4456788 0 -1
-2.8414721488952637 2.67643404006958 0.8896388411521912 4523353 0 -1
-2.872931480407715 2.585939884185791 1.0430248975753784 4590430 0 -1
-2.997708320617676 2.4530832767486572 1.01234769821167 4657508 0 -1
-2.871382474899292 2.644319772720337 0.8896388411521912 4657508 0 -1
-2.5425424575805664 3.085139513015747 0.21474041044712067 4657508 0 -1
-2.9025492668151855 2.5526511669158936 1.0430248975753784 4725613 0 -1
-2.7912559509277344 2.748009443283081 0.8282844424247742 4725613 0 -1
-2.44173526763916 2.9628190994262695 1.135056495666504 4725613 0 -1
-3.036240339279175 2.6079676151275635 -0.09203160554170609 4600703 0 -1
-2.4077391624450684 3.2298591136932373 -0.24741287529468536 4456788 0 -1
-2.2191390991210938 3.2886035442352295 -0.7422386407852173 4456788 0 -1
-2.283120632171631 3.316669464111328 0.2783394753932953 4456788 0 -1
-3.069330930709839 2.573862075805664 -0.4948257505893707 4456788 0 -1
-2.3807196617126465 3.2579097747802734 0.09277983009815216 4456788 0 -1
-2.277186632156372 3.308049201965332 0.40204593539237976 4523353 0 -1
-2.2495381832122803 3.2678844928741455 0.7422386407852173 4590430 0 -1
-2.9954941272735596 2.5729687213897705 -0.8350184559822083 4657508 0 -1
-2.2852747440338135 3.319798707962036 -0.21648626029491425 4657508 0 -1
-2.2690699100494385 3.296257972717285 -0.5257523655891418 4600703 0 -1
-2.462122917175293 3.1104283332824707 -0.9041045308113098 4456788 0 -1
-2.303704261779785 3.346571207046509 -0.21823212504386902 4456788 0 -1
-3.1495625972747803 2.5138742923736572 -0.5611683130264282 4456788 0 -1
-3.0969409942626953 2.597015142440796 -0.4676402509212494 4456788 0 -1
-2.367637872695923 3.3051793575286865 0.15588009357452393 4456788 0 -1
-2.3801000118255615 3.257061719894409 0.5299922823905945 4523353 0 -1
-2.291736364364624 3.3291854858398438 0.4676402509212494 4523353 0 -1
-2.313289165496826 3.294243335723877 0.592344343662262 4590430 0 -1
-3.072986125946045 2.5769271850585938 0.6858723759651184 4657508 0 -1
-2.4784915447235107 3.1311070919036865 0.7794004678726196 4657508 0 -1
-3.0769760608673096 2.580272912979126 0.6546963453292847 4725613 0 -1
-3.035618543624878 2.6696791648864746 0.6913593411445618 4456788 0 -1
-2.365506649017334 3.3022043704986572 -0.5656576752662659 4456788 0 -1
-1.0978145599365234 3.713348150253296 1.3512933254241943 4456788 0 -1
-0.9869904518127441 3.9024057388305664 0.7856356501579285 4456788 0 -1
-3.02527117729187 2.7230615615844727 0.5028068423271179 4456788 0 -1
-2.3096606731414795 3.289076328277588 0.8170610666275024 4456788 0 -1
-3.1436338424682617 2.5724971294403076 -0.5656576752662659 4456788 0 -1
-2.3058578968048096 3.21893572807312 1.0684645175933838 4456788 0 -1
-2.4638805389404297 3.239849090576172 -0.5028068423271179 4456788 0 -1
3.6272189617156982 1.8699012994766235 0.4085305333137512 4456788 0 -1
-2.7537221908569336 3.0157835483551025 -0.37710511684417725 4456788 0 -1
-3.362421751022339 2.348036766052246 -0.03142542764544487 4456788 0 -1
-2.6347715854644775 3.1328773498535156 -0.25140342116355896 4456788 0 -1
-2.5093061923980713 3.2342424392700195 -0.25140342116355896 4523353 0 -1
-2.871979236602783 2.8895812034606934 -0.47138139605522156 4590430 0 -1
-2.5346760749816895 3.2020857334136963 -0.37710511684417725 4590430 0 -1
-3.1364760398864746 2.5666399002075195 0.6285085082054138 4725613 0 -1
-3.0502586364746094 2.6825544834136963 0.5656576752662659 4726897 0 -1
-2.3763561248779297 3.187760591506958 1.0056136846542358 4726897 0 -1
-2.3243889808654785 3.376619577407837 0.12570171058177948 4726897 0 -1
-3.0674667358398438 2.697688102722168 0.6334967017173767 4456788 0 -1
-2.3338003158569336 3.2579429149627686 1.0135947465896606 4456788 0 -1
-3.1399123668670654 2.5694518089294434 0.7918708324432373 4456788 0 -1
-2.338388204574585 3.264347553253174 0.9819198250770569 4456788 0 -1
-2.303962469100952 3.3469462394714355 0.7601960301399231 4456788 0 -1
-2.4470248222351074 3.2825589179992676 -0.5701470375061035 4456788 0 -1
-2.342836618423462 3.4034180641174316 -0.12669934332370758 4456788 0 -1
3.626400947570801 1.8694796562194824 0.6651715040206909 4456788 0 -1
-2.49495530128479 3.280710220336914 -0.31674835085868835 4456788 0 -1
-3.3526992797851562 2.407994508743286 -0.22172383964061737 4456788 0 -1
-2.3853204250335693 3.1997857093811035 1.076944351196289 4523353 0 -1
-2.456631898880005 3.1663506031036377 1.0135947465896606 4590430 0 -1
-3.20646071434021 2.559288501739502 0.5067973732948303 4725613 0 -1
-2.4943246841430664 3.214932680130005 -0.7285211682319641 4725613 0 -1
-3.260833501815796 2.9350924491882324 0.9637130498886108 4456788 0 -1
-3.2156758308410645 2.9613873958587646 1.0325497388839722 4523353 0 -1
-3.2032933235168457 2.949984073638916 1.101386308670044 4590430 0 -1
-3.260115146636963 2.934445858001709 1.1093673706054688 4523353 0 -1
-3.2466461658477783 2.9223222732543945 1.1787028312683105 4590430 0 -1
-4.394954681396484 2.717634916305542 1.0505070686340332 4456788 0 -1
-3.153681755065918 3.904744863510132 1.6161648035049438 4456788 0 -1
-3.0749969482421875 4.043428897857666 1.4141441583633423 4456788 0 -1
-3.3107054233551025 4.099164009094238 -0.20202060043811798 4456788 0 -1
-4.37833309173584 2.5298309326171875 -1.4949524402618408 4456788 0 -1
-3.1191604137420654 3.86200213432312 1.7777812480926514 4657508 0 -1
-3.330064296722412 4.123133659362793 -0.243921160697937 4456788 0 -1
-3.455143928527832 4.025472164154053 -0.081307053565979 4456788 0 -1
-3.455143928527832 4.025472164154053 -0.081307053565979 4456788 0 -1
-3.494560718536377 3.988816738128662 -0.162614107131958 4456788 0 -1
-3.308441638946533 4.0963616371154785 -0.650456428527832 4456788 0 -1
-3.3706748485565186 4.090001106262207 -0.243921160697937 4456788 0 -1
-4.593713760375977 2.6542794704437256 0.0406535267829895 4456788 0 -1
-3.333197832107544 4.127013206481934 -0.081307053565979 4657508 0 -1
-3.4554483890533447 4.025826930999756 0.0406535267829895 4724328 0 -1
-4.99521541595459 1.1819818019866943 1.3415664434432983 4341894 0 -1
-3.513932943344116 4.010928630828857 -0.24541760981082916 4456788 0 -1
-3.5125887393951416 4.009394645690918 0.2863205373287201 4456788 0 -1
-3.5175492763519287 4.015056610107422 0.04090293496847153 4456788 0 -1
-3.5175492763519287 4.015056610107422 -0.04090293496847153 4456788 0 -1
-3.513932943344116 4.010928630828857 -0.24541760981082916 4456788 0 -1
-3.318305253982544 4.108574390411377 -0.7771557569503784 4456788 0 -1
-3.557615041732788 3.977916717529297 0.12270880490541458 4456788 0 -1
-3.394544839859009 4.1189656257629395 -0.08180586993694305 4456788 0 -1
-4.621895790100098 2.670563220977783 0.04090293496847153 4456788 0 -1
-3.5175492763519287 4.015056610107422 0.04090293496847153 4523353 0 -1
-3.4702112674713135 4.043026447296143 0.3272234797477722 4590430 0 -1
-3.5159997940063477 4.0132880210876465 0.1636117398738861 4657508 0 -1
-3.5159997940063477 4.0132880210876465 0.1636117398738861 4657508 0 -1
-3.4767494201660156 4.0506439208984375 0 4724328 0 -1
-3.5391016006469727 4.039657115936279 0 4456788 0 -1
-3.5386860370635986 4.039182662963867 -0.0823046863079071 4456788 0 -1
-3.5306758880615234 4.0300397872924805 -0.37037110328674316 4456788 0 -1
-4.6496686935424805 2.686610460281372 0.0823046863079071 4456788 0 -1
-3.5353593826293945 4.035385608673096 -0.2469140589237213 4523353 0 -1
-3.491370916366577 4.067678928375244 -0.3292187452316284 4590430 0 -1
-3.5381662845611572 4.0385894775390625 0.12345702946186066 4657508 0 -1
-3.4970247745513916 4.074265956878662 -0.12345702946186066 4724328 0 -1
-3.923802614212036 3.6959009170532227 -0.3726157546043396 4456788 0 -1
-3.33131742477417 4.208491802215576 -0.6210262775421143 4456788 0 -1
-3.8462915420532227 3.786698818206787 -0.24841050803661346 4456788 0 -1
-4.6778483390808105 2.702893018722534 0.08280350267887115 4456788 0 -1
-3.808513879776001 3.8318560123443604 0.08280350267887115 4523353 0 -1
-3.384962558746338 4.19110631942749 -0.41401752829551697 4523353 0 -1
-3.7647933959960938 3.8701722621917725 0.20700876414775848 4590430 0 -1
-3.930278778076172 3.702000856399536 -0.20700876414775848 4657508 0 -1
-3.558877944946289 4.062230587005615 0.1656070053577423 4657508 0 -1
-3.916504383087158 3.6890265941619873 -0.49682101607322693 4724328 0 -1
-3.51253080368042 4.092331886291504 -0.3312140107154846 4724328 0 -1
-3.3753530979156494 4.179208278656006 -0.5796245336532593 4724328 0 -1
-3.9494190216064453 3.720029354095459 -0.3332092761993408 4456788 0 -1
-3.952676296234131 3.723097562789917 -0.24990695714950562 4456788 0 -1
-3.994283437728882 3.678424119949341 -0.24990695714950562 4456788 0 -1
-4.706581115722656 2.7194948196411133 0 4456788 0 -1
-4.509889125823975 2.9695322513580322 0.6247674226760864 4456788 0 -1
-4.123464584350586 3.541835069656372 0 4456788 0 -1
-3.9452271461486816 3.716081142425537 -0.416511595249176 4456788 0 -1
-3.956860065460205 3.7270383834838867 0 4523353 0 -1
-3.7898104190826416 3.8958895206451416 0.0833023190498352 4523353 0 -1
-3.74585223197937 3.9335453510284424 0.208255797624588 4590430 0 -1
-3.9955756664276123 3.679614305496216 -0.208255797624588 4657508 0 -1
-4.02139139175415 3.7033886909484863 -0.12570171058177948 4456788 0 -1
-4.637289524078369 2.867483377456665 -0.41900569200515747 4456788 0 -1
-4.14815616607666 3.5630435943603516 0 4523353 0 -1
-3.9804370403289795 3.7492458820343018 0.04190056771039963 4523353 0 -1
-3.9381909370422363 3.792902708053589 0.08380113542079926 4590430 0 -1
-3.7252073287963867 3.99526047706604 0.25140342116355896 4590430 0 -1
-3.4546995162963867 4.191957473754883 0.6285085082054138 4590430 0 -1
-3.9804370403289795 3.7492458820343018 -0.04190056771039963 4657508 0 -1
-3.555720806121826 4.142650604248047 0.6743996143341064 4456788 0 -1
-4.664892196655273 2.884551763534546 -0.42149975895881653 4456788 0 -1
-4.129606246948242 3.6317880153656006 -0.12644992768764496 4523353 0 -1
-3.443690299987793 4.178598880767822 0.9694494605064392 4590430 0 -1
3.0746891498565674 4.556467056274414 0.21074987947940826 6343264 6 -1
3.0736947059631348 4.554993152618408 0.2528998553752899 6933851 6 -1
3.0315892696380615 4.58312463760376 0.2528998553752899 7589974 6 -1
3.072519063949585 4.553250789642334 0.29504984617233276 8180304 6 -1
-3.501646041870117 4.248922824859619 0.5511919856071472 4456788 0 -1
-3.597170114517212 4.190942287445068 0.3391950726509094 4456788 0 -1
-4.704120635986328 2.908808708190918 0.1695975363254547 4456788 0 -1
-4.704120635986328 2.908808708190918 0.1695975363254547 4456788 0 -1
-3.517495632171631 4.268154621124268 0.1695975363254547 4456788 0 -1
-3.548874616622925 4.219792366027832 0.46639323234558105 4523353 0 -1
-4.644174575805664 2.965038776397705 -0.5087926387786865 4590430 0 -1
-4.066036701202393 3.7445037364959717 -0.25439631938934326 4590430 0 -1
-3.7307076454162598 4.085744857788086 -0.08479876816272736 4590430 0 -1
-3.4687867164611816 4.209051132202148 0.9327864646911621 4657508 0 -1
3.0505144596099854 4.6117353439331055 0.211996927857399 7589974 6 -1
3.177619218826294 4.525094032287598 0.211996927857399 11197490 6 -1
-3.7594661712646484 4.032002925872803 0.7676782608032227 4456788 0 -1
-3.7952966690063477 4.070430755615234 -0.0852975845336914 4523353 0 -1
-3.6234443187713623 4.221552848815918 0.1705951690673828 4523353 0 -1
-4.810161113739014 2.680612325668335 -0.8103270530700684 4590430 0 -1
-3.7016115188598633 4.138925075531006 -0.38383913040161133 4590430 0 -1
-3.7136223316192627 3.982835531234741 1.151517391204834 4657508 0 -1
-3.4891912937164307 4.233809947967529 0.9382734298706055 4657508 0 -1
3.112539052963257 4.612557888031006 0.1279463768005371 4045940 6 -1
3.0707130432128906 4.642271041870117 0 4505456 6 -1
3.1110761165618896 4.610389709472656 0.21324396133422852 4899181 6 -1
3.02726411819458 4.668968200683594 0.1279463768005371 7589974 6 -1
3.02797532081604 4.670064926147461 -0.0426487922668457 8180304 6 -1
3.02797532081604 4.670064926147461 0.0426487922668457 10016830 6 -1
3.023705244064331 4.663479328155518 -0.2985415458679199 10672695 6 -1
3.1132705211639404 4.613641738891602 0.0426487922668457 11197490 6 -1
3.108880043029785 4.607135772705078 0.2985415458679199 12640037 6 -1
2.840228796005249 4.747668743133545 -0.8579639792442322 2666112 0 -1
2.7699038982391357 4.822544097900391 -0.6434730291366577 2994813 6 -1
2.724773645401001 4.842298984527588 -0.6863712072372437 3651704 6 -1
2.6911377906799316 4.882226943969727 -0.5147783756256104 4505456 6 -1
3.131568670272827 4.640758037567139 0 4505456 6 -1
3.0883076190948486 4.66887092590332 0.08579640090465546 5424489 6 -1
3.0449674129486084 4.696271896362305 0.1286945939064026 7589974 6 -1
3.045682907104492 4.697375297546387 0.04289820045232773 10016830 6 -1
3.0883076190948486 4.66887092590332 -0.08579640090465546 10672695 6 -1
3.088670492172241 4.669418811798096 0 11197490 6 -1
2.8687744140625 4.795384883880615 -0.3431856036186218 12640037 6 -1
2.819287061691284 4.809363842010498 -0.5147783756256104 13164576 6 -1
2.971586227416992 4.770681381225586 -0.345180869102478 2271109 6 -1
3.1496829986572266 4.6676025390625 0.04314760863780975 2271109 6 -1
2.8313093185424805 4.8298726081848145 -0.6040664911270142 2468738 6 -1
3.2792181968688965 4.577729225158691 0 2468738 6 -1
2.9757862091064453 4.777424335479736 -0.172590434551239 2666112 6 -1
3.1920793056488037 4.637105941772461 -0.12944282591342926 2666112 6 -1
2.7927134037017822 4.8622565269470215 -0.517771303653717 2994813 6 -1
3.2356905937194824 4.607790946960449 -0.0862952172756195 2994813 6 -1
3.235975742340088 4.60819673538208 0.04314760863780975 3651704 6 -1
3.149775505065918 4.667739391326904 0 4045940 6 -1
3.105806827545166 4.69532585144043 0.12944282591342926 10016830 6 -1
3.0626707077026367 4.723576068878174 -0.12944282591342926 10672695 6 -1
2.8356783390045166 4.837325572967529 -0.517771303653717 12640037 6 -1
2.8313093185424805 4.8298726081848145 -0.6040664911270142 13164576 6 -1
3.3414721488952637 4.572657108306885 -0.04339701682329178 2271109 6 -1
3.3414721488952637 4.572657108306885 0.04339701682329178 2468738 6 -1
3.254680633544922 4.634833812713623 0.04339701682329178 3651704 6 -1
3.16788911819458 4.694582939147949 0.04339701682329178 4045940 6 -1
3.3415703773498535 4.57279109954834 0 4045940 6 -1
3.2547762393951416 4.634969711303711 0 4505456 6 -1
3.2547762393951416 4.634969711303711 0 4899181 6 -1
3.1664938926696777 4.692514896392822 0.17358806729316711 6933851 6 -1
3.165656328201294 4.6912736892700195 0.2169850766658783 10016830 6 -1
3.211284875869751 4.665005683898926 -0.04339701682329178 10672695 6 -1
3.2110021114349365 4.664594650268555 0.08679403364658356 11197490 6 -1
3.314929246902466 4.272609233856201 -1.7895034551620483 4456788 0 -1
3.3006303310394287 4.607619762420654 -0.5674034953117371 4536450 6 -1
3.226635456085205 4.594895839691162 0.9602213501930237 4471684 6 -1
3.314692974090576 4.627251148223877 -0.21823212504386902 4341894 6 -1
3.2072038650512695 4.388916969299316 1.702210545539856 3238030 0 -1
3.344059467315674 4.576197624206543 -0.5674034953117371 3107982 6 -1
3.3607747554779053 4.599071502685547 0 2912910 6 -1
3.348815441131592 4.582705974578857 -0.48011067509651184 2328718 6 -1
3.359886646270752 4.597856521606445 -0.1309392750263214 2271109 6 -1
3.1860954761505127 4.72156286239624 0.043646425008773804 4045940 6 -1
3.3591957092285156 4.5969109535217285 0.17458570003509521 4045940 6 -1
3.229740619659424 4.6918158531188965 0.043646425008773804 4505456 6 -1
3.273385763168335 4.661470413208008 0.043646425008773804 4899181 6 -1
3.2294561862945557 4.691402912139893 0.08729285001754761 5949540 6 -1
3.1816024780273438 4.71490478515625 0.3055249750614166 6933851 6 -1
3.2298355102539062 4.691953659057617 0 10672695 6 -1
3.2289819717407227 4.690713882446289 -0.1309392750263214 11197490 6 -1
3.379979133605957 4.625351905822754 0 4456788 6 -1
3.3719325065612793 4.614340782165527 -0.39506250619888306 4536450 6 -1
3.324212074279785 4.640539646148682 -0.4828541576862335 4471684 6 -1
3.3764052391052246 4.620461463928223 -0.2633749842643738 4341894 6 -1
3.3764052391052246 4.620461463928223 -0.2633749842643738 3238030 6 -1
3.1967670917510986 4.737377643585205 -0.39506250619888306 2458766 6 -1
3.3736228942871094 4.616653919219971 -0.35116666555404663 2458766 6 -1
3.370042085647583 4.611753940582275 -0.4389583170413971 2328718 6 -1
3.377497673034668 4.6219563484191895 -0.21947915852069855 2271109 6 -1
3.379582166671753 4.6248087882995605 0.08779166638851166 2666112 6 -1
3.2482917308807373 4.718764781951904 0 4505456 6 -1
3.292187452316284 4.6882452964782715 0 4899181 6 -1
3.247910261154175 4.718210697174072 0.08779166638851166 5949540 6 -1
3.2459068298339844 4.715300559997559 0.21947915852069855 6933851 6 -1
3.246765613555908 4.716547966003418 0.17558333277702332 10672695 6 -1
3.3281409740448 4.646024703979492 0.39506250619888306 12640037 6 -1
3.439687967300415 4.614165782928467 -0.2648714482784271 4471684 6 -1
3.3975865840911865 4.649446964263916 -0.17658096551895142 4341894 6 -1
3.3927910327911377 4.642884731292725 -0.35316193103790283 3887499 6 -1
3.3927910327911377 4.642884731292725 -0.35316193103790283 3757452 6 -1
3.440800666809082 4.615658760070801 -0.22072620689868927 3238030 6 -1
3.3927910327911377 4.642884731292725 -0.35316193103790283 2328718 6 -1
3.3550384044647217 4.683572769165039 0 2271109 6 -1
3.1320109367370605 4.830519676208496 -0.22072620689868927 4045940 6 -1
3.2643494606018066 4.742092132568359 -0.22072620689868927 4899181 6 -1
3.3990838527679443 4.651495933532715 0.044145241379737854 5424489 6 -1
3.2606043815612793 4.73665189743042 0.35316193103790283 6933851 6 -1
3.354151725769043 4.682334899902344 0.13243572413921356 7589974 6 -1
3.309337615966797 4.712667942047119 0.17658096551895142 10672695 6 -1
3.341747522354126 4.6650190353393555 -0.7991036772727966 4725613 6 -1
3.417658805847168 4.5846147537231445 -0.9322876334190369 4536450 0 -1
3.4545388221740723 4.634087562561035 -0.3995518386363983 3887499 6 -1
3.411959409713745 4.6691155433654785 -0.35515719652175903 3757452 6 -1
3.4577980041503906 4.638459205627441 -0.31076255440711975 3692940 6 -1
3.4158782958984375 4.674478530883789 -0.2219732403755188 3562893 6 -1
3.328718900680542 4.740267753601074 -0.13318394124507904 2588302 6 -1
3.4577980041503906 4.638459205627441 -0.31076255440711975 2588302 6 -1
3.3735971450805664 4.709480285644531 0.08878929913043976 2271109 6 -1
3.364039421081543 4.69613790512085 -0.7589489817619324 4590430 6 -1
3.364039421081543 4.69613790512085 -0.7589489817619324 4725613 6 -1
3.3733694553375244 4.70916223526001 -0.6250168085098267 4726897 6 -1
3.4591591358184814 4.640285491943359 -0.6696608662605286 4536450 6 -1
3.3020875453948975 4.609654426574707 -1.3393217325210571 3562893 0 -1
3.4116601943969727 4.66870641708374 -0.7143049240112305 2199437 6 -1
3.4148108959198 4.673017978668213 -0.6696608662605286 2134668 6 -1
3.1359565258026123 4.836605072021484 0.8482370972633362 4045940 6 -1
3.2474191188812256 4.812440395355225 0.49108463525772095 4505456 6 -1
3.124366521835327 4.818729400634766 0.9821692705154419 4899181 6 -1
3.2845964431762695 4.771504878997803 0.6250168085098267 6933851 6 -1
3.3893606662750244 4.731485843658447 0.2678643465042114 12640037 6 -1
3.38806414604187 4.729676246643066 0.31250840425491333 13164576 6 -1
3.3792953491210938 4.717434883117676 -0.8080824017524719 4725613 6 -1
3.436849355697632 4.703176498413086 -0.6285085082054138 4726897 6 -1
3.4018726348876953 4.748952388763428 -0.4489346444606781 2134668 6 -1
3.5736145973205566 4.6060285568237305 -0.5836150646209717 2134668 6 -1
3.347580671310425 4.767127990722656 -0.6285085082054138 2070155 6 -1
3.213677406311035 4.858403205871582 0.6285085082054138 4045940 6 -1
3.249300003051758 4.815227508544922 0.763188898563385 6343264 6 -1
3.300100326538086 4.794026851654053 0.6734020113945007 6933851 6 -1
3.2903664112091064 4.779886722564697 0.8080824017524719 10016830 6 -1
3.2079458236694336 4.849738121032715 0.7182954549789429 10672695 6 -1
3.3792953491210938 4.717434883117676 0.8080824017524719 10672695 6 -1
3.29705548286438 4.7896037101745605 0.7182954549789429 11197490 6 -1
3.344696283340454 4.7630205154418945 0.6734020113945007 11918891 6 -1
3.300100326538086 4.794026851654053 0.6734020113945007 12640037 6 -1
3.409398317337036 4.759458065032959 0.22446732223033905 13164576 6 -1
3.2930102348327637 4.880002975463867 -0.22571437060832977 2994813 6 -1
3.2037723064422607 4.843429088592529 0.9931432008743286 6343264 6 -1
3.2037723064422607 4.843429088592529 0.9931432008743286 6343264 6 -1
3.2705700397491455 4.846748352050781 0.7222859859466553 6933851 6 -1
3.3086464405059814 4.806441783905029 0.8125717043876648 10016830 6 -1
3.3415961265563965 4.758605480194092 0.9480003714561462 10672695 6 -1
3.3533577919006348 4.775354862213135 0.8125717043876648 11197490 6 -1
3.4049770832061768 4.753286361694336 0.7222859859466553 11918891 6 -1
3.413794755935669 4.765595436096191 0.5868573784828186 12640037 6 -1
3.288285970687866 4.776864528656006 1.0382860898971558 13164576 6 -1
-3.4802141189575195 4.668529510498047 -1.0894147157669067 4456788 0 -1
-3.5859901905059814 4.715353488922119 0 4456788 0 -1
-3.713305711746216 4.5976457595825195 0.4085305333137512 4523353 0 -1
-3.3963162899017334 4.836529731750488 -0.4085305333137512 4523353 0 -1
-3.5436313152313232 4.659654140472412 0.9078456163406372 4590430 0 -1
3.211383581161499 4.95293664932251 -0.4993151128292084 4724328 6 -1
3.3554770946502686 4.874472141265869 0.2723536789417267 6933851 6 -1
2.9501519203186035 5.136364936828613 0.09078456461429596 8705099 6 -1
3.174099922180176 4.994476318359375 0.2723536789417267 8705099 6 -1
3.2658448219299316 4.93726921081543 0.2269614040851593 10016830 6 -1
3.5517184734344482 4.6702880859375 0.8170610666275024 10016830 6 -1
3.4696238040924072 4.654323101043701 1.180199384689331 10672695 0 -1
3.360057830810547 4.784896373748779 0.9532378911972046 11197490 6 -1
3.420419931411743 4.774844169616699 0.7716687917709351 11918891 6 -1
3.47503662109375 4.755434036254883 0.6354919672012329 12640037 6 -1
3.351135015487671 4.772189617156982 1.0440224409103394 13164576 6 -1
3.6056935787200928 4.741261959075928 0 4456788 6 -1
-3.696868419647217 4.670296669006348 -0.045641690492630005 4456788 0 -1
-3.691655158996582 4.663710594177246 -0.31949183344841003 4456788 0 -1
-3.6440699100494385 4.603595733642578 1.0041171312332153 4456788 0 -1
-3.501904249191284 4.792201042175293 0.5020585656166077 4456788 0 -1
-3.78648042678833 4.594542980194092 0.18256676197052002 4456788 0 -1
-3.560051918029785 4.775627613067627 0 4456788 0 -1
-4.5620245933532715 3.825596570968628 -0.18256676197052002 4456788 0 -1
-3.695240020751953 4.668239593505859 -0.18256676197052002 4456788 0 -1
-3.694262742996216 4.667004585266113 0.22820845246315002 4523353 0 -1
-3.620224714279175 4.666104316711426 0.7759087085723877 4590430 0 -1
-3.74250864982605 4.633803367614746 -0.045641690492630005 4657508 0 -1
-3.620224714279175 4.666104316711426 -0.7759087085723877 4664956 0 -1
3.435616970062256 4.796058654785156 0.8215504288673401 6933851 6 -1
3.476966142654419 4.758074760437012 0.8671920895576477 10672695 6 -1
3.487898588180542 4.773035049438477 0.7302670478820801 11197490 6 -1
3.435616970062256 4.796058654785156 0.8215504288673401 11918891 6 -1
3.491119623184204 4.777442932128906 0.6846253275871277 12640037 6 -1
3.4235665798187256 4.779236793518066 0.9584754705429077 13164576 6 -1
-3.7161967754364014 4.694714546203613 -0.1376732885837555 4456788 0 -1
-3.669563055038452 4.729696273803711 -0.18356439471244812 4456788 0 -1
-3.703951597213745 4.6792449951171875 -0.5048021078109741 4456788 0 -1
-3.4753124713897705 4.851473331451416 -0.5048021078109741 4456788 0 -1
-3.7613019943237305 4.6570725440979 0.18356439471244812 4456788 0 -1
-3.5326807498931885 4.834317684173584 0.1376732885837555 4456788 0 -1
-4.588974952697754 3.848196506500244 -0.04589109867811203 4456788 0 -1
-3.671180009841919 4.731780529022217 0.04589109867811203 4456788 0 -1
-3.7161967754364014 4.694714546203613 0.1376732885837555 4523353 0 -1
-3.5825724601745605 4.7108588218688965 0.9178219437599182 4590430 0 -1
-3.7171790599823 4.695955276489258 0 4657508 0 -1
-4.037349700927734 4.421568870544434 -0.1376732885837555 4724328 0 -1
-3.6660029888153076 4.725107669830322 -0.3212376832962036 4724328 0 -1
-3.6855075359344482 4.655944347381592 -0.7801486849784851 4725613 0 -1
-3.442274570465088 4.805353164672852 -0.9637130498886108 4725613 0 -1
-3.6986911296844482 4.6725993156433105 -0.5965842604637146 4664956 0 -1
-3.4774696826934814 4.854484558105469 -0.4589109718799591 4664956 0 -1
-3.6501026153564453 4.70461368560791 -0.6424753665924072 4600703 0 -1
3.3402011394500732 4.949936389923096 0.4589109718799591 2070922 6 -1
3.4402153491973877 4.899044513702393 0.18356439471244812 5949540 6 -1
3.4125068187713623 4.859586238861084 0.7801486849784851 9360965 6 -1
3.5160398483276367 4.811544895172119 0.5965842604637146 10016830 6 -1
3.5160398483276367 4.811544895172119 0.5965842604637146 11197490 6 -1
-3.633465051651001 4.683169841766357 -1.0612316131591797 4456788 0 -1
-3.63985276222229 4.786179065704346 -0.3229835331439972 4456788 0 -1
-3.6803884506225586 4.743649005889893 -0.46140506863594055 4456788 0 -1
-3.6633949279785156 4.72174596786499 -0.7382481098175049 4456788 0 -1
-3.64467191696167 4.792516231536865 -0.09228101372718811 4456788 0 -1
-3.688530445098877 4.754143238067627 -0.23070253431797028 4523353 0 -1
-3.6296582221984863 4.7727742195129395 -0.5536860823631287 4590430 0 -1
-3.6296582221984863 4.7727742195129395 -0.5536860823631287 4657508 0 -1
-3.644136905670166 4.791812419891357 -0.13842152059078217 4724328 0 -1
-3.6296582221984863 4.7727742195129395 -0.5536860823631287 4725613 0 -1
-3.443326711654663 4.903475284576416 -0.5998265743255615 4725613 0 -1
-3.63985276222229 4.786179065704346 -0.3229835331439972 4664956 0 -1
-3.4540302753448486 4.918717384338379 -0.36912405490875244 4664956 0 -1
-3.6269707679748535 4.769239902496338 -0.5998265743255615 4600703 0 -1
3.3173341751098633 5.015110492706299 0.3229835331439972 2328718 6 -1
3.1761155128479004 5.099039554595947 0.4152645468711853 2070922 6 -1
3.3619227409362793 4.982126235961914 0.36912405490875244 2666112 6 -1
3.4768004417419434 4.853550434112549 0.7843886017799377 10672695 6 -1
-3.633578062057495 4.777928352355957 -0.7886285185813904 4456788 0 -1
-3.649278163909912 4.798572540283203 -0.5566789507865906 4456788 0 -1
-3.64365553855896 4.791179656982422 -0.6494588255882263 4456788 0 -1
-3.6297781467437744 4.7729315757751465 -0.8350184559822083 4456788 0 -1
-3.7131972312927246 4.690925121307373 -0.9277982711791992 4456788 0 -1
-3.5514111518859863 4.859949111938477 -0.6494588255882263 4456788 0 -1
-3.64365553855896 4.791179656982422 -0.6494588255882263 4523353 0 -1
-3.749534845352173 4.642502784729004 -1.020578145980835 4590430 0 -1
-3.600416898727417 4.829775333404541 -0.6030688881874084 4590430 0 -1
-3.6371572017669678 4.782634258270264 -0.7422386407852173 4657508 0 -1
-3.6097989082336426 4.842360973358154 -0.4175092279911041 4724328 0 -1
-3.64365553855896 4.791179656982422 -0.6494588255882263 4725613 0 -1
3.382882833480835 5.013187885284424 0.2783394753932953 3757452 6 -1
3.3765077590942383 5.003740310668945 0.4638991355895996 2271109 6 -1
3.4227612018585205 4.972215175628662 0.4638991355895996 2666112 6 -1
3.4263978004455566 4.977498531341553 0.37111932039260864 2994813 6 -1
-3.9255194664001465 5.265883922576904 0.3022826611995697 4523353 0 -1
-3.6093509197235107 5.456578254699707 -0.6549457907676697 4523353 0 -1
-3.8217132091522217 5.335042476654053 0.40304356813430786 4590430 0 -1
-3.941701889038086 5.287591934204102 0.40503883361816406 4523353 0 -1
-3.62990665435791 5.487654209136963 -0.6075582504272461 4523353 0 -1
-3.8928868770599365 5.327243804931641 0.35440897941589355 4590430 0 -1
-3.951770305633545 5.301097869873047 0.610551118850708 4523353 0 -1
-3.662876605987549 5.5374979972839355 -0.10175852477550507 4523353 0 -1
-3.8576180934906006 5.385164737701416 0.457913339138031 4590430 0 -1
-3.8752870559692383 5.303158760070801 -1.1759593486785889 4456788 0 -1
-3.7284462451934814 5.525287628173828 -0.30677202343940735 4456788 0 -1
-3.7764062881469727 5.485952377319336 -0.40902936458587646 4456788 0 -1
-3.7306392192840576 5.528537750244141 -0.20451468229293823 4523353 0 -1
-3.6773717403411865 5.55941104888916 0.30677202343940735 4590430 0 -1
-4.029548645019531 5.298604965209961 0.46015802025794983 4657508 0 -1
-3.7306392192840576 5.528537750244141 -0.20451468229293823 4657508 0 -1
-3.7314066886901855 5.529674530029297 -0.15338601171970367 4724328 0 -1
-3.9028992652893066 5.448376655578613 -0.20551231503486633 4456788 0 -1
-3.847808837890625 5.47947883605957 -0.3596465289592743 4523353 0 -1
-3.7991864681243896 5.519044876098633 -0.2568903863430023 4590430 0 -1
-3.866487503051758 5.506078243255615 -0.36139240860939026 4523353 0 -1
-3.869218587875366 5.50996732711792 -0.25813743472099304 4590430 0 -1
-3.890652894973755 5.540490627288818 -0.051876895129680634 4523353 0 -1
-2.416614532470703 6.748179912567139 -0.6063112020492554 4456788 4 -1
-2.41811466217041 6.752368450164795 -0.5511919856071472 4456788 4 -1
-2.545759439468384 6.759066104888916 -0.22147442400455475 4456788 4 -1
-2.3252084255218506 6.84076452255249 -0.11073721200227737 4456788 4 -1
-2.488952875137329 6.775667190551758 -0.3322116434574127 4456788 4 -1
-2.4350740909576416 6.799726486206055 -0.22147442400455475 4456788 4 -1
-2.435575008392334 6.8011250495910645 -0.16610582172870636 4456788 4 -1
-2.435575008392334 6.8011250495910645 -0.16610582172870636 4456788 4 -1
-2.4344301223754883 6.7979278564453125 -0.27684304118156433 4456788 4 -1
-2.429056406021118 6.782922267913818 -0.5536860823631287 4456788 4 -1
-2.4316372871398926 6.7901291847229 -0.4429488480091095 4456788 4 -1
-2.4869017601013184 6.770083904266357 -0.4429488480091095 4456788 4 -1
-2.2541894912719727 6.4595417976379395 2.325481414794922 4456788 0 -1
-2.5016348361968994 6.810191631317139 -0.22247205674648285 4456788 4 -1
-2.500164270401001 6.806188106536865 -0.33370810747146606 4456788 4 -1
-2.4453959465026855 6.828549385070801 -0.27809008955955505 4456788 4 -1
-2.446043014526367 6.830355644226074 -0.22247205674648285 4456788 4 -1
-2.4436700344085693 6.823729515075684 -0.3893260955810547 4456788 4 -1
-2.5967230796813965 6.726619243621826 -0.8342702388763428 4456788 4 -1
-2.3890459537506104 6.845982551574707 -0.33370810747146606 4456788 4 -1
-2.4436700344085693 6.823729515075684 -0.3893260955810547 4456788 4 -1
-2.4436700344085693 6.823729515075684 -0.3893260955810547 4456788 4 -1
-2.439998149871826 6.813476085662842 -0.5561801791191101 4456788 4 -1
-2.439998149871826 6.813476085662842 -0.5561801791191101 4456788 4 -1
-4.504927158355713 5.691126346588135 0.05561801418662071 4456788 0 -1
-2.5623459815979004 6.803104400634766 -0.5586742162704468 4456788 4 -1
-2.51218843460083 6.838921546936035 -0.2793371081352234 4456788 4 -1
-2.5104150772094727 6.834094047546387 -0.39107197523117065 4456788 4 -1
-2.456362009048462 6.859170436859131 -0.2793371081352234 4456788 4 -1
-2.5550718307495117 6.7837910652160645 -0.7821439504623413 4456788 4 -1
-2.6752521991729736 6.763887405395508 -0.5028068423271179 4456788 4 -1
-2.4535439014434814 6.851301670074463 -0.4469393789768219 4456788 4 -1
-2.4555673599243164 6.85695219039917 -0.335204541683197 4456788 4 -1
-2.4477531909942627 6.8351311683654785 -0.670409083366394 4456788 4 -1
-2.4477531909942627 6.8351311683654785 -0.670409083366394 4456788 4 -1
-2.5806920528411865 6.851813793182373 -0.16835050284862518 4456788 4 -1
-2.581298589706421 6.853423595428467 -0.05611683055758476 4456788 4 -1
-2.63749098777771 6.832225799560547 0 4456788 4 -1
-2.6916303634643555 6.805296897888184 -0.2805841565132141 4456788 4 -1
-2.4586806297302246 6.865645408630371 -0.6734020113945007 4456788 4 -1
-2.5737850666046143 6.833475589752197 -0.5611683130264282 4456788 4 -1
-2.6916303634643555 6.805296897888184 -0.2805841565132141 4456788 4 -1
-2.6222715377807617 6.792800426483154 -0.7856356501579285 4456788 4 -1
-2.4603543281555176 6.87031888961792 -0.6172851324081421 4456788 4 -1
-4.489214897155762 5.786144733428955 -0.05611683055758476 4456788 0 -1
-5.235189437866211 5.042052268981934 -0.8978692889213562 4724328 0 -1
-4.9359612464904785 5.405697822570801 -0.22446732223033905 4724328 0 -1
-3.6389102935791016 6.335528373718262 -0.5050514936447144 4724328 0 -1
-2.736048698425293 6.754073143005371 -0.7295188307762146 7589974 4 -1
-2.684022903442383 6.786062717437744 -0.6172851324081421 8705099 4 -1
-2.5928471088409424 6.884085178375244 0 4456788 4 -1
-2.5925426483154297 6.88327693939209 0.11273247748613358 4456788 4 -1
-2.547173500061035 6.440063953399658 -2.480114459991455 4456788 0 -1
-2.5358104705810547 6.903228282928467 0.16909871995449066 4456788 4 -1
-2.874340772628784 6.770446300506592 0.11273247748613358 4456788 4 -1
-4.27766752243042 5.971546173095703 0.3945636749267578 4456788 0 -1
-4.509299278259277 5.812031269073486 0 4456788 0 -1
-4.2591142654418945 5.945646286010742 0.7891273498535156 4523353 0 -1
-4.486871719360352 5.7831244468688965 0.7327611446380615 4590430 0 -1
-3.4942965507507324 6.472300052642822 -0.11273247748613358 4657508 0 -1
-2.8998160362243652 6.675148010253906 1.0709586143493652 4657508 0 -1
-4.954984188079834 5.4265313148498535 -0.3381974399089813 4724328 0 -1
-2.6608574390411377 6.892754077911377 -0.05661564692854881 4456788 4 -1
-2.6040139198303223 6.913733959197998 0.11323129385709763 4456788 4 -1
-2.593287229537964 6.88525390625 0.6793878078460693 4456788 0 -1
-2.7734336853027344 6.846359729766846 0.16984695196151733 4456788 4 -1
-2.6005709171295166 6.904592514038086 0.3963095247745514 4456788 4 -1
-4.296595573425293 5.997969150543213 0.3963095247745514 4456788 0 -1
-4.528719902038574 5.837062835693359 0.11323129385709763 4456788 0 -1
-4.287477970123291 5.985241413116455 0.6227721571922302 4523353 0 -1
-4.515935897827148 5.82058572769165 0.5661565065383911 4590430 0 -1
-6.057162761688232 4.229820728302002 -0.11323129385709763 4657508 0 -1
-4.8087968826293945 5.602567672729492 -0.28307825326919556 4657508 0 -1
-4.3531293869018555 5.957065582275391 0.3963095247745514 4657508 0 -1
-2.912647008895874 6.704684257507324 1.0756973028182983 4657508 0 -1
-2.6915791034698486 6.805167198181152 -1.019081711769104 4657508 0 -1
-2.9452502727508545 6.480154037475586 -1.9815477132797241 2328718 0 -1
-2.672579288482666 6.923118591308594 0.05686505511403084 4456788 4 -1
-2.6130266189575195 6.9376630783081055 0.3411903381347656 4456788 4 -1
-2.55825138092041 6.964318752288818 0.1705951690673828 4456788 4 -1
-2.785651445388794 6.876520156860352 0.1705951690673828 4456788 4 -1
-2.8379058837890625 6.842135906219482 0.4549204409122467 4456788 4 -1
-4.661702632904053 5.771907329559326 -0.1705951690673828 4456788 0 -1
-4.321236610412598 6.032368183135986 0.11373011022806168 4456788 0 -1
-4.549070835113525 5.863293170928955 0.05686505511403084 4456788 0 -1
-4.376552104949951 5.989118576049805 0.22746022045612335 4523353 0 -1
-6.082953453063965 4.247830390930176 -0.1705951690673828 4657508 0 -1
-2.8692188262939453 6.7583818435668945 1.080436110496521 4657508 0 -1
-2.7414941787719727 6.931368827819824 0 4456788 4 -1
-2.7414138317108154 6.9311652183532715 -0.05711446329951286 4456788 4 -1
-2.680515766143799 6.9436774253845215 0.39980125427246094 4456788 4 -1
-2.4940788745880127 6.964491844177246 0.9138314127922058 4456788 0 -1
-2.5553197860717773 6.956337928771973 0.7996025085449219 4456788 0 -1
-2.7375478744506836 6.921391010284424 0.39980125427246094 4456788 4 -1
-2.795649528503418 6.901200771331787 0.3426867723464966 4456788 4 -1
-2.854381561279297 6.8818583488464355 0.22845785319805145 4456788 4 -1
-2.854381561279297 6.8818583488464355 0.22845785319805145 4456788 4 -1
-4.51204252243042 5.933054447174072 0 4456788 0 -1
-2.8252971172332764 6.811736583709717 1.085174798965454 4657508 0 -1
-2.8252971172332764 6.811736583709717 1.085174798965454 4657508 0 -1
-2.694122552871704 6.9789252281188965 0.28681936860084534 4456788 4 -1
-2.50250506401062 6.988021373748779 0.9751858115196228 4456788 0 -1
-2.753385066986084 6.961432456970215 0.05736387148499489 4456788 4 -1
-2.521341562271118 7.04062032699585 -0.3441832363605499 4456788 4 -1
-2.746910810470581 6.94506311416626 0.5162748694419861 4456788 4 -1
-2.810086965560913 6.936840534210205 0.17209161818027496 4456788 4 -1
-2.581298589706421 7.027059555053711 0.05736387148499489 4456788 4 -1
-2.7514443397521973 6.956525802612305 0.28681936860084534 4456788 4 -1
-2.749502182006836 6.951615333557129 0.4015471041202545 4456788 4 -1
-2.8078575134277344 6.931336879730225 0.3441832363605499 4456788 4 -1
-2.804137945175171 6.922154903411865 0.5162748694419861 4456788 4 -1
-2.804137945175171 6.922154903411865 0.5162748694419861 4456788 4 -1
-4.474381923675537 6.002155303955078 0 4456788 0 -1
-2.6482651233673096 7.031222343444824 0.28806641697883606 4456788 4 -1
-2.7614567279815674 6.981839656829834 0.4032929539680481 4456788 4 -1
-2.505040407180786 6.995100498199463 1.1522656679153442 4456788 0 -1
-2.8223047256469727 6.967000484466553 0.17283983528614044 4456788 4 -1
-2.5588133335113525 6.965848445892334 1.209878921508789 4456788 0 -1
-2.7602367401123047 6.978755950927734 0.4609062373638153 4456788 4 -1
-2.8209781646728516 6.963725566864014 0.28806641697883606 4456788 4 -1
-2.705836057662964 7.009268283843994 0.28806641697883606 4456788 4 -1
-2.817741870880127 6.9557366371154785 0.4609062373638153 4456788 4 -1
-2.817741870880127 6.9557366371154785 0.4609062373638153 4456788 4 -1
-2.6452269554138184 7.023155689239502 0.4609062373638153 4456788 4 -1
-2.7634072303771973 6.986771583557129 0.28806641697883606 4456788 4 -1
-2.82006573677063 6.96147346496582 -0.3456796705722809 6933851 4 -1
-2.6613712310791016 7.066019058227539 0.11572537571191788 4456788 4 -1
-2.718827724456787 7.042922019958496 0.17358806729316711 4456788 4 -1
-2.718827724456787 7.042922019958496 0.17358806729316711 4456788 4 -1
-2.775369882583618 7.017017364501953 0.2893134355545044 4456788 4 -1
-2.833939790725708 6.995721817016602 0.23145075142383575 4456788 4 -1
-2.774472236633301 7.014747619628906 0.34717613458633423 4456788 4 -1
-2.718268632888794 7.041473865509033 0.23145075142383575 4456788 4 -1
-2.888969898223877 6.965250015258789 0.40503883361816406 4456788 4 -1
-2.8345224857330322 6.997160911560059 0.17358806729316711 4456788 4 -1
-2.6037445068359375 7.088164329528809 -0.05786268785595894 4456788 4 -1
-2.6566781997680664 7.053558826446533 0.4629015028476715 4456788 4 -1
-2.718827724456787 7.042922019958496 0.17358806729316711 4456788 4 -1
-2.775369882583618 7.017017364501953 -0.2893134355545044 10016830 4 -1
-2.7880702018737793 7.049127578735352 0.23244838416576385 4456788 4 -1
-2.6147372722625732 7.1180901527404785 0.11622419208288193 4456788 4 -1
-2.8461549282073975 7.025876045227051 0.23244838416576385 4456788 4 -1
-2.5566320419311523 7.139165878295898 -0.11622419208288193 4456788 4 -1
-2.6703298091888428 7.089804649353027 -0.3486725687980652 4456788 4 -1
-2.846740245819092 7.027320861816406 0.1743362843990326 4456788 4 -1
-2.7880702018737793 7.049127578735352 0.23244838416576385 4456788 4 -1
-2.7311882972717285 7.074941635131836 -0.058112096041440964 4456788 4 -1
-2.963629961013794 6.980765342712402 0.058112096041440964 4456788 4 -1
-2.671193838119507 7.092098712921143 -0.2905604839324951 4456788 4 -1
-2.7311882972717285 7.074941635131836 0.058112096041440964 4456788 4 -1
-3.001802921295166 6.909914016723633 -0.8716814517974854 5949540 0 -1
-2.8863489627838135 6.9589314460754395 -0.8716814517974854 6933851 0 -1
-2.8454906940460205 7.02423620223999 -0.7586995959281921 4456788 4 -1
-2.799295663833618 7.077508926391602 0.29180753231048584 4456788 4 -1
-2.567227602005005 7.168753147125244 0.17508451640605927 4456788 4 -1
-2.799295663833618 7.077508926391602 0.29180753231048584 4456788 4 -1
-2.626190662384033 7.1492695808410645 0.05836150422692299 4456788 4 -1
-2.858370304107666 7.056029796600342 0.23344601690769196 4456788 4 -1
-2.858370304107666 7.056029796600342 0.23344601690769196 4456788 4 -1
-2.6250338554382324 7.146120548248291 0.23344601690769196 4456788 4 -1
-2.856689929962158 7.051882266998291 0.35016903281211853 4456788 4 -1
-2.683919906616211 7.1258864402771 -0.17508451640605927 4456788 4 -1
-2.930201530456543 7.064659118652344 -0.11722182482481003 4456788 4 -1
-2.517604351043701 7.214376449584961 0.3516654670238495 4456788 4 -1
-2.635554790496826 7.1747612953186035 0.29305458068847656 4456788 4 -1
-2.6957852840423584 7.1573896408081055 0.11722182482481003 4456788 4 -1
-2.6948354244232178 7.154867172241211 0.23444364964962006 4456788 4 -1
-2.811258316040039 7.107754707336426 0.29305458068847656 4456788 4 -1
-2.8715975284576416 7.088682174682617 0.11722182482481003 4456788 4 -1
-2.636794090270996 7.178135395050049 -0.17583273351192474 4456788 4 -1
-2.726529359817505 6.730574131011963 -2.403047561645508 4456788 0 -1
-2.636251926422119 7.17665958404541 -0.23444364964962006 4456788 4 -1
-2.635554790496826 7.1747612953186035 -0.29305458068847656 6933851 4 -1
-2.5861260890960693 7.221525192260742 0.41202226281166077 4456788 4 -1
-2.64591383934021 7.202961444854736 0.35316193103790283 4456788 4 -1
-2.93748140335083 7.082211017608643 0.4708825647830963 4456788 4 -1
-2.7663538455963135 7.166035175323486 0.05886032059788704 4456788 4 -1
-2.8833935260772705 7.117801666259766 0.17658096551895142 4456788 4 -1
-2.8787319660186768 7.106293678283691 0.4708825647830963 4456788 4 -1
