VERSION .7
FIELDS x y z rgb label object
SIZE 4 4 4 4 4 4
TYPE F F F I I I
COUNT 1 1 1 1 1 1
WIDTH 678
HEIGHT 1
POINTS 678
VIEWPOINT 0 0 0 1 0 0 0
DATA ascii
0.36073169112205505 1.7743953466415405 -0.20950284600257874 4657508 0 -1
0.3337845206260681 1.784095048904419 -0.1676022708415985 4724328 0 -1
0.056783199310302734 1.8517804145812988 -0.09951385110616684 4456788 0 -1
-1.0024831295013428 2.4169671535491943 -0.3232329487800598 4456788 0 -1
-0.8483868837356567 2.495954751968384 0.04040411859750748 4456788 0 -1
-0.7456966638565063 2.522312641143799 0.18181852996349335 4456788 0 -1
-1.5785298347473145 2.0345656871795654 -0.5656576752662659 4456788 0 -1
-0.34318286180496216 2.612126588821411 0.10101030021905899 4456788 0 -1
-1.488619327545166 2.1625044345855713 -0.24242471158504486 4456788 0 -1
-0.7262272238731384 2.530568838119507 0.14141441881656647 4456788 0 -1
-0.5989027619361877 2.5355963706970215 0.40404120087623596 4456788 0 -1
-0.5989027619361877 2.5355963706970215 0.40404120087623596 4456788 0 -1
-0.26200154423713684 2.6171510219573975 0.18181852996349335 4456788 0 -1
-1.3535380363464355 2.2625465393066406 0 4456788 0 -1
-0.26169222593307495 2.6140613555908203 0.22222265601158142 4456788 0 -1
-1.3503155708312988 2.257160186767578 -0.18181852996349335 4456788 0 -1
-1.469502568244934 2.177696466445923 -0.22222265601158142 4456788 0 -1
-1.231420874595642 2.329073190689087 -0.10101030021905899 4456788 0 -1
-0.30295082926750183 2.618345022201538 0.060606177896261215 4456788 0 -1
-1.4337323904037476 2.167501449584961 -0.44444531202316284 4456788 0 -1
-0.28229695558547974 2.616365909576416 0.1616164743900299 4456788 0 -1
-1.5785298347473145 2.0345656871795654 -0.5656576752662659 4523353 0 -1
-0.8670549392700195 2.4846081733703613 -0.1616164743900299 4523353 0 -1
-0.3231949806213379 2.6163132190704346 0.04040411859750748 4523353 0 -1
-1.4822149276733398 2.15320086479187 -0.34343501925468445 4724328 0 -1
-0.26169222593307495 2.6140613555908203 0.22222265601158142 4724328 0 -1
-1.912366271018982 1.8012925386428833 -0.22222265601158142 4725613 0 -1
-1.4590377807617188 2.1621885299682617 -0.38383913040161133 4725613 0 -1
-1.3525441884994507 2.26088547706604 -0.10101030021905899 4725613 0 -1
-0.2008548378944397 2.61358904838562 0.28282883763313293 4725613 0 -1
-1.4855318069458008 2.2014505863189697 -0.2658690810203552 4456788 0 -1
-1.308740258216858 2.3258121013641357 0.04090293496847153 4456788 0 -1
-1.9346587657928467 1.8222901821136475 -0.24541760981082916 4456788 0 -1
-1.5005139112472534 2.179783582687378 -0.3476749360561371 4456788 0 -1
-1.349757194519043 2.302523136138916 0.020451467484235764 4456788 0 -1
-2.0809364318847656 1.5775507688522339 -0.5521896481513977 4456788 0 -1
-1.5192008018493652 2.1634204387664795 -0.36812642216682434 4456788 0 -1
-1.5046755075454712 2.185828924179077 -0.2863205373287201 4456788 0 -1
-1.3293063640594482 2.314390182495117 0.020451467484235764 4456788 0 -1
-1.5207911729812622 2.1656851768493652 -0.3476749360561371 4456788 0 -1
-1.5069973468780518 2.189201831817627 -0.24541760981082916 4456788 0 -1
-1.503378987312317 2.183945655822754 -0.30677202343940735 4456788 0 -1
-1.4989447593688965 2.177504062652588 -0.36812642216682434 4456788 0 -1
-1.497284173965454 2.175091505050659 -0.3885778784751892 4456788 0 -1
-1.3696045875549316 2.289403200149536 -0.08180586993694305 4456788 0 -1
-1.968827247619629 1.772151231765747 -0.3272234797477722 4456788 0 -1
-1.6127030849456787 2.078611373901367 -0.4499322772026062 4456788 0 -1
-1.388697862625122 2.2748405933380127 -0.14316026866436005 4456788 0 -1
-1.5207911729812622 2.1656851768493652 -0.3476749360561371 4456788 0 -1
-1.4936872720718384 2.1698665618896484 -0.42948082089424133 4456788 0 -1
-1.5501147508621216 2.1212635040283203 -0.47038376331329346 4456788 0 -1
-1.5207911729812622 2.1656851768493652 -0.3476749360561371 4523353 0 -1
-1.4989447593688965 2.177504062652588 -0.36812642216682434 4657508 0 -1
-1.5138722658157349 2.155832290649414 -0.42948082089424133 4724328 0 -1
-1.388697862625122 2.2748405933380127 -0.14316026866436005 4724328 0 -1
-1.505454182624817 2.1438446044921875 -0.5112866759300232 4725613 0 -1
-1.3676714897155762 2.2861719131469727 -0.1636117398738861 4725613 0 -1
-1.8992486000061035 1.869822382926941 -0.14316026866436005 4726897 0 -1
-1.5098520517349243 2.1501073837280273 -0.47038376331329346 4726897 0 -1
-1.3892292976379395 2.2757110595703125 -0.12270880490541458 4726897 0 -1
-1.495531678199768 2.172545909881592 -0.40902936458587646 4536450 0 -1
-1.3892292976379395 2.2757110595703125 -0.12270880490541458 4536450 0 -1
-2.000778913497925 1.7185617685317993 -0.40902936458587646 4471684 0 -1
-1.3682758808135986 2.287182092666626 -0.14316026866436005 4471684 0 -1
-1.625274658203125 2.0948147773742676 0.30677202343940735 4341894 0 -1
-1.5138722658157349 2.155832290649414 -0.42948082089424133 2912910 0 -1
-1.390658974647522 2.278053045272827 0.020451467484235764 2458766 0 -1
-1.4997642040252686 2.2225420475006104 -0.3312140107154846 4456788 0 -1
-1.539337396621704 2.192095994949341 -0.3519148826599121 4456788 0 -1
-1.518812894821167 2.2063663005828857 -0.3519148826599121 4456788 0 -1
-1.3867957592010498 2.3181397914886475 -0.04140175133943558 4456788 0 -1
-1.5342262983322144 2.1848175525665283 -0.41401752829551697 4456788 0 -1
-1.5408536195755005 2.1942551136016846 -0.3312140107154846 4456788 0 -1
-1.5360239744186401 2.187377691268921 -0.3933166265487671 4456788 0 -1
-1.4263043403625488 2.2898354530334473 -0.14490613341331482 4456788 0 -1
-1.573196291923523 2.1528496742248535 -0.43471840023994446 4456788 0 -1
-1.5377275943756104 2.1898036003112793 -0.3726157546043396 4456788 0 -1
-1.5342262983322144 2.1848175525665283 -0.41401752829551697 4456788 0 -1
-1.5172245502471924 2.204058885574341 -0.3726157546043396 4456788 0 -1
-1.4061710834503174 2.3034634590148926 -0.12420525401830673 4456788 0 -1
-1.62782621383667 2.0981037616729736 -0.49682101607322693 4456788 0 -1
-1.57115638256073 2.1500580310821533 -0.45541927218437195 4456788 0 -1
-1.5155436992645264 2.2016170024871826 -0.3933166265487671 4456788 0 -1
-1.5690186023712158 2.147132635116577 -0.47612014412879944 4456788 0 -1
-1.5360239744186401 2.187377691268921 -0.3933166265487671 4523353 0 -1
-1.5360239744186401 2.187377691268921 -0.3933166265487671 4657508 0 -1
-1.5323340892791748 2.1821229457855225 -0.43471840023994446 4724328 0 -1
-1.4056332111358643 2.3025825023651123 -0.14490613341331482 4724328 0 -1
-1.5360239744186401 2.187377691268921 -0.3933166265487671 4726897 0 -1
-1.5342262983322144 2.1848175525665283 -0.41401752829551697 4536450 0 -1
-1.4061710834503174 2.3034634590148926 -0.12420525401830673 4536450 0 -1
-2.0092973709106445 1.767079472541809 -0.3726157546043396 4471684 0 -1
-1.9017391204833984 1.9133946895599365 -0.14490613341331482 4471684 0 -1
-1.630149245262146 2.101097822189331 -0.47612014412879944 4471684 0 -1
-1.5155436992645264 2.2016170024871826 -0.3933166265487671 4471684 0 -1
-1.385940432548523 2.3167097568511963 -0.10350438207387924 4471684 0 -1
-1.6490544080734253 2.125464677810669 0.24841050803661346 4341894 0 -1
-1.5377275943756104 2.1898036003112793 -0.3726157546043396 2912910 0 -1
-1.446336269378662 2.2758238315582275 -0.1656070053577423 2912910 0 -1
-1.8216235637664795 1.9949805736541748 -0.02070087566971779 2458766 0 -1
-1.5448437929153442 2.199937582015991 -0.26911139488220215 2458766 0 -1
-1.4076595306396484 2.3059017658233643 0 2458766 0 -1
-2.0973546504974365 1.6740375757217407 -0.5237571001052856 4456788 0 -1
-1.9623188972473145 1.8899247646331787 -0.23045311868190765 4456788 0 -1
-1.5562543869018555 2.216186761856079 -0.37710511684417725 4456788 0 -1
-1.5338032245635986 2.228142499923706 -0.39805540442466736 4456788 0 -1
-1.4035041332244873 2.346069097518921 -0.04190056771039963 4456788 0 -1
-1.575257420539856 2.199030637741089 -0.39805540442466736 4456788 0 -1
-1.5562543869018555 2.216186761856079 -0.37710511684417725 4456788 0 -1
-1.5507959127426147 2.208413600921631 -0.4399559497833252 4456788 0 -1
-1.6291671991348267 2.1422531604766846 -0.4818565249443054 4456788 0 -1
-1.5900859832763672 2.175962448120117 -0.4609062373638153 4456788 0 -1
-1.5507959127426147 2.208413600921631 -0.4399559497833252 4456788 0 -1
-1.58792245388031 2.173001766204834 -0.4818565249443054 4456788 0 -1
-1.5527108907699585 2.2111406326293945 -0.41900569200515747 4523353 0 -1
-1.557883620262146 2.2185068130493164 -0.35615482926368713 4657508 0 -1
-1.6655464172363281 2.1041040420532227 -0.5237571001052856 4724328 0 -1
-1.5507959127426147 2.208413600921631 -0.4399559497833252 4724328 0 -1
-1.6268455982208252 2.139200448989868 -0.5028068423271179 4725613 0 -1
-1.6807563304901123 2.081035614013672 -0.5656576752662659 4726897 0 -1
-1.5562543869018555 2.216186761856079 -0.37710511684417725 4726897 0 -1
-1.5545302629470825 2.213731527328491 -0.39805540442466736 4536450 0 -1
-1.6449841260910034 2.120218276977539 -0.5237571001052856 4471684 0 -1
-1.532008171081543 2.2255349159240723 -0.41900569200515747 4471684 0 -1
-1.7351056337356567 2.1483285427093506 0.1695975363254547 4456788 0 -1
-1.7587478160858154 2.134077310562134 0.08479876816272736 4456788 0 -1
-1.759367823600769 2.1348297595977783 -0.04239938408136368 4456788 0 -1
-1.7591094970703125 2.1345162391662598 0.06359907984733582 4456788 0 -1
-1.7587478160858154 2.134077310562134 -0.08479876816272736 4456788 0 -1
-1.8650798797607422 2.042572498321533 -0.06359907984733582 4456788 0 -1
-1.7533130645751953 2.1274828910827637 -0.23319661617279053 4456788 0 -1
-1.8443191051483154 2.0622096061706543 0.02119969204068184 4456788 0 -1
-1.585958480834961 2.2139692306518555 -0.4875929057598114 4456788 0 -1
-1.7805650234222412 2.1171822547912598 -0.04239938408136368 4523353 0 -1
-1.8867172002792358 2.023491859436035 0.02119969204068184 4590430 0 -1
-1.7774252891540527 2.1134488582611084 -0.1695975363254547 4590430 0 -1
-1.78072190284729 2.117368698120117 -0.02119969204068184 4724328 0 -1
-1.886551022529602 2.023313522338867 -0.04239938408136368 4725613 0 -1
-1.7788912057876587 2.11519193649292 0.12719815969467163 4536450 0 -1
-1.759522795677185 2.1350176334381104 -0.02119969204068184 4471684 0 -1
-1.8016715049743652 2.1422789096832275 -0.021449100226163864 4456788 0 -1
-1.8861349821090698 2.06563138961792 -0.10724549740552902 4456788 0 -1
-1.8229594230651855 2.123868703842163 -0.04289820045232773 4456788 0 -1
-1.8870220184326172 2.0666027069091797 0.0643472969532013 4456788 0 -1
-1.8008779287338257 2.1413354873657227 -0.08579640090465546 4456788 0 -1
-1.8872991800308228 2.066906213760376 -0.04289820045232773 4456788 0 -1
-1.8872991800308228 2.066906213760376 -0.04289820045232773 4456788 0 -1
-1.8441351652145386 2.10496187210083 -0.0643472969532013 4456788 0 -1
-1.8229594230651855 2.123868703842163 -0.04289820045232773 4523353 0 -1
-1.8875207901000977 2.0671489238739014 0 4590430 0 -1
-1.8875207901000977 2.0671489238739014 0 4590430 0 -1
-1.8229594230651855 2.123868703842163 0.04289820045232773 4657508 0 -1
-1.9084655046463013 2.046816825866699 0.0643472969532013 4724328 0 -1
-1.8016715049743652 2.1422789096832275 -0.021449100226163864 4724328 0 -1
-1.9089138507843018 2.047297716140747 -0.021449100226163864 4725613 0 -1
-1.8017244338989258 2.1423418521881104 0 4471684 0 -1
-1.843885898590088 2.148249387741089 -0.06509552150964737 4456788 0 -1
-1.9094126224517822 2.0911242961883545 -0.02169850841164589 4456788 0 -1
-1.9094126224517822 2.0911242961883545 -0.02169850841164589 4456788 0 -1
-1.887548565864563 2.110546112060547 -0.04339701682329178 4456788 0 -1
-1.887548565864563 2.110546112060547 -0.04339701682329178 4456788 0 -1
-1.8658525943756104 2.129750967025757 -0.04339701682329178 4456788 0 -1
-1.8658525943756104 2.129750967025757 -0.04339701682329178 4523353 0 -1
-1.8877148628234863 2.110732078552246 -0.02169850841164589 4590430 0 -1
-1.8660717010498047 2.1300010681152344 0 4657508 0 -1
-1.7478983402252197 2.806133270263672 -0.305275559425354 4456788 0 -1
-1.9911398887634277 2.566378116607666 -0.6868700385093689 4456788 0 -1
-1.8984827995300293 2.703537702560425 -0.33071520924568176 4456788 0 -1
-1.8897374868392944 2.6910839080810547 -0.457913339138031 4456788 0 -1
-1.8754323720932007 2.67071270942688 -0.610551118850708 4456788 0 -1
-1.8624753952026367 2.705601692199707 0.48335298895835876 4456788 0 -1
-1.8290166854858398 2.7650880813598633 -0.17807741463184357 4456788 0 -1
-2.083503007888794 2.477391004562378 -0.7377492785453796 4590430 0 -1
-1.9059548377990723 2.7141783237457275 -0.152637779712677 4590430 0 -1
-1.9011828899383545 2.7073826789855957 -0.27983593940734863 4657508 0 -1
-2.047032117843628 2.4838836193084717 -0.8140681982040405 4724328 0 -1
-1.8876439332962036 2.6881024837493896 -0.48335298895835876 4725613 0 -1
-1.755334496498108 2.8180713653564453 0 4729209 0 -1
-2.058647871017456 2.4478368759155273 -0.8903870582580566 4471684 0 -1
-1.893579125404358 2.696554660797119 -0.40703409910202026 4471684 0 -1
-1.8876439332962036 2.6881024837493896 -0.48335298895835876 4341894 0 -1
-1.895400047302246 2.7534310817718506 -0.2568903863430023 4456788 0 -1
-1.919821858406067 2.7339255809783936 -0.2825794219970703 4456788 0 -1
-1.912143588066101 2.722991466522217 -0.41102463006973267 4456788 0 -1
-1.8847918510437012 2.738020658493042 -0.43671366572380066 4456788 0 -1
-1.8847918510437012 2.738020658493042 -0.43671366572380066 4456788 0 -1
-1.7939516305923462 2.8228001594543457 -0.23120135068893433 4456788 0 -1
-2.654202461242676 1.8006086349487305 -0.9761834740638733 4456788 0 -1
-1.923054575920105 2.7385292053222656 -0.20551231503486633 4456788 0 -1
-1.7863155603408813 2.8107845783233643 -0.3853355646133423 4456788 0 -1
-1.912143588066101 2.722991466522217 -0.41102463006973267 4456788 0 -1
-1.908264398574829 2.7174670696258545 -0.46240270137786865 4456788 0 -1
-1.8204916715621948 2.807755470275879 -0.20551231503486633 4456788 0 -1
-2.750777244567871 1.8661248683929443 -0.43671366572380066 4456788 0 -1
-1.8982523679733276 2.7575747966766357 0.17982326447963715 4456788 0 -1
-1.7939516305923462 2.8228001594543457 -0.23120135068893433 4456788 0 -1
-1.87177312374115 2.7738325595855713 -0.20551231503486633 4456788 0 -1
-1.8195794820785522 2.8063488006591797 -0.23120135068893433 4523353 0 -1
-1.89646315574646 2.7549755573272705 -0.23120135068893433 4590430 0 -1
-1.912143588066101 2.722991466522217 -0.41102463006973267 4724328 0 -1
-1.9039193391799927 2.7112796306610107 -0.5137807726860046 4725613 0 -1
-1.796912431716919 2.8274588584899902 -0.12844519317150116 4729209 0 -1
-1.908264398574829 2.7174670696258545 -0.46240270137786865 4471684 0 -1
-1.7973878383636475 2.828207015991211 -0.10275615751743317 4341894 0 -1
-2.705052375793457 1.835105061531067 0.744982123374939 3651704 0 -1
-2.211134195327759 2.472360849380493 0.48809173703193665 3651704 0 -1
-1.8225826025009155 2.8109803199768066 -0.12844519317150116 3651704 0 -1
-1.911313772201538 2.7765488624572754 -0.3112613558769226 4456788 0 -1
-1.937142252922058 2.7585906982421875 -0.3112613558769226 4456788 0 -1
-1.9083689451217651 2.772270917892456 -0.36313825845718384 4456788 0 -1
-1.8609224557876587 2.8133227825164795 -0.285322904586792 4456788 0 -1
-1.8350763320922852 2.830249547958374 -0.285322904586792 4456788 0 -1
-1.9407521486282349 2.7637314796447754 -0.23344601690769196 4456788 0 -1
-1.8052138090133667 2.8405210971832275 -0.36313825845718384 4456788 0 -1
-1.9083689451217651 2.772270917892456 -0.36313825845718384 4456788 0 -1
-1.9067245721817017 2.7698822021484375 -0.38907670974731445 4456788 0 -1
-1.838166356086731 2.835015296936035 -0.20750758051872253 4456788 0 -1
-1.9192196130752563 2.7880337238311768 -0.051876895129680634 4456788 0 -1
-1.8092302083969116 2.8468410968780518 -0.285322904586792 4456788 0 -1
-1.8889987468719482 2.7993595600128174 -0.23344601690769196 4456788 0 -1
-1.8362153768539429 2.8320062160491943 -0.2593844532966614 4523353 0 -1
-1.913801908493042 2.780163526535034 -0.2593844532966614 4590430 0 -1
-1.935707926750183 2.7565481662750244 -0.3371998071670532 4724328 0 -1
-1.9067245721817017 2.7698822021484375 -0.38907670974731445 4725613 0 -1
-1.83897864818573 2.836268186569214 -0.18156912922859192 4729209 0 -1
-1.9307081699371338 2.7494282722473145 -0.41501516103744507 4471684 0 -1
-1.8631219863891602 2.816648006439209 -0.23344601690769196 4341894 0 -1
-1.9543205499649048 2.783053398132324 -0.34044212102890015 4456788 0 -1
-2.8523805141448975 1.8781471252441406 0.1309392750263214 4456788 0 -1
-1.9267185926437378 2.7989273071289062 -0.366629958152771 4456788 0 -1
-2.8460841178894043 1.8740012645721436 0.2618785500526428 4456788 0 -1
-1.876147747039795 2.8363401889801025 -0.34044212102890015 4456788 0 -1
-2.8503670692443848 1.876821517944336 0.1833149790763855 4456788 0 -1
-2.8491082191467285 1.8759924173355103 0.20950284600257874 4456788 0 -1
-1.952755331993103 2.780824661254883 -0.366629958152771 4456788 0 -1
-1.90361487865448 2.821019411087036 -0.3142542541027069 4456788 0 -1
-1.87881600856781 2.840373992919922 -0.28806641697883606 4456788 0 -1
-1.93511164188385 2.811119794845581 -0.1833149790763855 4456788 0 -1
-1.9071621894836426 2.8262765407562256 -0.23569069802761078 4456788 0 -1
-2.8738059997558594 1.8347601890563965 0.23569069802761078 4523353 0 -1
-1.87881600856781 2.840373992919922 -0.28806641697883606 4523353 0 -1
-2.87524676322937 1.8356800079345703 0.20950284600257874 4590430 0 -1
-1.9081182479858398 2.827693223953247 -0.20950284600257874 4590430 0 -1
-2.8402791023254395 1.8701790571212769 0.34044212102890015 4657508 0 -1
-2.8443186283111572 1.8728388547897339 0.28806641697883606 4724328 0 -1
-1.9571000337600708 2.7870116233825684 -0.28806641697883606 4724328 0 -1
-1.904910683631897 2.822939872741699 -0.28806641697883606 4725613 0 -1
-2.8663368225097656 1.8299914598464966 0.34044212102890015 4729209 0 -1
-1.881036639213562 2.843731164932251 -0.23569069802761078 4729209 0 -1
-1.9296917915344238 2.80324649810791 -0.3142542541027069 4471684 0 -1
-2.812695264816284 1.6824198961257935 -0.968950629234314 4341894 0 -1
-1.881036639213562 2.843731164932251 -0.23569069802761078 4341894 0 -1
-2.9039127826690674 1.853981614112854 0.18506084382534027 4456788 0 -1
-2.9039127826690674 1.853981614112854 0.18506084382534027 4456788 0 -1
-2.9050240516662598 1.8546910285949707 0.1586235761642456 4456788 0 -1
-1.9940749406814575 2.7836923599243164 -0.4229962229728699 4456788 0 -1
-2.9011754989624023 1.852234125137329 0.2379353642463684 4456788 0 -1
-1.9678370952606201 2.8023018836975098 -0.4229962229728699 4456788 0 -1
-2.9275498390197754 1.81026029586792 0.2379353642463684 4456788 0 -1
-2.9259088039398193 1.8092454671859741 0.2643726170063019 4456788 0 -1
-2.9011754989624023 1.852234125137329 0.2379353642463684 4456788 0 -1
-1.9790658950805664 2.8182921409606934 -0.21149811148643494 4456788 0 -1
-2.950437068939209 1.76481032371521 0.29080989956855774 4456788 0 -1
-1.925325632095337 2.8531932830810547 -0.2379353642463684 4456788 0 -1
-2.9259088039398193 1.8092454671859741 0.2643726170063019 4523353 0 -1
-2.9011754989624023 1.852234125137329 0.2379353642463684 4590430 0 -1
-2.8995492458343506 1.8511958122253418 0.2643726170063019 4657508 0 -1
-2.9011754989624023 1.852234125137329 0.2379353642463684 4724328 0 -1
-2.8995492458343506 1.8511958122253418 0.2643726170063019 4725613 0 -1
-2.923098087310791 1.8662303686141968 0.3202400505542755 4456788 0 -1
-1.9843075275421143 2.770057201385498 -0.7205401062965393 4456788 0 -1
-3.166377305984497 1.425730586051941 -0.2668667137622833 4456788 0 -1
-3.009922742843628 1.7391541004180908 0.21349336206912994 4456788 0 -1
-2.920933723449707 1.8648484945297241 0.3469267189502716 4456788 0 -1
-2.966359853744507 1.7743346691131592 0.4269867241382599 4456788 0 -1
-1.9690078496932983 2.8603603839874268 -0.2668667137622833 4456788 0 -1
-2.9474875926971436 1.8225888013839722 0.3469267189502716 4523353 0 -1
-2.926903486251831 1.8686598539352417 0.2668667137622833 4590430 0 -1
-3.169741630554199 1.4272454977035522 -0.21349336206912994 4657508 0 -1
-2.910522222518921 1.8582013845443726 0.45367342233657837 4657508 0 -1
-2.096081495285034 2.756216049194336 -0.3736133873462677 4657508 0 -1
-2.9185943603515625 1.8633549213409424 0.3736133873462677 4724328 0 -1
-2.0735299587249756 2.837534189224243 -0.08080823719501495 4456788 0 -1
-2.258375644683838 2.685323476791382 -0.21548862755298615 4456788 0 -1
-2.4231081008911133 2.544522523880005 -0.10774431377649307 4456788 0 -1
-2.100027084350586 2.8170790672302246 -0.10774431377649307 4523353 0 -1
-2.281419515609741 2.6580049991607666 -0.2962968647480011 4590430 0 -1
-2.2884910106658936 2.6662440299987793 -0.10774431377649307 4657508 0 -1
-2.3539109230041504 2.5779237747192383 0.7956119775772095 4523353 0 -1
-2.9548909664154053 2.3584940433502197 0.6768937110900879 4456788 0 -1
-2.952747344970703 2.4162909984588623 -0.44145241379737854 4456788 0 -1
-2.8854146003723145 2.245134115219116 1.1772063970565796 4523353 0 -1
-2.8800039291381836 2.5328238010406494 0.20601113140583038 4725613 0 -1
-2.9093918800354004 2.499011516571045 -0.20601113140583038 4726897 0 -1
-3.0866751670837402 2.3399980068206787 0 4456788 0 -1
-2.750377893447876 2.7077646255493164 0.32647526264190674 4456788 0 -1
-2.8866562843322754 2.5386738777160645 0.4748730957508087 4456788 0 -1
-3.4463140964508057 1.7031056880950928 0.4748730957508087 4456788 0 -1
-3.0555593967437744 2.377523183822632 0.11871827393770218 4456788 0 -1
-2.8866562843322754 2.5386738777160645 0.4748730957508087 4456788 0 -1
-3.0866751670837402 2.3399980068206787 0 4456788 0 -1
-2.8866562843322754 2.5386738777160645 0.4748730957508087 4456788 0 -1
-2.8866562843322754 2.5386738777160645 0.4748730957508087 4456788 0 -1
-2.9000465869903564 2.550450086593628 0.29679569602012634 4456788 0 -1
-2.9375009536743164 2.523155689239502 0.08903870731592178 4456788 0 -1
-2.894131660461426 2.54524827003479 0.38583439588546753 4456788 0 -1
-2.8962759971618652 2.5471341609954834 0.35615482926368713 4456788 0 -1
-3.0244250297546387 2.353297710418701 0.5639117956161499 4456788 0 -1
-2.9000465869903564 2.550450086593628 0.29679569602012634 4456788 0 -1
-2.9750232696533203 2.4345197677612305 0.4748730957508087 4456788 0 -1
-2.9069716930389404 2.4969327449798584 0.5639117956161499 4523353 0 -1
-2.8918137550354004 2.5432097911834717 0.4155139625072479 4724328 0 -1
-2.9312820434570312 2.5178141593933105 0.26711612939834595 4725613 0 -1
-2.93612003326416 2.5219695568084717 0.14839784801006317 4726897 0 -1
-2.927821636199951 2.5148415565490723 0.32647526264190674 4600703 0 -1
-2.8793771266937256 2.4732303619384766 -0.7716687917709351 4536450 0 -1
-2.910195827484131 2.499701976776123 0.5342322587966919 4471684 0 -1
-2.918804883956909 2.507096767425537 0.4451935291290283 4341894 0 -1
-2.88932204246521 2.541018486022949 0.4451935291290283 3562893 0 -1
-2.9165923595428467 2.5051963329315186 0.6883664727210999 4456788 0 -1
-2.9542577266693115 2.537548780441284 0.2992897629737854 4456788 0 -1
-2.937723398208618 2.5233466625213623 0.5087926387786865 4456788 0 -1
-2.9433326721191406 2.528164863586426 0.4489346444606781 4456788 0 -1
-2.9542577266693115 2.537548780441284 0.2992897629737854 4456788 0 -1
-2.9482321739196777 2.5323731899261475 0.38907670974731445 4456788 0 -1
-2.945870876312256 2.5303449630737305 0.41900569200515747 4456788 0 -1
-3.0564191341400146 2.37819242477417 0.5087926387786865 4456788 0 -1
-2.92061448097229 2.5685386657714844 0.35914772748947144 4456788 0 -1
-3.002794027328491 2.457245111465454 0.4489346444606781 4456788 0 -1
-2.937723398208618 2.5233466625213623 0.5087926387786865 4523353 0 -1
-2.9433326721191406 2.528164863586426 0.4489346444606781 4590430 0 -1
-2.9433326721191406 2.528164863586426 0.4489346444606781 4724328 0 -1
-2.952425241470337 2.5359747409820557 0.3292187452316284 4725613 0 -1
-2.9542577266693115 2.537548780441284 0.2992897629737854 4726897 0 -1
-2.9504168033599854 2.534249782562256 0.35914772748947144 4600703 0 -1
-3.0891330242156982 2.3418612480163574 0.4788636267185211 4536450 0 -1
-2.9346511363983154 2.520707845687866 0.5387215614318848 4536450 0 -1
-2.9314000606536865 2.5179152488708496 0.5686505436897278 4471684 0 -1
-2.937723398208618 2.5233466625213623 0.5087926387786865 4341894 0 -1
-2.9728007316589355 2.553476333618164 0.392318993806839 4456788 0 -1
-3.095205783843994 2.408371925354004 0.36214062571525574 4456788 0 -1
-2.9622044563293457 2.544374704360962 0.5130325555801392 4456788 0 -1
-2.9651222229003906 2.5468809604644775 0.4828541576862335 4456788 0 -1
-3.0877740383148193 2.4025893211364746 0.45267578959465027 4456788 0 -1
-2.9651222229003906 2.5468809604644775 0.4828541576862335 4456788 0 -1
-3.0877740383148193 2.4025893211364746 0.45267578959465027 4456788 0 -1
-2.935171365737915 2.581340789794922 0.4828541576862335 4456788 0 -1
-3.0278172492980957 2.47772216796875 0.45267578959465027 4456788 0 -1
-2.995072841644287 2.5115911960601807 0.4828541576862335 4523353 0 -1
-2.9651222229003906 2.5468809604644775 0.4828541576862335 4590430 0 -1
-3.0973126888275146 2.4100112915039062 0.3319622278213501 4657508 0 -1
-2.948727607727051 2.532799005508423 0.6337460875511169 4657508 0 -1
-2.9978389739990234 2.5139105319976807 0.45267578959465027 4724328 0 -1
-2.9704198837280273 2.551431179046631 0.42249739170074463 4725613 0 -1
-2.967860460281372 2.5492329597473145 0.45267578959465027 4726897 0 -1
-2.9704198837280273 2.551431179046631 0.42249739170074463 4600703 0 -1
-3.0904366970062256 2.404661178588867 0.42249739170074463 4536450 0 -1
-2.944904088973999 2.5295145511627197 0.6639244556427002 4536450 0 -1
-2.9594290256500244 2.6026742458343506 0.4868446886539459 4456788 0 -1
-2.943066120147705 2.5882837772369385 0.6389836668968201 4456788 0 -1
-2.811432361602783 2.7077126502990723 0.7302670478820801 4456788 0 -1
-2.943066120147705 2.5882837772369385 0.6389836668968201 4456788 0 -1
-2.943066120147705 2.5882837772369385 0.6389836668968201 4456788 0 -1
-3.047022581100464 2.493438243865967 0.5172724723815918 4456788 0 -1
-2.811432361602783 2.7077126502990723 0.7302670478820801 4523353 0 -1
-2.9392497539520264 2.584927558898926 0.6694114804267883 4590430 0 -1
-2.811432361602783 2.7077126502990723 0.7302670478820801 4724328 0 -1
-2.976768732070923 2.556884527206421 0.6085558533668518 4725613 0 -1
-2.8192803859710693 2.715271234512329 0.6694114804267883 4725613 0 -1
-2.950153112411499 2.5945165157318115 0.5781280994415283 4726897 0 -1
-2.9802567958831787 2.559880495071411 0.5781280994415283 4600703 0 -1
-2.950153112411499 2.5945165157318115 0.5781280994415283 4536450 0 -1
-3.209644079208374 2.3691842555999756 -0.33744922280311584 4456788 0 -1
-2.8661458492279053 2.6394975185394287 -0.9203160405158997 4456788 0 -1
-3.2116363048553467 2.370654821395874 -0.30677202343940735 4456788 0 -1
-3.0604169368743896 2.5663869380950928 -0.27609482407569885 4456788 0 -1
-3.0604169368743896 2.5663869380950928 -0.27609482407569885 4456788 0 -1
-3.2025187015533447 2.363924980163574 -0.42948082089424133 4456788 0 -1
-2.9553418159484863 2.478273630142212 1.073702096939087 4456788 0 -1
-2.855109214782715 2.62933349609375 0.9816704392433167 4456788 0 -1
-3.1997594833374023 2.3618881702423096 -0.46015802025794983 4456788 0 -1
-2.830749273300171 2.6068997383117676 1.1043792963027954 4456788 0 -1
-3.213437557220459 2.3719847202301025 -0.27609482407569885 4456788 0 -1
-2.9045181274414062 2.4356541633605957 1.2884424924850464 4456788 0 -1
-3.158916711807251 2.4579453468322754 -0.09203160554170609 4456788 0 -1
-3.0060126781463623 2.6436421871185303 -0.06135440245270729 4456788 0 -1
-2.843313455581665 2.6184706687927246 1.0430248975753784 4523353 0 -1
-3.248344898223877 2.3330445289611816 -0.18406321108341217 4590430 0 -1
-3.0961225032806396 2.5336177349090576 -0.15338601171970367 4590430 0 -1
-2.8250300884246826 2.5428237915039062 -1.257765293121338 4724328 0 -1
-3.0313639640808105 2.4806244373321533 0.8282844424247742 4725613 0 -1
-2.825368642807007 2.6612658500671387 -0.9816704392433167 4725613 0 -1
-3.0673599243164062 2.572209119796753 -0.06135440245270729 4726897 0 -1
-2.6021902561187744 2.909616708755493 0.8896388411521912 4726897 0 -1
-2.363919496536255 3.171077251434326 -0.8040918707847595 4456788 0 -1
-2.8615705966949463 2.5166125297546387 1.3298442363739014 4456788 0 -1
-2.288569211959839 3.324584484100342 0 4456788 0 -1
-2.378830909729004 3.2553250789642334 0.18555966019630432 4456788 0 -1
-2.318406105041504 3.301530122756958 0.12370643764734268 4456788 0 -1
-2.3807196617126465 3.2579097747802734 0.09277983009815216 4590430 0 -1
-2.3386363983154297 3.1371612548828125 0.9896515011787415 4724328 0 -1
-2.3711349964141846 3.1807563304901123 0.7422386407852173 4725613 0 -1
-2.400277853012085 3.2198503017425537 0.40204593539237976 4726897 0 -1
-2.2885019779205322 3.32448673248291 0.03092660941183567 4726897 0 -1
-2.3676021099090576 3.1760172843933105 -0.773165225982666 4471684 0 -1
-3.1559653282165527 2.518984794616699 -0.49881628155708313 4456788 0 -1
-2.5085222721099854 3.1690452098846436 -0.4676402509212494 4456788 0 -1
-2.3446528911590576 3.2085537910461426 -0.8729285001754761 4456788 0 -1
-2.4783935546875 3.068633794784546 -0.9976325631141663 4456788 0 -1
-2.3067543506622314 3.3510019779205322 0.06235203519463539 4456788 0 -1
-2.5252573490142822 3.1901869773864746 0 4456788 0 -1
-2.3970978260040283 3.280322313308716 0.21823212504386902 4456788 0 -1
-2.274780035018921 3.3710596561431885 0.12470407038927078 4456788 0 -1
-2.585709810256958 3.137518882751465 -0.15588009357452393 4456788 0 -1
-2.3348355293273926 3.3249263763427734 0.21823212504386902 4456788 0 -1
-2.5545566082000732 3.162935256958008 -0.15588009357452393 4523353 0 -1
-2.3002426624298096 3.3415424823760986 0.31176018714904785 4523353 0 -1
-2.394838333129883 3.2772305011749268 0.2805841565132141 4590430 0 -1
-3.164138078689575 2.525507926940918 -0.4052882194519043 4657508 0 -1
-2.5192456245422363 3.1825921535491943 -0.2805841565132141 4657508 0 -1
-2.3920111656188965 3.2733614444732666 0.3429361879825592 4657508 0 -1
-2.2734427452087402 3.3690779209136963 0.18705610930919647 4657508 0 -1
-2.3446528911590576 3.2085537910461426 -0.8729285001754761 4725613 0 -1
-3.3302149772644043 2.391845703125 -0.09427627921104431 4456788 0 -1
-2.6377978324890137 3.1364755630493164 -0.15712712705135345 4456788 0 -1
-2.9971489906311035 2.574390172958374 1.099889874458313 4590430 0 -1
-2.900517702102661 2.8555781841278076 -0.5028068423271179 4590430 0 -1
-2.4878993034362793 3.0804035663604736 1.0684645175933838 4590430 0 -1
-3.1620357036590576 2.3971285820007324 1.037039041519165 4657508 0 -1
-2.8044302463531494 2.7009687423706055 1.2884424924850464 4657508 0 -1
-2.4627392292022705 3.1112072467803955 1.037039041519165 4657508 0 -1
-3.1657893657684326 2.33681321144104 1.2669934034347534 4456788 0 -1
-2.024242639541626 4.080263137817383 0.1396685540676117 4456788 4 -1
-1.9902185201644897 4.099197864532471 -0.034917138516902924 4456788 4 -1
-1.9158706665039062 4.122656345367432 0.3142542541027069 4456788 4 -1
-1.953924298286438 4.113065719604492 0.17458570003509521 4456788 4 -1
-1.9272775650024414 4.147202014923096 0.38683202862739563 4456788 4 -1
-2.0007236003875732 4.120834827423096 0.2813323736190796 4456788 4 -1
-1.9656232595443726 4.137692451477051 0.2813323736190796 4456788 4 -1
-1.9672443866729736 4.1411051750183105 0.2109992951154709 4456788 4 -1
-1.9678808450698853 4.142445087432861 0.17583273351192474 4456788 4 -1
-1.9731189012527466 4.06397819519043 -0.8088306188583374 11918891 0 -1
-1.9643114805221558 4.045837879180908 -0.914330244064331 13164576 0 -1
-2.018709421157837 4.157879829406738 0 4456788 4 -1
-1.9473628997802734 4.190422534942627 0.10624786466360092 4456788 4 -1
-2.0127744674682617 4.145655632019043 0.35415956377983093 4456788 4 -1
-1.9774627685546875 4.1626152992248535 0.35415956377983093 4456788 4 -1
-1.97956383228302 4.1670379638671875 0.2833276391029358 4456788 4 -1
-1.9804385900497437 4.168879508972168 0.24791169166564941 4456788 4 -1
-2.0172274112701416 4.154827117919922 0.17707978188991547 4456788 4 -1
-2.0672786235809326 4.078812599182129 -0.6729031801223755 2271109 4 -1
-1.9871126413345337 4.092800617218018 -0.814566969871521 11918891 0 -1
-2.0328660011291504 4.187037467956543 0.035665363073349 4456788 4 -1
-1.9610767364501953 4.219932556152344 -0.106996089220047 4456788 4 -1
-1.9258731603622437 4.2373151779174805 -0.035665363073349 4456788 4 -1
-2.13835072517395 4.130466938018799 0.178326815366745 4456788 4 -1
-1.9963220357894897 4.202314376831055 0.142661452293396 4456788 4 -1
-2.026948928833008 4.1748504638671875 0.35665363073349 4456788 4 -1
-1.990153193473816 4.189329147338867 0.392318993806839 4456788 4 -1
-2.0291028022766113 4.179286479949951 0.285322904586792 4456788 4 -1
-2.030776262283325 4.182733058929443 0.213992178440094 4456788 4 -1
-2.0841457843780518 4.1120924949646 -0.641976535320282 2264205 4 -1
-2.1275734901428223 4.109649181365967 -0.4993151128292084 2070155 4 -1
-2.123779058456421 4.102319717407227 -0.570645809173584 2139270 4 -1
-2.090311288833618 4.1242570877075195 -0.5349804759025574 3257723 4 -1
-1.9393976926803589 4.2670722007751465 0 4456788 4 -1
-1.9752545356750488 4.250441074371338 -0.035914771258831024 4456788 4 -1
-2.0466010570526123 4.215327262878418 0.10774431377649307 4456788 4 -1
-1.903427004814148 4.283088207244873 0.035914771258831024 4456788 4 -1
-2.004070281982422 4.218625068664551 0.39506250619888306 4456788 4 -1
-2.801023244857788 3.757429599761963 -0.07182954251766205 4456788 0 -1
-2.0828120708465576 4.198321342468262 0.07182954251766205 4456788 4 -1
-1.9366059303283691 4.260929584503174 0.25140342116355896 4456788 4 -1
-2.136526107788086 4.126942157745361 -0.610551118850708 2523534 4 -1
-2.104928731918335 4.153098106384277 -0.5387215614318848 2328718 4 -1
-2.1029868125915527 4.149266242980957 -0.5746363401412964 2264205 4 -1
-2.0756442546844482 4.183873176574707 -0.39506250619888306 4045940 4 -1
-2.0653085708618164 4.163039207458496 -0.610551118850708 5424489 4 -1
-2.111431360244751 4.165927410125732 -0.39506250619888306 6343264 4 -1
-2.025134563446045 4.262965679168701 -0.03616417944431305 4456788 4 -1
-2.023707151412964 4.259961128234863 0.18082089722156525 4456788 4 -1
-1.8804821968078613 4.32872200012207 0.03616417944431305 4456788 4 -1
-1.9164764881134033 4.3124518394470215 0.0723283588886261 4456788 4 -1
-1.6910711526870728 4.174493789672852 -1.4104030132293701 4456788 0 -1
-1.76683509349823 4.361520767211914 -0.3616417944431305 4456788 4 -1
-1.8005489110946655 4.34108829498291 -0.4339701533317566 4456788 4 -1
-1.786849856376648 4.308060169219971 -0.723283588886261 4212104 4 -1
-1.7443087100982666 4.30591344833374 -0.8317761421203613 4147337 0 -1
-2.149113178253174 4.151256084442139 -0.6509552597999573 2782862 4 -1
-2.1109535694122314 4.164984703063965 -0.6871194243431091 2718350 4 -1
-2.123074531555176 4.188899993896484 -0.47013434767723083 2070922 4 -1
-2.124647617340088 4.192004203796387 -0.4339701533317566 6343264 4 -1
-2.0026886463165283 4.309474945068359 -0.036413587629795074 4456788 4 -1
-1.965814232826233 4.325193881988525 0.10924076288938522 4456788 4 -1
-2.0386221408843994 4.291357517242432 0.10924076288938522 4456788 4 -1
-1.8934509754180908 4.358575344085693 -0.036413587629795074 4456788 4 -1
-2.0006296634674072 4.305044651031494 0.21848152577877045 4456788 4 -1
-1.8206260204315186 4.389493942260742 0.036413587629795074 4456788 4 -1
-1.8930063247680664 4.357551574707031 0.10924076288938522 4456788 4 -1
-1.8907809257507324 4.352428913116455 0.2548951208591461 4456788 4 -1
-1.855729579925537 4.371130466461182 0.18206794559955597 4456788 4 -1
-1.8187543153762817 4.384981155395508 -0.21848152577877045 4456788 4 -1
-1.784056305885315 4.404032230377197 -0.07282717525959015 4456788 4 -1
-1.7809103727340698 4.396266460418701 -0.2913087010383606 4456788 4 -1
-1.8773733377456665 4.321565628051758 -0.6190310120582581 4456788 4 -1
-1.7180430889129639 4.343759059906006 -0.8739261031150818 4456788 0 -1
-1.9205446243286133 4.225591659545898 -1.0195804834365845 4523353 0 -1
-2.089545488357544 4.303778648376465 0.0733259916305542 4456788 4 -1
-1.9059721231460571 4.387397766113281 0.1099889874458313 4456788 4 -1
-1.9795693159103394 4.3554582595825195 0.0733259916305542 4456788 4 -1
-1.9062519073486328 4.388041973114014 -0.0733259916305542 4456788 4 -1
-1.9795693159103394 4.3554582595825195 0.0733259916305542 4456788 4 -1
-1.8330960273742676 4.419559001922607 0.0366629958152771 4456788 4 -1
-2.0143325328826904 4.334531307220459 0.2199779748916626 4456788 4 -1
-1.9019371271133423 4.378109455108643 0.3299669623374939 4456788 4 -1
-1.8312114477157593 4.41501522064209 0.2199779748916626 4456788 4 -1
-1.9019371271133423 4.378109455108643 0.3299669623374939 4456788 4 -1
-1.8287856578826904 4.4091668128967285 -0.3299669623374939 4456788 4 -1
-1.8240325450897217 4.397706985473633 -0.4766189455986023 4456788 4 -1
-1.8322886228561401 4.417612075805664 -0.1466519832611084 4456788 4 -1
-1.859023094177246 4.378888130187988 -0.5132819414138794 4456788 4 -1
-1.7900941371917725 4.4189372062683105 -0.4032929539680481 4456788 4 -1
-1.8297024965286255 4.411376953125 -0.2933039665222168 4523353 4 -1
-1.9044599533081055 4.383916854858398 -0.2199779748916626 4536450 4 -1
-1.8322886228561401 4.417612075805664 -0.1466519832611084 4017546 4 -1
-2.0655770301818848 4.348098278045654 -0.18456202745437622 4456788 4 -1
-1.9174154996871948 4.4137396812438965 0.22147442400455475 4456788 4 -1
-2.1024622917175293 4.33038330078125 0.18456202745437622 4456788 4 -1
-1.9554383754730225 4.4001240730285645 -0.1476496160030365 4456788 4 -1
-1.8078581094741821 4.462788105010986 -0.1476496160030365 4456788 4 -1
-1.9166820049285889 4.412051200866699 0.2583868205547333 4456788 4 -1
-1.8447531461715698 4.4476637840271 0.1476496160030365 4456788 4 -1
-1.8769980669021606 4.421227931976318 0.36912405490875244 4456788 4 -1
-1.9558404684066772 4.401028633117676 -0.11073721200227737 4456788 4 -1
-1.8084954023361206 4.464361667633057 -0.07382480800151825 4456788 4 -1
-1.8022716045379639 4.448997974395752 -0.40603646636009216 4456788 4 -1
-1.8745577335357666 4.41547966003418 -0.4429488480091095 4456788 4 -1
-1.8349701166152954 4.424077033996582 -0.5167736411094666 4456788 4 -1
-1.836440920829773 4.427623271942139 -0.4798612594604492 4456788 4 -1
-1.836440920829773 4.427623271942139 -0.4798612594604492 4456788 4 -1
-1.8022716045379639 4.448997974395752 -0.40603646636009216 4523353 4 -1
-1.8769980669021606 4.421227931976318 -0.36912405490875244 4536450 4 -1
-1.9166820049285889 4.412051200866699 -0.2583868205547333 3887499 4 -1
-1.921263337135315 4.4225969314575195 -0.5202654004096985 4456788 4 -1
-1.768568754196167 4.471503734588623 -0.6317508220672607 4456788 4 -1
-2.1092498302459717 4.344363212585449 0.4459417462348938 4456788 4 -1
-1.968130111694336 4.428682804107666 0.18580906093120575 4456788 4 -1
-1.9323575496673584 4.448134899139404 0.03716181218624115 4456788 4 -1
-1.892524242401123 4.457799434661865 0.26013270020484924 4456788 4 -1
-2.0146496295928955 4.3352131843566895 0.8175598978996277 4456788 4 -1
-1.9278137683868408 4.437675476074219 0.33445632457733154 4456788 4 -1
-1.892524242401123 4.457799434661865 0.26013270020484924 4456788 4 -1
-1.9695183038711548 4.431806564331055 -0.03716181218624115 4456788 4 -1
-2.006679058074951 4.415104866027832 0.03716181218624115 4456788 4 -1
-1.857872486114502 4.479294300079346 -0.0743236243724823 4456788 4 -1
-1.8872236013412476 4.445313930511475 -0.4459417462348938 4456788 4 -1
-1.847368597984314 4.453969478607178 -0.5202654004096985 4456788 4 -1
-1.847368597984314 4.453969478607178 -0.5202654004096985 4456788 4 -1
-1.8502192497253418 4.460842609405518 -0.4459417462348938 4523353 4 -1
-1.9242279529571533 4.429421424865723 -0.4459417462348938 4724328 4 -1
-1.7795203924179077 4.49919319152832 -0.33445632457733154 4724328 4 -1
-1.8896805047988892 4.451100826263428 -0.3716181218624115 4536450 4 -1
-1.8896805047988892 4.451100826263428 -0.3716181218624115 4212104 4 -1
-1.929632544517517 4.4418625831604 -0.26013270020484924 3887499 4 -1
-1.8854347467422485 4.441100120544434 -0.7482244372367859 4456788 4 -1
-2.0537476539611816 4.419346332550049 0.2992897629737854 4456788 4 -1
-1.870341420173645 4.50935697555542 -0.07482244074344635 4456788 4 -1
-1.9453835487365723 4.478119850158691 0 4456788 4 -1
-1.9079163074493408 4.494054794311523 -0.037411220371723175 4456788 4 -1
-1.9453264474868774 4.477988243103027 -0.037411220371723175 4456788 4 -1
-1.9065715074539185 4.49088716506958 0.18705610930919647 4456788 4 -1
-2.0281708240509033 4.364308834075928 0.823046863079071 4456788 4 -1
-1.9059548377990723 4.489434719085693 0.22446732223033905 4456788 4 -1
-2.020146608352661 4.444736480712891 0.037411220371723175 4456788 4 -1
-1.870341420173645 4.50935697555542 0.07482244074344635 4456788 4 -1
-1.8225716352462769 4.499109268188477 -0.5237571001052856 4456788 4 -1
-1.8917157649993896 4.455894947052002 -0.6359907388687134 4456788 4 -1
-1.896962285041809 4.468253135681152 -0.5237571001052856 4724328 4 -1
-2.0163464546203613 4.436375141143799 -0.6402307152748108 4456788 4 -1
-2.008103132247925 4.321126461029053 -1.2051401138305664 4456788 0 -1
-1.782854676246643 4.298428058624268 -1.5817464590072632 4456788 0 -1
-1.8821468353271484 4.5378193855285645 -0.1506425142288208 4456788 4 -1
-1.9206920862197876 4.524147987365723 0 4456788 4 -1
-2.05570912361145 4.423566818237305 0.6025700569152832 4456788 4 -1
-1.8584935665130615 4.480792045593262 0.7908732295036316 4456788 4 -1
-1.8584935665130615 4.480792045593262 0.7908732295036316 4456788 4 -1
-1.8535581827163696 4.468893051147461 0.866194486618042 4456788 4 -1
-1.8235727548599243 4.501580715179443 0.753212571144104 4456788 4 -1
-1.9303269386291504 4.443460941314697 0.8285338282585144 4456788 4 -1
-1.8481591939926147 4.455875873565674 0.9415157437324524 4456788 4 -1
-1.8361927270889282 4.53273344039917 -0.4895881712436676 4456788 4 -1
-1.9096087217330933 4.49804162979126 -0.5272487998008728 4456788 4 -1
-1.9043272733688354 4.48560094833374 -0.6402307152748108 4724328 4 -1
-2.076219081878662 4.467701435089111 -0.4549204409122467 4456788 4 -1
-2.067286729812622 4.448480129241943 -0.6444706320762634 4456788 4 -1
-2.0978848934173584 4.416107177734375 -0.7582007646560669 4456788 0 -1
-2.0071074962615967 4.516389846801758 0.22746022045612335 4456788 4 -1
-2.1484029293060303 4.4250054359436035 0.53074049949646 4456788 4 -1
-1.9689552783966064 4.430539608001709 -0.985660970211029 4456788 0 -1
-2.065124988555908 4.443828105926514 0.6823806762695312 4456788 4 -1
-1.967614769935608 4.529294490814209 0.3032802939414978 4456788 4 -1
-2.106947183609009 4.435183525085449 0.6065605878829956 4456788 4 -1
-1.961517333984375 4.5152587890625 0.4928304851055145 4456788 4 -1
-2.017845630645752 4.43967342376709 0.8340208530426025 4456788 4 -1
-1.7815625667572021 4.615005970001221 0.07582007348537445 4456788 4 -1
-1.8753063678741455 4.521327495574951 0.7202907204627991 4456788 4 -1
-1.868375539779663 4.504617214202881 0.8340208530426025 4456788 4 -1
-1.8603986501693726 4.485384941101074 0.9477509260177612 4456788 4 -1
-1.9031500816345215 4.482828140258789 0.8719308376312256 4456788 4 -1
-1.8631746768951416 4.492077827453613 0.9098408818244934 4456788 4 -1
-1.8143349885940552 4.478776454925537 1.06148099899292 4456788 0 -1
-1.8850741386413574 4.440250873565674 1.0993911027908325 4456788 0 -1
-1.8119730949401855 4.581243991851807 -0.4549204409122467 4456788 4 -1
-1.9169386625289917 4.5153069496154785 -0.6444706320762634 4724328 4 -1
-1.9297759532928467 4.5455451011657715 -0.3032802939414978 2977934 4 -1
-2.086658477783203 4.4901652336120605 -0.5342322587966919 4456788 4 -1
-2.055704355239868 4.522970676422119 -0.34343501925468445 4456788 4 -1
-2.0787112712860107 4.473063945770264 -0.6868700385093689 4456788 4 -1
-2.0764083862304688 4.468108177185059 -0.725029468536377 4456788 4 -1
-2.1642704010009766 4.4576873779296875 0.49607279896736145 4456788 4 -1
-2.0222132205963135 4.550380229949951 0.0763188898563385 4456788 4 -1
-2.0808873176574707 4.477746486663818 0.6487105488777161 4456788 4 -1
-1.9814348220825195 4.561107158660889 0.26711612939834595 4456788 4 -1
-1.7882211208343506 4.632254600524902 0.3815944492816925 4456788 4 -1
-1.9728407859802246 4.541324615478516 0.5342322587966919 4456788 4 -1
-1.816047191619873 4.591544151306152 0.6487105488777161 4456788 4 -1
-1.8454471826553345 4.555578708648682 0.8013483881950378 4456788 4 -1
-1.8666936159133911 4.5005621910095215 1.030305027961731 4456788 0 -1
-1.9156708717346191 4.512320518493652 0.877667248249054 4456788 4 -1
-2.089878559112549 4.49709415435791 0.457913339138031 4456788 4 -1
-1.9129409790039062 4.505890846252441 0.915826678276062 4456788 4 -1
-1.7977325916290283 4.545239448547363 0.9539861679077148 4456788 4 -1
-2.0255446434020996 4.557877063751221 -0.4993151128292084 4456788 4 -1
-2.180030107498169 4.490147590637207 0.4609062373638153 4456788 4 -1
-2.0351314544677734 4.57944917678833 0.11522655934095383 4456788 4 -1
-2.198683977127075 4.431884288787842 0.8065859079360962 4456788 4 -1
-2.0679802894592285 4.549980640411377 -0.38408854603767395 4456788 4 -1
-1.797568678855896 4.656468868255615 0.4609062373638153 4456788 4 -1
-1.7550983428955078 4.6598381996154785 0.5761328339576721 4456788 4 -1
-1.8329863548278809 4.634371757507324 0.537723958492279 4456788 4 -1
-1.7987923622131348 4.659638404846191 0.42249739170074463 4456788 4 -1
-1.9281915426254272 4.541812896728516 0.8834036588668823 4456788 4 -1
-2.1259546279907227 4.5747246742248535 -0.0773165225982666 4456788 4 -1
-2.188917875289917 4.508453369140625 0.5798739194869995 4456788 4 -1
-2.0415971279144287 4.593997955322266 0.4252408742904663 4456788 4 -1
-2.004319667816162 4.613786220550537 0.386582612991333 4456788 4 -1
-1.884833574295044 4.652805805206299 0.5025573968887329 4456788 4 -1
-1.8048971891403198 4.675452709197998 0.5798739194869995 4456788 4 -1
-1.810472846031189 4.689896106719971 0.4252408742904663 4456788 4 -1
-1.8115966320037842 4.692807197570801 0.386582612991333 4456788 4 -1
-1.8996917009353638 4.689484119415283 0.427984356880188 4456788 4 -1
-1.8996917009353638 4.689484119415283 0.427984356880188 4456788 4 -1
-1.9728407859802246 4.6469831466674805 0.5447073578834534 4456788 4 -1
-1.8165416717529297 4.7056169509887695 0.5836150646209717 4456788 4 -1
-1.8938413858413696 4.675042152404785 0.5836150646209717 4456788 4 -1
-1.7341121435165405 4.720767021179199 0.7003380656242371 4456788 4 -1
-1.8582795858383179 4.698321342468262 0.5057997107505798 4456788 4 -1
-3.0994277000427246 3.99484920501709 0.4668920338153839 4456788 0 -1
-3.0692813396453857 4.035913467407227 -0.2723536789417267 4456788 0 -1
-1.9141290187835693 4.725123405456543 0.35241371393203735 4456788 4 -1
-1.8653610944747925 4.716225624084473 0.6265132427215576 4456788 4 -1
-3.1266751289367676 4.029968738555908 0.3132566213607788 4456788 0 -1
-1.9600279331207275 4.61680269241333 0.978926956653595 4456788 4 -1
-0.7167304158210754 4.870616912841797 1.370497703552246 4456788 0 -1
-2.0038223266601562 4.719959259033203 0.39406487345695496 4456788 4 -1
-1.891289234161377 4.781780242919922 0.07881297171115875 4456788 4 -1
-1.9757390022277832 4.763468265533447 0.4362148344516754 4456788 4 -1
-1.7819464206695557 4.850986480712891 0.2775912582874298 4456788 4 -1
-4.344444274902344 2.686401605606079 -0.8327738046646118 4456788 0 -1
-3.0718963146209717 4.203754425048828 0.11971590667963028 4456788 0 -1
-2.0741007328033447 4.774416923522949 0.1596212089061737 4456788 4 -1
-3.5359222888946533 3.9536612033843994 -0.1219605803489685 4590430 0 -1
-4.60850191116333 2.0750787258148193 -1.7179232835769653 4456788 0 -1
-3.5159997940063477 4.0132880210876465 -0.1636117398738861 4456788 0 -1
-3.5027506351470947 3.9981648921966553 -0.4908352196216583 4456788 0 -1
-3.513932943344116 4.010928630828857 -0.24541760981082916 4590430 0 -1
-4.724308967590332 2.019787073135376 -1.5637890100479126 4456788 0 -1
-3.536503314971924 4.036691188812256 -0.20576171576976776 4523353 0 -1
