VERSION .7
FIELDS x y z rgb label object
SIZE 4 4 4 4 4 4
TYPE F F F I I I
COUNT 1 1 1 1 1 1
WIDTH 686
HEIGHT 1
POINTS 686
VIEWPOINT 0 0 0 1 0 0 0
DATA ascii
-3.0773518085479736 0.923474133014679 -0.2469140589237213 4456788 0 -1
2.7614567279815674 1.6517714262008667 0.17283983528614044 4456788 0 -1
-1.831485390663147 2.4568440914154053 1.0973957777023315 4456788 0 -1
2.7867209911346436 1.6668833494186401 0.22446732223033905 4456788 0 -1
2.8172435760498047 1.6851404905319214 0.1763315498828888 4456788 0 -1
-2.055417060852051 2.443995475769043 0.7808969020843506 4657508 0 -1
-2.134190559387207 2.486473798751831 -0.5342322587966919 4456788 0 -1
-2.134190559387207 2.486473798751831 -0.5342322587966919 4456788 0 -1
-2.0691628456115723 2.510737180709839 -0.6614304184913635 4456788 0 -1
2.7780041694641113 1.6616692543029785 -0.7377492785453796 4456788 0 -1
-2.030186653137207 2.5136845111846924 -0.763188898563385 4456788 0 -1
-1.8351564407348633 2.719569206237793 -0.5087926387786865 4456788 0 -1
-1.702652931213379 2.8461201190948486 -0.152637779712677 4456788 0 -1
-1.7872204780578613 2.5962796211242676 -1.0430248975753784 4456788 0 -1
-2.7631449699401855 1.5965641736984253 0.915826678276062 4456788 0 -1
-1.9074680805206299 2.7163331508636475 -0.0763188898563385 4456788 0 -1
-1.8290166854858398 2.7650880813598633 -0.17807741463184357 4456788 0 -1
-1.9562088251113892 2.521355628967285 0.915826678276062 4600703 0 -1
-1.7892889976501465 2.8154633045196533 -0.3339574933052063 4456788 0 -1
-1.80838143825531 2.7890777587890625 -0.43671366572380066 4456788 0 -1
-1.6695914268493652 2.906843900680542 -0.05137807875871658 4456788 0 -1
-1.9569809436798096 2.678041934967041 -0.48809173703193665 4456788 0 -1
-1.7683237791061401 2.8389246463775635 -0.23120135068893433 4456788 0 -1
-1.977634072303772 2.652895212173462 -0.539469838142395 4456788 0 -1
-1.7683237791061401 2.8389246463775635 -0.23120135068893433 4456788 0 -1
-1.886648416519165 2.740717649459839 -0.41102463006973267 4456788 0 -1
-1.870835304260254 2.772442579269409 -0.23120135068893433 4456788 0 -1
-1.796912431716919 2.8274588584899902 -0.12844519317150116 4523353 0 -1
-1.8883907794952393 2.743248701095581 -0.3853355646133423 4471684 0 -1
-1.8452074527740479 2.789564847946167 -0.23120135068893433 4341894 0 -1
-1.8430290222167969 2.786271572113037 -0.2825794219970703 4017546 0 -1
-1.8174314498901367 2.8030357360839844 -0.2825794219970703 3887499 0 -1
-1.7844910621643066 2.864880084991455 -0.2593844532966614 4456788 0 -1
-1.8294249773025513 2.821533441543579 -0.38907670974731445 4456788 0 -1
-1.8259384632110596 2.8161561489105225 -0.4409535825252533 4456788 0 -1
-1.8092302083969116 2.8468410968780518 -0.285322904586792 4456788 0 -1
-1.660011887550354 2.950070381164551 -0.025938447564840317 4456788 0 -1
-1.9759807586669922 2.704042434692383 -0.4928304851055145 4456788 0 -1
-1.8079994916915894 2.8449044227600098 -0.3112613558769226 4456788 0 -1
-1.8092302083969116 2.8468410968780518 -0.285322904586792 4456788 0 -1
-1.6600606441497803 2.9501569271087646 0 4456788 0 -1
-1.9288082122802734 2.74672269821167 -0.4409535825252533 4456788 0 -1
-1.9083689451217651 2.772270917892456 -0.36313825845718384 4456788 0 -1
-1.833828091621399 2.828324317932129 -0.3112613558769226 4456788 0 -1
-1.8879398107528687 2.797790288925171 -0.2593844532966614 4456788 0 -1
-1.83897864818573 2.836268186569214 -0.18156912922859192 4523353 0 -1
-1.8620775938034058 2.8150689601898193 -0.2593844532966614 4590430 0 -1
-1.9083689451217651 2.772270917892456 -0.36313825845718384 4471684 0 -1
-1.8631219863891602 2.816648006439209 -0.23344601690769196 4341894 0 -1
-1.8620775938034058 2.8150689601898193 -0.2593844532966614 4017546 0 -1
-1.8582795858383179 2.8093273639678955 -0.3371998071670532 3887499 0 -1
-1.8253841400146484 2.8722593784332275 -0.3142542541027069 4456788 0 -1
-1.8266266584396362 2.8742144107818604 -0.28806641697883606 4456788 0 -1
-1.9510728120803833 2.778428554534912 -0.39281782507896423 4456788 0 -1
-1.9267185926437378 2.7989273071289062 -0.366629958152771 4456788 0 -1
-1.9232823848724365 2.793935537338257 -0.41900569200515747 4456788 0 -1
-1.9060930013656616 2.8246920108795166 -0.2618785500526428 4456788 0 -1
-1.855841040611267 2.8622751235961914 -0.20950284600257874 4523353 0 -1
-1.8799822330474854 2.842137098312378 -0.2618785500526428 4590430 0 -1
-1.9282629489898682 2.801170825958252 -0.34044212102890015 4471684 0 -1
-1.881036639213562 2.843731164932251 -0.23569069802761078 4341894 0 -1
-1.90361487865448 2.821019411087036 -0.3142542541027069 4017546 0 -1
-2.924093723297119 1.808123230934143 0.29080989956855774 4456788 0 -1
-1.9230526685714722 2.849824905395508 -0.29080989956855774 4456788 0 -1
-2.100917339324951 3.1761443614959717 0.5003127455711365 4456788 0 -1
-2.952747344970703 2.4162909984588623 0.44145241379737854 4456788 0 -1
-2.947120189666748 2.4116861820220947 -0.5003127455711365 4456788 0 -1
-3.018465042114258 2.3486602306365967 0.35316193103790283 4523353 0 -1
-2.9796085357666016 2.3184261322021484 0.7063238620758057 4590430 0 -1
-3.029081106185913 2.3569204807281494 -0.14715079963207245 4724328 0 -1
-2.4075279235839844 2.980891227722168 0.2648714482784271 4728182 0 -1
-2.2255678176879883 3.1068522930145264 0.3825920820236206 4728182 0 -1
-1.2839287519454956 3.495234727859497 0.9417651295661926 4728182 0 -1
-2.234079122543335 2.99690318107605 0.8829048275947571 4341894 0 -1
-2.201263427734375 3.012331962585449 0.9123349785804749 4212104 0 -1
-1.5558571815490723 3.347963333129883 1.0594857931137085 4212104 0 -1
-3.1140668392181396 2.2986345291137695 0.14839784801006317 4456788 0 -1
-2.3347532749176025 3.070054531097412 0.35615482926368713 4456788 0 -1
-2.0581789016723633 3.174341917037964 0.8310279250144958 4456788 0 -1
-3.548807144165039 1.4341448545455933 0.5935913920402527 4456788 0 -1
-2.753901243209839 2.593949556350708 0.8310279250144958 4456788 0 -1
-3.1155312061309814 2.299715518951416 0.08903870731592178 4456788 0 -1
-1.974547028541565 3.2345261573791504 0.8013483881950378 4456788 0 -1
-3.4305789470672607 1.7685295343399048 0.32647526264190674 4456788 0 -1
-3.275421619415283 2.0253679752349854 0.4155139625072479 4456788 0 -1
-3.4391896724700928 1.7729685306549072 0.17807741463184357 4456788 0 -1
-3.216404914855957 2.1178388595581055 0.4155139625072479 4456788 0 -1
-3.036736488342285 2.362877130508423 0.4451935291290283 4456788 0 -1
-3.020108938217163 2.410548686981201 0.26711612939834595 4456788 0 -1
-2.982727527618408 2.440824270248413 0.38583439588546753 4456788 0 -1
-3.020885467529297 2.35054349899292 0.5935913920402527 4456788 0 -1
-2.898247718811035 2.548868179321289 0.32647526264190674 4456788 0 -1
-2.9750232696533203 2.4345197677612305 0.4748730957508087 4456788 0 -1
-2.858992338180542 2.514345169067383 0.7123096585273743 4523353 0 -1
-3.590806007385254 1.4511175155639648 0.05935913696885109 4212104 0 -1
-2.3439409732818604 2.961127758026123 0.8607075214385986 4212104 0 -1
-3.5611300468444824 1.522492527961731 -0.05935913696885109 4147337 0 -1
-3.70896577835083 1.1130133867263794 0.08903870731592178 2994813 0 -1
-3.51690673828125 1.583564043045044 0.35615482926368713 2994813 0 -1
-2.479389190673828 2.830063581466675 0.9200666546821594 2994813 0 -1
-2.7854723930358887 2.5652034282684326 0.9577272534370422 4456788 0 -1
-2.2249505519866943 3.0447466373443604 1.017585277557373 4456788 0 -1
-3.0804214477539062 2.3968682289123535 0.1496448814868927 4456788 0 -1
-3.3440651893615723 2.0002598762512207 -0.2693607807159424 4456788 0 -1
-3.0156302452087402 2.4677493572235107 0.2693607807159424 4456788 0 -1
-3.035139799118042 2.422545909881592 0.41900569200515747 4456788 0 -1
-3.0470147132873535 2.4320240020751953 0.23943181335926056 4456788 0 -1
-3.0648961067199707 2.3847880363464355 0.41900569200515747 4456788 0 -1
-3.0564191341400146 2.37819242477417 0.5087926387786865 4456788 0 -1
-2.918452024459839 2.566636800765991 0.38907670974731445 4456788 0 -1
-3.000023365020752 2.4549779891967773 0.4788636267185211 4456788 0 -1
-2.927969217300415 2.5149683952331543 0.5985795259475708 4523353 0 -1
-2.945870876312256 2.5303449630737305 0.41900569200515747 4590430 0 -1
-2.9559147357940674 2.5389721393585205 0.2693607807159424 4724328 0 -1
-3.614595890045166 1.4607313871383667 0.23943181335926056 4212104 0 -1
-3.733210802078247 1.2251801490783691 0.2716054618358612 4456788 0 -1
-3.5270159244537354 1.6663671731948853 0.5432109236717224 4456788 0 -1
-2.37798810005188 2.885468006134033 1.2373137474060059 4456788 0 -1
3.8316421508789062 0.906653881072998 0.09053515642881393 4456788 0 -1
-2.8981964588165283 2.548823118209839 0.784637987613678 4456788 0 -1
-2.4545950889587402 2.9784233570098877 0.784637987613678 4456788 0 -1
-3.039055824279785 2.4869189262390137 0.30178385972976685 4456788 0 -1
-3.0422849655151367 2.4895613193511963 0.24142707884311676 4456788 0 -1
-3.187525749206543 2.2893624305725098 0.3319622278213501 4456788 0 -1
-3.0877740383148193 2.4025893211364746 0.45267578959465027 4456788 0 -1
-2.935171365737915 2.581340789794922 0.4828541576862335 4456788 0 -1
-3.0278172492980957 2.47772216796875 0.45267578959465027 4456788 0 -1
-2.959106683731079 2.5417139530181885 0.5432109236717224 4523353 0 -1
-2.967860460281372 2.5492329597473145 0.45267578959465027 4590430 0 -1
-2.9788765907287598 2.558695077896118 0.30178385972976685 4724328 0 -1
-2.985466718673706 2.5643556118011475 0.15089192986488342 4725613 0 -1
-3.5341858863830566 1.6697547435760498 0.4828541576862335 4341894 0 -1
-2.7366786003112793 2.753451347351074 0.6639244556427002 4341894 0 -1
-2.55987811088562 2.8623058795928955 0.8751731514930725 4341894 0 -1
-3.862720012664795 0.7682342529296875 0.030178384855389595 4341894 0 -1
-1.9782072305679321 3.3067309856414795 0.814816415309906 8705099 0 -1
-3.2252514362335205 2.316458225250244 0.03042779304087162 4456788 0 -1
-3.0298891067504883 2.5407872200012207 0.36513352394104004 4456788 0 -1
-2.520930528640747 2.8774802684783936 1.0649727582931519 4456788 0 -1
-3.893728494644165 0.7744013071060181 0.09128338098526001 4456788 0 -1
-3.2249672412872314 2.316254138946533 0.06085558608174324 4456788 0 -1
-2.836982250213623 2.553581953048706 -1.0954005718231201 4456788 0 -1
-2.943066120147705 2.5882837772369385 0.6389836668968201 4456788 0 -1
-3.0226144790649414 2.534686803817749 0.45641690492630005 4456788 0 -1
-2.879265069961548 2.6515791416168213 0.6694114804267883 4456788 0 -1
-2.976768732070923 2.556884527206421 0.6085558533668518 4523353 0 -1
-2.976768732070923 2.556884527206421 0.6085558533668518 4523353 0 -1
-2.9392497539520264 2.584927558898926 0.6694114804267883 4590430 0 -1
-2.841341257095337 2.6763110160827637 0.7302670478820801 4590430 0 -1
-2.9995903968811035 2.5764870643615723 0.36513352394104004 4724328 0 -1
-2.585573434829712 2.8910367488861084 0.8519781827926636 4341894 0 -1
-3.8943002223968506 0.7745150327682495 0.06085558608174324 4341894 0 -1
-2.5176846981048584 2.8737754821777344 1.196410894393921 4456788 0 -1
-2.938347816467285 2.523883104324341 1.01234769821167 4456788 0 -1
-2.8212695121765137 2.71718692779541 0.8282844424247742 4456788 0 -1
-2.8535940647125244 2.5685343742370605 1.135056495666504 4456788 0 -1
-2.781651735305786 2.738554000854492 0.8896388411521912 4456788 0 -1
-2.8414721488952637 2.67643404006958 0.8896388411521912 4523353 0 -1
-2.830749273300171 2.6068997383117676 1.1043792963027954 4590430 0 -1
-2.5471351146698 2.90739107131958 1.0430248975753784 4724328 0 -1
-2.254392623901367 3.3408467769622803 -0.21648626029491425 4456788 0 -1
-3.0440666675567627 2.614689826965332 -0.4329725205898285 4456788 0 -1
-2.2223057746887207 3.2932965755462646 -0.7113119959831238 4456788 0 -1
-3.0442545413970947 2.5528335571289062 -0.7113119959831238 4456788 0 -1
-2.854477643966675 2.8102517127990723 -0.4948257505893707 4456788 0 -1
-2.5003445148468018 3.1587140560150146 -0.24741287529468536 4456788 0 -1
-2.365567445755005 3.2371745109558105 -0.4638991355895996 4456788 0 -1
-2.3326914310455322 3.256394863128662 -0.4948257505893707 4456788 0 -1
-2.1668176651000977 3.147717237472534 1.2989176511764526 4456788 0 -1
-2.3435122966766357 3.2715003490448 0.3092660903930664 4456788 0 -1
-2.2565817832946777 3.3440911769866943 0.12370643764734268 4523353 0 -1
-2.287964344024658 3.3237059116363525 0.09277983009815216 4590430 0 -1
-2.254098653793335 3.3404111862182617 -0.5611683130264282 4456788 0 -1
-2.6808226108551025 3.0599868297576904 -0.06235203519463539 4456788 0 -1
-2.3903839588165283 3.271134853363037 -0.37411221861839294 4456788 0 -1
-3.115229368209839 2.549253225326538 -0.592344343662262 4456788 0 -1
-2.333804130554199 3.323457717895508 0.24940814077854156 4456788 0 -1
-2.3903839588165283 3.271134853363037 0.37411221861839294 4523353 0 -1
-2.2734427452087402 3.3690779209136963 0.18705610930919647 4523353 0 -1
-2.2873687744140625 3.322840690612793 0.5299922823905945 4590430 0 -1
-3.423762083053589 2.2543728351593018 -0.12570171058177948 4456788 0 -1
-3.424466371536255 2.2548365592956543 0.09427627921104431 4456788 0 -1
-2.3981523513793945 3.216998815536499 0.8484864830970764 4456788 0 -1
-3.3309974670410156 2.3924076557159424 0.03142542764544487 4456788 0 -1
-2.6070849895477295 3.1634557247161865 -0.12570171058177948 4456788 0 -1
-2.4502575397491455 3.221935749053955 -0.6599339246749878 4523353 0 -1
-3.4516446590423584 2.2727320194244385 -0.09502450376749039 4456788 0 -1
-3.3210699558258057 2.451432943344116 -0.22172383964061737 4456788 0 -1
-3.2272167205810547 2.972015380859375 0.9637130498886108 4456788 0 -1
-3.187993049621582 3.002828598022461 0.9981313943862915 4523353 0 -1
-3.2389779090881348 2.982846736907959 1.040031909942627 4456788 0 -1
-3.2389779090881348 2.982846736907959 1.040031909942627 4523353 0 -1
-3.2359862327575684 4.006650447845459 -1.1313153505325317 4456788 0 -1
-3.0491058826446533 4.090219974517822 1.3333358764648438 4456788 0 -1
-4.37833309173584 2.5298309326171875 -1.4949524402618408 4456788 0 -1
-3.1453943252563477 3.894483804702759 -1.6565688848495483 4523353 0 -1
-3.375082015991211 3.932194709777832 -1.138298749923706 4456788 0 -1
-3.1891469955444336 3.9486563205718994 -1.544834017753601 4456788 0 -1
-4.593848705291748 2.6543571949005127 0 4456788 0 -1
-3.3335893154144287 4.127498149871826 0 4523353 0 -1
-3.4147961139678955 4.060366153717041 0.0406535267829895 4600703 0 -1
-5.122203826904297 1.0187257528305054 0.9350311160087585 4600703 0 -1
-2.4391400814056396 4.711475372314453 0.0406535267829895 4536450 0 -1
-1.166761040687561 4.93975830078125 -1.544834017753601 4536450 0 -1
-4.683910846710205 2.5130786895751953 -0.4908352196216583 4456788 0 -1
-4.416998386383057 2.996487617492676 -0.08180586993694305 4456788 0 -1
-4.1598334312438965 3.3202383518218994 0.40902936458587646 4456788 0 -1
-4.1598334312438965 3.3202383518218994 0.40902936458587646 4456788 0 -1
-3.5977671146392822 3.940153121948242 -0.1636117398738861 4456788 0 -1
-3.475116014480591 4.048740863800049 -0.1636117398738861 4456788 0 -1
-3.5581374168395996 3.9785008430480957 -0.08180586993694305 4456788 0 -1
-4.6220316886901855 2.6706416606903076 0 4456788 0 -1
-3.5110371112823486 4.007623672485352 0.3272234797477722 4523353 0 -1
-3.3515782356262207 4.149771213531494 -0.20451468229293823 4523353 0 -1
-3.558450937271118 3.978851318359375 0.04090293496847153 4590430 0 -1
-3.3868613243103027 4.109642028808594 -0.36812642216682434 4590430 0 -1
-3.4357457160949707 4.085276126861572 0.04090293496847153 4664956 0 -1
-3.394544839859009 4.1189656257629395 -0.08180586993694305 4600703 0 -1
-3.494250535964966 4.071033954620361 -0.2469140589237213 4456788 0 -1
-3.5324459075927734 4.032060146331787 -0.3292187452316284 4456788 0 -1
-4.6496686935424805 2.686610460281372 0.0823046863079071 4456788 0 -1
-3.5353593826293945 4.035385608673096 -0.2469140589237213 4523353 0 -1
-3.5374388694763184 4.037759304046631 -0.1646093726158142 4590430 0 -1
-3.5374388694763184 4.037759304046631 -0.1646093726158142 4657508 0 -1
-3.4056026935577393 4.132382869720459 -0.4115234315395355 4657508 0 -1
-3.2863173484802246 4.151642799377441 -1.0764455795288086 4456788 0 -1
-3.808513879776001 3.8318560123443604 -0.08280350267887115 4456788 0 -1
-4.719245433807373 2.629946708679199 0.08280350267887115 4456788 0 -1
-3.765789270401001 3.8711960315704346 0.1656070053577423 4523353 0 -1
-3.3724448680877686 4.175607204437256 -0.6210262775421143 4590430 0 -1
-3.3587725162506104 4.158679008483887 -0.7866332530975342 4657508 0 -1
-3.8308942317962646 3.8543734550476074 -0.12495347857475281 4456788 0 -1
-4.706581115722656 2.7194948196411133 0 4456788 0 -1
-3.9955756664276123 3.679614305496216 -0.208255797624588 4456788 0 -1
-3.8308942317962646 3.8543734550476074 0.12495347857475281 4523353 0 -1
-4.10613489151001 3.6111464500427246 -0.04190056771039963 4456788 0 -1
-4.5650129318237305 2.914498805999756 -0.7542102336883545 4456788 0 -1
-4.105773448944092 3.610828399658203 0.08380113542079926 4523353 0 -1
-4.1305766105651855 3.632641315460205 -0.04214997589588165 4456788 0 -1
-4.57607889175415 2.9215636253356934 -0.8851494789123535 4456788 0 -1
-4.088427543640137 3.680014133453369 -0.04214997589588165 4523353 0 -1
-3.4741969108581543 4.301591873168945 0.211996927857399 4456788 0 -1
-4.1108078956604 3.7001588344573975 -0.1695975363254547 4456788 0 -1
-3.8149361610412598 4.0060906410217285 0.12719815969467163 4456788 0 -1
-4.547327995300293 2.903208017349243 -1.2295821905136108 4456788 0 -1
-3.649445056915283 4.08059549331665 0.8055883049964905 4523353 0 -1
-3.6573450565338135 4.089428901672363 0.9382734298706055 4523353 0 -1
-1.9299986362457275 5.38934850692749 0.21947915852069855 7589974 4 -1
-1.9724689722061157 5.369645595550537 0.3072708249092102 8180304 4 -1
-2.1625452041625977 5.338351249694824 0.13243572413921356 2070922 4 -1
-1.8955128192901611 5.431728363037109 0.3090166747570038 5949540 4 -1
-1.896851658821106 5.435564994812012 0.22072620689868927 6343264 4 -1
-1.896851658821106 5.435564994812012 0.22072620689868927 6933851 4 -1
-1.896851658821106 5.435564994812012 0.22072620689868927 7589974 4 -1
-1.8973535299301147 5.437003135681152 0.17658096551895142 8180304 4 -1
-1.897743821144104 5.438121318817139 0.13243572413921356 8705099 4 -1
-1.8973535299301147 5.437003135681152 0.17658096551895142 9360965 4 -1
-2.1750824451446533 5.36929988861084 0.08878929913043976 2199437 4 -1
-2.2191460132598877 5.350317478179932 0.13318394124507904 2134668 4 -1
-2.1750824451446533 5.36929988861084 0.08878929913043976 2070155 4 -1
-2.1750824451446533 5.36929988861084 0.08878929913043976 2070922 4 -1
-2.2181026935577393 5.347802639007568 0.2219732403755188 2006409 4 -1
-2.130692958831787 5.387068748474121 0.08878929913043976 2072968 4 -1
-2.13088059425354 5.387543201446533 0.04439464956521988 3257723 4 -1
-2.13088059425354 5.387543201446533 0.04439464956521988 4045940 4 -1
-1.9512990713119507 5.448827743530273 0.2663678824901581 6343264 4 -1
-1.9512990713119507 5.448827743530273 0.2663678824901581 6933851 4 -1
-1.907568335533142 5.466274261474609 0.2219732403755188 7589974 4 -1
-1.9080730676651 5.4677205085754395 0.17757859826087952 8180304 4 -1
-1.9080730676651 5.4677205085754395 0.17757859826087952 8705099 4 -1
-1.907568335533142 5.466274261474609 0.2219732403755188 9360965 4 -1
-1.907568335533142 5.466274261474609 0.2219732403755188 10672695 4 -1
-1.9084655046463013 5.468845367431641 0.13318394124507904 13164576 4 -1
-2.2637083530426025 5.332115650177002 -0.6250168085098267 4147337 4 -1
-2.2672014236450195 5.340343475341797 -0.5357286930084229 3692940 4 -1
-2.1305489540100098 5.386704921722412 -0.6250168085098267 3692940 4 -1
-2.1429147720336914 5.417969226837158 0 2264205 4 -1
-2.1873018741607666 5.399464130401611 0.08928811550140381 2199437 4 -1
-2.2316129207611084 5.380375862121582 0.1339321732521057 2134668 4 -1
-2.187558889389038 5.4000983238220215 0 2070155 4 -1
-2.1873018741607666 5.399464130401611 0.08928811550140381 2070922 4 -1
-2.231154203414917 5.379269123077393 0.17857623100280762 2006409 4 -1
-2.276245355606079 5.361645698547363 0.1339321732521057 2666112 4 -1
-2.1429147720336914 5.417969226837158 0 3257723 4 -1
-2.043412685394287 5.425321102142334 0.5803727507591248 5424489 4 -1
-2.095250129699707 5.427590847015381 0.31250840425491333 5949540 4 -1
-1.917664647102356 5.495205879211426 0.2678643465042114 8705099 4 -1
-1.9187926054000854 5.498438358306885 0.17857623100280762 13164576 4 -1
-2.2763547897338867 5.361903667449951 -0.6285085082054138 4147337 4 -1
-2.233509063720703 5.384947299957275 -0.5836150646209717 3692940 4 -1
-2.1919519901275635 5.410943031311035 -0.4938281178474426 2977934 4 -1
-2.244080066680908 5.410433769226074 0.1346803903579712 2264205 4 -1
-2.1997151374816895 5.430107116699219 0.04489346593618393 2199437 4 -1
-2.154886245727539 5.448237419128418 0 2134668 4 -1
-2.1997151374816895 5.430107116699219 0.04489346593618393 2139270 4 -1
-2.244080066680908 5.410433769226074 0.1346803903579712 2271109 4 -1
-2.199779748916626 5.430266380310059 0 3257723 4 -1
-2.1097450256347656 5.4651384353637695 -0.08978693187236786 3651704 4 -1
-2.1099929809570312 5.465780735015869 0 4045940 4 -1
-2.1099929809570312 5.465780735015869 0 4505456 4 -1
-2.0172977447509766 5.491683006286621 0.3142542541027069 5949540 4 -1
-2.0172977447509766 5.491683006286621 0.3142542541027069 6343264 4 -1
-2.1097450256347656 5.4651384353637695 0.08978693187236786 8705099 4 -1
-2.064857006072998 5.482255935668945 -0.08978693187236786 10016830 4 -1
-2.2547569274902344 5.436175346374512 -0.2708572447299957 2264205 4 -1
-2.165839910507202 5.475931644439697 -0.18057149648666382 2199437 4 -1
-2.165839910507202 5.475931644439697 -0.18057149648666382 2134668 4 -1
-2.212000846862793 5.460434913635254 0 2070155 4 -1
-2.2117409706115723 5.459793567657471 -0.09028574824333191 2139270 4 -1
-2.25707745552063 5.441769599914551 0.045142874121665955 2271109 4 -1
-2.25707745552063 5.441769599914551 -0.045142874121665955 4045940 4 -1
-1.9764074087142944 5.5189409255981445 0.5868573784828186 5424489 4 -1
-2.0254569053649902 5.513894557952881 0.45142874121665955 5949540 4 -1
-2.1214659214019775 5.495500564575195 0.09028574824333191 8705099 4 -1
-2.1666035652160645 5.4778618812561035 0.09028574824333191 9360965 4 -1
-2.211416244506836 5.458992004394531 0.13542862236499786 10016830 4 -1
-2.1217150688171387 5.496145725250244 0 10672695 4 -1
-2.031190872192383 5.529503345489502 0.09028574824333191 12640037 4 -1
-2.2189266681671143 5.477531433105469 -0.4085305333137512 2264205 4 -1
-2.223176956176758 5.488023281097412 -0.18156912922859192 2199437 4 -1
-2.176525592803955 5.50294828414917 -0.2723536789417267 2134668 4 -1
-2.223176956176758 5.488023281097412 -0.18156912922859192 2070155 4 -1
-2.2236340045928955 5.489151954650879 -0.13617683947086334 2139270 4 -1
-2.269547462463379 5.471834659576416 -0.04539228230714798 2271109 4 -1
-2.223176956176758 5.488023281097412 -0.18156912922859192 3651704 4 -1
-2.223176956176758 5.488023281097412 -0.18156912922859192 4505456 4 -1
-2.131870985031128 5.522453784942627 0.2269614040851593 7589974 4 -1
-2.177229881286621 5.5047287940979 0.2269614040851593 9360965 4 -1
-2.223176956176758 5.488023281097412 0.18156912922859192 10016830 4 -1
-2.1331868171691895 5.525862216949463 0.09078456461429596 10672695 4 -1
-4.563632965087891 3.8269453048706055 -0.09128338098526001 4456788 0 -1
-3.9822471141815186 4.361222743988037 0.7759087085723877 4523353 0 -1
-3.787259340286255 4.595487594604492 0.13692507147789001 4523353 0 -1
-2.235851764678955 5.519312381744385 -0.13692507147789001 2139270 4 -1
-2.326017141342163 5.478882789611816 -0.22820845246315002 3257723 4 -1
-2.189192771911621 5.534974575042725 -0.22820845246315002 3651704 4 -1
-2.2814815044403076 5.500607490539551 -0.13692507147789001 4045940 4 -1
-2.2353920936584473 5.518177509307861 -0.18256676197052002 4505456 4 -1
-2.235851764678955 5.519312381744385 0.13692507147789001 7589974 4 -1
-2.1884846687316895 5.53318452835083 0.27385014295578003 8180304 4 -1
-2.0523681640625 5.587154388427734 0.22820845246315002 9360965 4 -1
-2.099271297454834 5.57362699508667 0.09128338098526001 13164576 4 -1
-3.534757375717163 4.647984981536865 -1.3308418989181519 4456788 0 -1
-3.518458127975464 4.719831943511963 -1.101386308670044 4456788 0 -1
-3.8546547889709473 4.310049057006836 -1.5602973699569702 4456788 0 -1
-3.455897331237793 4.6359100341796875 -1.5602973699569702 4456788 0 -1
-3.622735023498535 4.763670444488525 -0.22945548593997955 4456788 0 -1
-4.588974952697754 3.848196506500244 -0.04589109867811203 4456788 0 -1
-4.021308898925781 4.404001235961914 0.550693154335022 4523353 0 -1
-3.6044764518737793 4.73966121673584 0.6424753665924072 4523353 0 -1
-3.6362009048461914 4.686695575714111 -0.8260397911071777 4590430 0 -1
-2.202190637588501 5.567837715148926 -0.1376732885837555 2994813 4 -1
-2.2934768199920654 5.5295281410217285 -0.18356439471244812 3257723 4 -1
-2.1552979946136475 5.5831403732299805 -0.22945548593997955 3651704 4 -1
-2.2939486503601074 5.530665397644043 -0.1376732885837555 4045940 4 -1
-2.2934768199920654 5.5295281410217285 -0.18356439471244812 4505456 4 -1
-2.2485978603363037 5.55077600479126 -0.04589109867811203 4899181 4 -1
-2.294285535812378 5.531477451324463 0.09178219735622406 8180304 4 -1
-2.1047842502593994 5.588264465332031 0.4589109718799591 12640037 4 -1
-3.5539679527282715 4.673245906829834 -1.3380746841430664 4456788 0 -1
-3.5065219402313232 4.798520565032959 -0.968950629234314 4456788 0 -1
-3.718994617462158 4.604689598083496 -1.1073721647262573 4456788 0 -1
-3.463994026184082 4.740322589874268 -1.3380746841430664 4456788 0 -1
-3.6269707679748535 4.769239902496338 -0.5998265743255615 4456788 0 -1
-3.7055373191833496 4.681248188018799 -0.7843886017799377 4456788 0 -1
-3.4768004417419434 4.853550434112549 -0.7843886017799377 4456788 0 -1
-3.6364221572875977 4.781668186187744 -0.4152645468711853 4523353 0 -1
-3.6140427589416504 4.7522406578063965 -0.7843886017799377 4590430 0 -1
-3.6102633476257324 4.747270584106445 -0.8305290937423706 4657508 0 -1
-2.399306297302246 5.523014545440674 0 2070922 4 -1
-2.214484214782715 5.598919868469238 -0.09228101372718811 2070922 4 -1
-2.399024486541748 5.522366046905518 0.09228101372718811 2006409 4 -1
-2.214484214782715 5.598919868469238 -0.09228101372718811 2006409 4 -1
-2.260287284851074 5.579632759094238 -0.13842152059078217 2072968 4 -1
-2.394794225692749 5.512628078460693 0.36912405490875244 2994813 4 -1
-2.214484214782715 5.598919868469238 -0.09228101372718811 2994813 4 -1
-2.1663107872009277 5.611667633056641 -0.27684304118156433 3651704 4 -1
-2.3967692852020264 5.517174243927002 -0.27684304118156433 4045940 4 -1
-2.351438283920288 5.538761138916016 -0.23070253431797028 4505456 4 -1
-2.3067543506622314 5.561540126800537 -0.09228101372718811 4899181 4 -1
-2.11847186088562 5.624605178833008 0.36912405490875244 12640037 4 -1
-2.0018928050994873 5.4497456550598145 -1.7164268493652344 4456788 0 -1
-3.533965587615967 4.836075782775879 -0.8814083933830261 4456788 0 -1
-3.717548131942749 4.6964216232299805 -0.8814083933830261 4456788 0 -1
-3.499037265777588 4.884592533111572 -0.7422386407852173 4456788 0 -1
-3.7131972312927246 4.690925121307373 -0.9277982711791992 4456788 0 -1
-3.6371572017669678 4.782634258270264 -0.7422386407852173 4456788 0 -1
-3.72556734085083 4.706552505493164 -0.7886285185813904 4456788 0 -1
-3.5975332260131836 4.825907230377197 -0.6494588255882263 4523353 0 -1
-3.6371572017669678 4.782634258270264 -0.7422386407852173 4590430 0 -1
-3.6371572017669678 4.782634258270264 -0.7422386407852173 4657508 0 -1
-2.364774227142334 5.570173740386963 0.18555966019630432 2006409 4 -1
-2.2730391025543213 5.611110687255859 -0.04638991504907608 2072968 4 -1
-2.4105045795440674 5.548791885375977 0.2319495677947998 2994813 4 -1
-2.4097249507904053 5.5469970703125 0.2783394753932953 4899181 4 -1
-2.225080966949463 5.625711917877197 -0.2319495677947998 5424489 4 -1
-2.1793017387390137 5.64531946182251 0.18555966019630432 10016830 4 -1
-2.130864143371582 5.657507419586182 0.32472941279411316 12640037 4 -1
-2.2243614196777344 5.623892307281494 0.2783394753932953 13164576 4 -1
-1.9955164194107056 5.718295574188232 -0.6063112020492554 4456788 4 -1
-1.843536138534546 5.725372314453125 0.9327864646911621 4456788 0 -1
-2.2850584983825684 5.640780925750732 0.09327864646911621 2072968 4 -1
-2.3313498497009277 5.620839595794678 0.13991796970367432 2139270 4 -1
-2.377487897872925 5.600120544433594 0.18655729293823242 2994813 4 -1
-2.3760902881622314 5.596828460693359 0.27983593940734863 3257723 4 -1
-2.3319661617279053 5.6223249435424805 0 4045940 4 -1
-2.143833637237549 5.691941738128662 -0.23319661617279053 4045940 4 -1
-2.4206838607788086 5.572224140167236 0.37311458587646484 4899181 4 -1
-2.331897735595703 5.622159957885742 0.046639323234558105 5424489 4 -1
-2.331897735595703 5.622159957885742 0.046639323234558105 5424489 4 -1
-2.0402884483337402 5.697322368621826 0.6529505252838135 6343264 4 -1
-2.22576904296875 5.6274518966674805 0.6529505252838135 11197490 4 -1
-2.2321057319641113 5.643472671508789 0.46639323234558105 13164576 4 -1
-1.9385027885437012 5.703076362609863 1.07844078540802 4456788 0 -1
-2.3910443782806396 5.632052898406982 0.09377746284008026 2994813 4 -1
-2.3910443782806396 5.632052898406982 0.09377746284008026 3257723 4 -1
-2.34416127204895 5.651727199554443 0.09377746284008026 4045940 4 -1
-2.4686336517333984 5.554914951324463 0.703330934047699 6343264 4 -1
-2.235743522644043 5.652670383453369 0.703330934047699 6343264 4 -1
-2.051198959350586 5.727789402008057 0.6564422249794006 6343264 4 -1
-2.338855028152466 5.638934135437012 0.4219985902309418 11918891 4 -1
-2.1492063999176025 5.706206321716309 0.5157760381698608 11918891 4 -1
-2.0961596965789795 5.706368446350098 -0.9427627921104431 4729209 4 -1
-2.4936230182647705 5.611146450042725 0.37710511684417725 2994813 4 -1
-2.4500315189361572 5.639780044555664 0.18855255842208862 3651704 4 -1
-2.3535141944885254 5.674276828765869 0.3299669623374939 4045940 4 -1
-2.543590784072876 5.5964202880859375 0.23569069802761078 4505456 4 -1
-2.308073043823242 5.697593688964844 0.23569069802761078 4505456 4 -1
-2.200810194015503 5.701035976409912 0.7070720791816711 11197490 4 -1
-2.2089791297912598 5.72219705581665 0.47138139605522156 11918891 4 -1
-2.416693925857544 5.692469596862793 0.04738754779100418 2264205 4 -1
-2.4638631343841553 5.671618938446045 0.09477509558200836 2006409 4 -1
-2.505560874938965 5.6380085945129395 0.42648792266845703 2994813 4 -1
-2.4615468978881836 5.666287422180176 0.2843252718448639 3651704 4 -1
-2.363736629486084 5.698923110961914 0.42648792266845703 4045940 4 -1
-2.365966558456421 5.704299449920654 0.33171284198760986 6933851 4 -1
-2.4294846057891846 5.722598075866699 0 2458766 4 -1
-2.477048873901367 5.701972007751465 0.047636955976486206 2328718 4 -1
-2.2347264289855957 5.788893222808838 -0.38109564781188965 2264205 4 -1
-2.425987482070923 5.714360237121582 0.33345869183540344 2139270 4 -1
-2.0436227321624756 5.706633567810059 1.3814717531204224 2139270 0 -1
-2.5220890045166016 5.67519998550415 0.28582173585891724 2468738 4 -1
-2.1330013275146484 5.806661605834961 -0.6192803978919983 2468738 4 -1
-2.427700996398926 5.7183966636657715 0.23818477988243103 2666112 4 -1
-2.5187478065490723 5.66768217086792 0.42873260378837585 2994813 4 -1
-2.0920841693878174 5.841958045959473 -0.38109564781188965 2994813 4 -1
-2.056149482727051 5.892044544219971 -0.335204541683197 3692940 4 -1
-2.029815196990967 5.668076992034912 1.6760227680206299 2328718 0 -1
-2.4376118183135986 5.741741180419922 0.38309091329574585 2070922 4 -1
-2.0965206623077393 5.854345798492432 -0.6225227117538452 2070922 4 -1
-2.0995023250579834 5.862672328948975 -0.5267499685287476 2468738 4 -1
-2.1030375957489014 5.872544288635254 -0.38309091329574585 2666112 4 -1
-2.1008055210113525 5.866311073303223 -0.4788636267185211 2994813 4 -1
-2.1139910221099854 5.903130531311035 -0.38508617877960205 4147337 4 -1
-2.109001636505127 5.889197826385498 -0.5776292681694031 4017546 4 -1
-2.162991523742676 5.888304233551025 -0.3369503915309906 2134668 4 -1
-2.1104371547698975 5.89320707321167 -0.529493510723114 2468738 4 -1
-2.4531219005584717 5.778275012969971 0.24067886173725128 2666112 4 -1
-2.1139910221099854 5.903130531311035 -0.38508617877960205 2666112 4 -1
-2.1117472648620605 5.896864891052246 -0.48135772347450256 2994813 4 -1
-2.4427144527435303 5.75376033782959 0.6257650256156921 5424489 4 -1
-2.0573551654815674 5.744980335235596 1.4922089576721191 5424489 0 -1
-2.1166627407073975 5.910591125488281 -0.6773925423622131 4657508 4 -1
-2.1226887702941895 5.9274187088012695 -0.4838517904281616 4147337 4 -1
-2.118359327316284 5.9153289794921875 -0.6290073394775391 4017546 4 -1
-2.119929075241089 5.919712066650391 -0.580622136592865 2468738 4 -1
-2.465832471847534 5.80821418762207 0.2419258952140808 2666112 4 -1
-2.0680150985717773 5.774746894836426 1.4999405145645142 5424489 0 -1
-2.45719051361084 5.787858486175537 0.580622136592865 5949540 4 -1
-2.1740524768829346 5.918415546417236 -0.7295188307762146 4657508 4 -1
-2.1120364665985107 5.897672176361084 -1.0213263034820557 4212104 4 -1
-2.3666093349456787 5.7058491706848145 -1.4590376615524292 2006409 0 -1
-2.1120364665985107 5.897672176361084 -1.0213263034820557 2006409 4 -1
-2.4271562099456787 5.8518266677856445 0.38907670974731445 2072968 4 -1
-2.430586814880371 5.860097885131836 0.19453835487365723 2666112 4 -1
-2.4291582107543945 5.856653213500977 0.29180753231048584 10672695 4 -1
-2.1844406127929688 5.946695327758789 0.38907670974731445 10672695 4 -1
-2.1398589611053467 5.975364685058594 0.04863458871841431 11918891 4 -1
-0.707248866558075 6.112614154815674 1.5563068389892578 11918891 0 -1
-2.01068115234375 5.915424823760986 1.1185954809188843 12640037 0 -1
-2.127979278564453 5.9421916007995605 -0.9287959337234497 4212104 4 -1
-2.0691111087799072 5.929186820983887 -1.1243319511413574 3562893 4 -1
-2.0861549377441406 5.978026866912842 -0.7821439504623413 2912910 4 -1
-2.1919519901275635 5.9671430587768555 -0.537723958492279 2264205 4 -1
-0.7625893354415894 6.173278331756592 1.4176359176635742 11918891 0 -1
-3.715183734893799 5.186328887939453 0 12640037 0 -1
-0.7582675218582153 6.13829231262207 1.5642879009246826 12640037 0 -1
-5.317620277404785 2.963409900665283 -2.014469623565674 3562893 0 -1
-2.090226411819458 5.989694118499756 -0.9335346817970276 3562893 4 -1
-2.0925445556640625 5.996337413787842 -0.884401261806488 2977934 4 -1
-2.1493947505950928 6.001992225646973 -0.6878676414489746 2264205 4 -1
-0.7664800882339478 6.204774379730225 1.4248687028884888 11918891 0 -1
-3.7340290546417236 5.212636947631836 0.04913340508937836 12640037 0 -1
-0.7650822997093201 6.1934590339660645 1.4740021228790283 12640037 0 -1
-3.7341387271881104 5.212790012359619 0 13164576 0 -1
-0.763634443283081 6.181738376617432 1.5231355428695679 13164576 0 -1
-2.1031668186187744 6.026775360107422 -0.8888906240463257 2977934 4 -1
-0.8199585676193237 6.241090774536133 1.3827186822891235 11918891 0 -1
-0.7703709006309509 6.236270904541016 1.4321016073226929 12640037 0 -1
-3.753093719482422 5.239250659942627 0 13164576 0 -1
-0.8170263767242432 6.2187724113464355 1.4814844131469727 13164576 0 -1
-5.426182746887207 3.1352856159210205 -1.637863278388977 4899181 0 -1
-5.464555263519287 3.1574575901031494 -1.5962121486663818 4899181 0 -1
-1.4011732339859009 6.14796781539917 -1.9745643138885498 4456788 0 -1
-3.7366628646850586 5.42821741104126 0.8140681982040405 4456788 0 -1
-3.8627350330352783 5.392308235168457 0.305275559425354 4523353 0 -1
-2.1240427494049072 5.931199073791504 2.198532819747925 4456788 0 -1
-3.809237480163574 5.424551010131836 -0.7669300436973572 4456788 0 -1
-3.805722713470459 5.419546127319336 -0.8180587291717529 4456788 0 -1
-3.8784713745117188 5.414275646209717 0.40902936458587646 4456788 0 -1
-3.6759650707244873 5.557284832000732 -0.3579006791114807 4456788 0 -1
-3.7235071659088135 5.51796817779541 -0.46015802025794983 4456788 0 -1
-3.8305954933166504 5.454966068267822 -0.30677202343940735 4456788 0 -1
-3.7306392192840576 5.528537750244141 -0.20451468229293823 4523353 0 -1
-3.7306392192840576 5.528537750244141 -0.20451468229293823 4590430 0 -1
-3.7314066886901855 5.529674530029297 -0.15338601171970367 4657508 0 -1
-3.79292631149292 5.509951114654541 -0.46240270137786865 4456788 0 -1
-3.79292631149292 5.509951114654541 -0.46240270137786865 4456788 0 -1
-3.850526809692383 5.483349323272705 -0.2568903863430023 4456788 0 -1
-3.8009731769561768 5.521640300750732 -0.15413422882556915 4456788 0 -1
-3.84610915184021 5.477058410644531 -0.41102463006973267 4523353 0 -1
-3.850526809692383 5.483349323272705 -0.2568903863430023 4590430 0 -1
-3.847808837890625 5.47947883605957 -0.3596465289592743 4657508 0 -1
-3.8647797107696533 5.503645896911621 -0.41301989555358887 4456788 0 -1
-3.8113386631011963 5.536698341369629 -0.4646473824977875 4456788 0 -1
-3.8702423572540283 5.511425018310547 -0.20650994777679443 4456788 0 -1
-4.543218612670898 4.975579738616943 0 4456788 0 -1
-4.023987293243408 5.397973537445068 -0.25813743472099304 4456788 0 -1
-3.820321798324585 5.549747943878174 -0.05162748694419861 4456788 0 -1
-3.866487503051758 5.506078243255615 -0.36139240860939026 4523353 0 -1
-3.869218587875366 5.50996732711792 -0.25813743472099304 4590430 0 -1
-3.9208080768585205 5.473377227783203 -0.25813743472099304 4657508 0 -1
-4.046278953552246 5.4278764724731445 -0.051876895129680634 4523353 0 -1
-3.9384748935699463 5.498039722442627 -0.3112613558769226 4523353 0 -1
-4.489214897155762 5.786144733428955 0.05611683055758476 4456788 0 -1
-4.847354412078857 5.5329437255859375 -0.05636623874306679 4456788 0 -1
-5.05147123336792 5.304584503173828 -0.6763948798179626 4456788 0 -1
-4.507180690765381 5.809300899505615 0.22546495497226715 4456788 0 -1
-4.508769512176514 5.811348915100098 0.11273247748613358 4456788 0 -1
-6.371002197265625 3.5504398345947266 -0.9582260847091675 4523353 0 -1
-4.150356292724609 6.029186725616455 0.7327611446380615 4523353 0 -1
-6.241705417633057 3.6065003871917725 -1.465522289276123 2468738 0 -1
-4.382978439331055 5.76334285736084 -1.4720067977905273 4456788 0 -1
-4.585867404937744 5.793379306793213 0 4456788 0 -1
-4.529252052307129 5.837748050689697 0 4456788 0 -1
-4.174649715423584 6.06447696685791 0.6227721571922302 4523353 0 -1
-6.366932392120361 3.2822763919830322 -1.811700701713562 4590430 0 -1
-6.105688095092773 4.142093181610107 -0.3963095247745514 4590430 0 -1
-4.582500457763672 5.789125919342041 0.28307825326919556 4590430 0 -1
-6.2037672996521 3.710797071456909 -1.5286225080490112 2328718 0 -1
-6.193293571472168 3.7045323848724365 -1.5852380990982056 2139270 0 -1
-1.9990578889846802 6.761795997619629 2.208010196685791 2139270 0 -1
-6.213842868804932 3.7168238162994385 -1.4720067977905273 2468738 0 -1
-1.9498510360717773 6.794336318969727 2.1513946056365967 2468738 0 -1
-2.00882887840271 6.794846057891846 2.0947790145874023 2666112 0 -1
-6.94260835647583 2.083388328552246 -1.5922216176986694 4456788 0 -1
-5.563141345977783 4.778439998626709 -1.1373010873794556 4456788 0 -1
-4.41572380065918 5.806401252746582 -1.3647613525390625 4456788 0 -1
-3.850442886352539 6.307450771331787 -0.6823806762695312 4456788 0 -1
-3.4110019207000732 6.588736534118652 0.1705951690673828 4456788 0 -1
0.6246151924133301 7.384232997894287 0.39805540442466736 4456788 0 -1
-4.605528831481934 5.818217754364014 -0.11373011022806168 4456788 0 -1
-4.549070835113525 5.863293170928955 -0.05686505511403084 4456788 0 -1
-4.60390567779541 5.81616735458374 0.22746022045612335 4523353 0 -1
-4.258739948272705 6.064665794372559 0.39805540442466736 4523353 0 -1
-6.362563610076904 3.5457370281219482 -1.4216264486312866 2139270 0 -1
-6.445895671844482 3.458444118499756 -1.2510312795639038 2468738 0 -1
-2.077033519744873 6.824267387390137 2.0471420288085938 2468738 0 -1
-6.546585559844971 3.3748912811279297 -0.9098408818244934 2666112 0 -1
-6.185491561889648 3.824819564819336 -1.4784914255142212 2666112 0 -1
-1.9086146354675293 6.856080055236816 2.1040070056915283 2666112 0 -1
-6.203855991363525 3.5846304893493652 -1.933411955833435 3257723 0 -1
-3.864467144012451 6.330423831939697 -0.7424880266189575 4456788 0 -1
-4.678433895111084 5.792623519897461 -0.3426867723464966 4456788 0 -1
-4.511512756347656 5.9323577880859375 -0.11422892659902573 4456788 0 -1
-6.380175590515137 3.423182964324951 -1.7705483436584473 2523534 0 -1
-4.697066307067871 5.815693378448486 -0.4015471041202545 4456788 0 -1
-4.473856449127197 6.001450061798096 -0.11472774296998978 4456788 0 -1
-6.352314472198486 3.540025472640991 -1.7782800197601318 2523534 0 -1
-6.49359130859375 3.484034538269043 -1.3193690776824951 2072968 0 -1
-6.208197116851807 3.8388595581054688 -1.6635522842407227 2072968 0 -1
-6.49271297454834 3.483563184738159 -1.4979453086853027 2070922 0 -1
-6.302426815032959 3.769810438156128 -1.6131718158721924 2070922 0 -1
-6.392029762268066 3.5621581077575684 -1.7283984422683716 5949540 0 -1
-6.4659576416015625 3.3333258628845215 -1.9012383222579956 8705099 0 -1
-6.473921298980713 3.607794761657715 -1.2674921751022339 9360965 0 -1
-6.5775227546691895 3.3908398151397705 -1.5044299364089966 2070922 0 -1
-6.329710006713867 3.786129951477051 -1.6201553344726562 2070922 0 -1
-6.54072380065918 3.5093226432800293 -1.388704538345337 3651704 0 -1
-6.442740440368652 3.5904183387756348 -1.6201553344726562 5949540 0 -1
-6.175353050231934 4.189353942871094 -1.1572537422180176 5949540 0 -1
-6.629128932952881 3.2759950160980225 -1.6852507591247559 4505456 0 -1
-6.158568382263184 4.300633430480957 -1.0460177659988403 5949540 0 -1
-4.452908992767334 6.731860160827637 0.12370643764734268 4456788 0 -1
-4.469288349151611 6.756622791290283 0.24841050803661346 4456788 0 -1
-4.5697712898254395 6.772070407867432 -0.06260144710540771 4456788 0 -1
-3.7072203159332275 7.314475059509277 0.18855255842208862 4456788 0 -1
-4.5240654945373535 6.8394341468811035 -0.18855255842208862 4456788 0 -1
3.08286190032959 7.794454574584961 0.5147783756256104 4456788 5 -1
3.1644022464752197 7.811485767364502 0.19379012286663055 4456788 5 -1
3.160682439804077 7.802302837371826 0.452176958322525 4456788 5 -1
3.2221462726593018 7.768531799316406 0.5813703536987305 4456788 5 -1
3.0698158740997314 7.401266574859619 -2.723536968231201 4456788 0 -1
3.236208438873291 7.802435874938965 0.5187689065933228 4456788 5 -1
3.110328435897827 7.863898754119873 0.3242305815219879 4456788 5 -1
3.10813307762146 7.8583478927612305 0.4539228081703186 4456788 5 -1
3.236208438873291 7.802435874938965 0.5187689065933228 4456788 5 -1
3.250091075897217 7.835906505584717 0.45566868782043457 4456788 5 -1
3.250091075897217 7.835906505584717 0.45566868782043457 4456788 5 -1
3.0572433471679688 7.919563293457031 0.32547762989997864 4456788 5 -1
2.988762855529785 7.935253620147705 0.520764172077179 4456788 5 -1
3.317434310913086 7.814144134521484 0.32547762989997864 4456788 5 -1
3.250091075897217 7.835906505584717 0.45566868782043457 4456788 5 -1
3.0708510875701904 7.954813003540039 0.1306898593902588 4456788 5 -1
3.263791799545288 7.86893892288208 0.39206960797309875 4456788 5 -1
3.0704002380371094 7.953644752502441 0.19603480398654938 4456788 5 -1
3.3290677070617676 7.841546058654785 0.39206960797309875 4456788 5 -1
3.1179494857788086 7.517315864562988 -2.548452377319336 4456788 0 -1
2.949578285217285 8.029626846313477 0.3279716968536377 4456788 5 -1
3.210724115371704 7.925833225250244 0.3935660421848297 4456788 5 -1
3.0141491889953613 8.002655029296875 0.3935660421848297 4456788 5 -1
2.9486241340637207 8.027029037475586 0.3935660421848297 4456788 5 -1
3.0141491889953613 8.002655029296875 0.3935660421848297 4456788 5 -1
3.0172510147094727 8.01089096069336 0.06559433788061142 4456788 5 -1
3.0173397064208984 8.011125564575195 0 4456788 5 -1
3.0814857482910156 7.98236083984375 0.2623773515224457 4456788 5 -1
3.1451480388641357 7.58289098739624 -2.426990509033203 4456788 0 -1
2.9607932567596436 8.06015682220459 0.3292187452316284 4456788 5 -1
2.9598357677459717 8.057550430297852 0.39506250619888306 4456788 5 -1
3.0256097316741943 8.033082962036133 0.39506250619888306 4456788 5 -1
3.0273895263671875 8.037808418273926 0.2633749842643738 4456788 5 -1
3.028456687927246 8.040641784667969 0.1316874921321869 4456788 5 -1
3.0280120372772217 8.039461135864258 0.19753125309944153 4456788 5 -1
2.9628818035125732 8.065842628479004 0.06584374606609344 4456788 5 -1
3.0942928791046143 8.015536308288574 -0.1316874921321869 4456788 5 -1
2.9615767002105713 8.062289237976074 -0.2633749842643738 4456788 5 -1
3.038053035736084 8.066121101379395 0.33046579360961914 4456788 5 -1
3.038053035736084 8.066121101379395 0.33046579360961914 4456788 5 -1
3.1709811687469482 8.017248153686523 0.2643726170063019 4456788 5 -1
3.0399281978607178 8.071099281311035 0.13218630850315094 4456788 5 -1
2.974104881286621 8.096394538879395 0.06609315425157547 4456788 5 -1
2.9734060764312744 8.09449291229248 0.198279470205307 4456788 5 -1
2.9073305130004883 8.118459701538086 -0.198279470205307 4456788 5 -1
2.974104881286621 8.096394538879395 -0.06609315425157547 4456788 5 -1
2.9738428592681885 8.095682144165039 -0.13218630850315094 4456788 5 -1
2.9738428592681885 8.095682144165039 -0.13218630850315094 4456788 5 -1
3.040195941925049 8.071809768676758 0.06609315425157547 4456788 5 -1
2.972008466720581 8.09068775177002 0.33046579360961914 4456788 5 -1
2.9085516929626465 7.722290515899658 -2.511539936065674 4456788 0 -1
3.261594533920288 7.863641262054443 1.3879562616348267 4456788 0 -1
3.23921799659729 7.996171474456787 -0.7297682166099548 4456788 5 -1
3.1750810146331787 8.027613639831543 -0.6634256839752197 4456788 5 -1
3.314692974090576 7.991660118103027 0.33171284198760986 4456788 5 -1
3.182105302810669 8.04537296295166 0.33171284198760986 4456788 5 -1
3.1829471588134766 8.047501564025879 0.26537024974823 4456788 5 -1
2.9190728664398193 8.151249885559082 0 4456788 5 -1
2.918987274169922 8.151010513305664 -0.0663425624370575 4456788 5 -1
2.918987274169922 8.151010513305664 0.0663425624370575 4456788 5 -1
2.985415458679199 8.127185821533203 0 4456788 5 -1
2.98506498336792 8.12623119354248 0.132685124874115 4456788 5 -1
3.0485310554504395 8.093939781188965 0.39805540442466736 4456788 5 -1
2.8497138023376465 8.166060447692871 -0.39805540442466736 4456788 5 -1
3.115811347961426 8.07127857208252 0.33171284198760986 4456788 5 -1
3.0513997077941895 8.101555824279785 0.132685124874115 4456788 5 -1
3.1165640354156494 8.073227882385254 -0.7991036772727966 4456788 5 -1
3.2568702697753906 8.03974723815918 -0.5327357649803162 4456788 5 -1
2.9965507984161377 8.157499313354492 -0.06659197062253952 4456788 5 -1
3.262910842895508 8.054658889770508 -0.06659197062253952 4456788 5 -1
3.2568702697753906 8.03974723815918 -0.5327357649803162 4456788 5 -1
3.2583096027374268 8.04330062866211 -0.46614381670951843 4456788 5 -1
3.2626235485076904 8.053949356079102 0.13318394124507904 4456788 5 -1
3.062870979309082 8.132013320922852 0.13318394124507904 4456788 5 -1
2.9965507984161377 8.157499313354492 0.06659197062253952 4456788 5 -1
2.9299607276916504 8.181653022766113 0.06659197062253952 4456788 5 -1
2.7326090335845947 7.8304877281188965 -2.5970869064331055 4456788 0 -1
2.99584698677063 8.155583381652832 0.19977591931819916 4456788 5 -1
2.994438648223877 8.151749610900879 0.3329598605632782 4456788 5 -1
2.6552584171295166 7.811771869659424 -2.7302708625793457 4456788 0 -1
3.1223716735839844 8.088273048400879 0.5993277430534363 4456788 5 -1
-4.453271865844727 7.44399881362915 -0.5327357649803162 4456788 0 -1
3.000701427459717 8.168798446655273 -0.6015724539756775 4456788 5 -1
3.204993724822998 8.103242874145508 -0.40104830265045166 4456788 5 -1
3.207538604736328 8.109676361083984 -0.20052415132522583 4456788 5 -1
3.20603084564209 8.105864524841309 -0.3342069089412689 4456788 5 -1
3.2080094814300537 8.110867500305176 0.1336827576160431 4456788 5 -1
3.006448984146118 8.18444538116455 0.2673655152320862 4456788 5 -1
