VERSION .7
FIELDS x y z rgb label object
SIZE 4 4 4 4 4 4
TYPE F F F I I I
COUNT 1 1 1 1 1 1
WIDTH 685
HEIGHT 1
POINTS 685
VIEWPOINT 0 0 0 1 0 0 0
DATA ascii
-1.773691177368164 2.5258278846740723 0.18955019116401672 4725613 0 -1
-1.8224914073944092 2.4939990043640137 0.14216263592243195 4726897 0 -1
-1.7871426343917847 2.494818687438965 0.37910038232803345 4728182 0 -1
-1.8190568685531616 2.4892988204956055 0.2369377315044403 4729209 0 -1
-1.5355674028396606 2.6735012531280518 0.2369377315044403 4729209 0 -1
-1.7453361749649048 2.5864620208740234 -0.1676022708415985 4456788 0 -1
-1.8422714471817017 2.5210671424865723 -0.11971590667963028 4456788 0 -1
-1.492450475692749 2.5984325408935547 0.885897696018219 4456788 0 -1
-1.7629832029342651 2.561070442199707 0.3112613558769226 4456788 0 -1
-1.9134291410446167 2.466217041015625 0.1436590850353241 4456788 0 -1
-1.7931536436080933 2.5535435676574707 0.1676022708415985 4456788 0 -1
-1.864879846572876 2.501641035079956 0.1676022708415985 4456788 0 -1
-1.864879846572876 2.501641035079956 0.1676022708415985 4456788 0 -1
-1.86405611038208 2.5005359649658203 -0.19154545664787292 4456788 0 -1
-1.8119730949401855 2.5294816493988037 0.2873181700706482 4590430 0 -1
-1.816259741783142 2.535465717315674 0.19154545664787292 4657508 0 -1
-1.8631219863891602 2.4992830753326416 0.21548862755298615 4725613 0 -1
-1.849719524383545 2.481304407119751 0.4309772551059723 4726897 0 -1
-1.8516559600830078 2.4839019775390625 0.40703409910202026 4728182 0 -1
-1.8582795858383179 2.4927873611450195 0.3112613558769226 4729209 0 -1
-1.8551914691925049 2.488644599914551 0.35914772748947144 4664956 0 -1
-1.8609224557876587 2.4963326454162598 0.2633749842643738 3887499 0 -1
-1.8691681623458862 2.4578394889831543 0.4788636267185211 3757452 0 -1
-1.859656572341919 2.4946343898773193 0.2873181700706482 3692940 0 -1
-1.5043821334838867 2.619206190109253 0.919318437576294 4456788 0 -1
-1.8628294467926025 2.5491998195648193 0 4456788 0 -1
-1.8504841327667236 2.5323057174682617 -0.3628888428211212 4456788 0 -1
-1.8843055963516235 2.5276997089385986 -0.16934813559055328 4456788 0 -1
-1.881474256515503 2.5239017009735107 0.2419258952140808 4725613 0 -1
-1.8776366710662842 2.51875376701355 0.31450366973876953 4726897 0 -1
-1.8761329650878906 2.5167365074157715 0.33869627118110657 4728182 0 -1
-1.881474256515503 2.5239017009735107 0.2419258952140808 4729209 0 -1
-1.8761329650878906 2.5167365074157715 0.33869627118110657 4664956 0 -1
-1.901708960533142 2.5006284713745117 0.31450366973876953 4600703 0 -1
-2.0548603534698486 2.3940486907958984 0.1209629476070404 3887499 0 -1
-1.881474256515503 2.5239017009735107 0.2419258952140808 3887499 0 -1
-1.691043496131897 2.6608731746673584 -0.16934813559055328 3887499 0 -1
-2.0775678157806396 2.3714101314544678 0.16934813559055328 3692940 0 -1
-1.8487768173217773 2.5299694538116455 0.38708144426345825 3692940 0 -1
-1.7665892839431763 2.5663089752197266 0.6843759417533875 4456788 0 -1
-2.0114009380340576 2.440648317337036 0.4155139625072479 4657508 0 -1
-1.8996917009353638 2.548339366912842 0.2688619792461395 4657508 0 -1
-2.0152413845062256 2.4453084468841553 0.366629958152771 4725613 0 -1
-1.922737956047058 2.528280258178711 0.2933039665222168 4725613 0 -1
-2.0114009380340576 2.440648317337036 0.4155139625072479 4726897 0 -1
-1.9213142395019531 2.5264081954956055 0.31774598360061646 4726897 0 -1
-1.9197754859924316 2.5243849754333496 0.3421879708766937 4728182 0 -1
-2.0114009380340576 2.440648317337036 0.4155139625072479 4729209 0 -1
-1.922737956047058 2.528280258178711 0.2933039665222168 4729209 0 -1
-1.8983994722366333 2.5466058254241943 0.2933039665222168 4664956 0 -1
-1.9240467548370361 2.530001401901245 0.2688619792461395 4600703 0 -1
-2.379441738128662 2.0926034450531006 -0.366629958152771 3757452 0 -1
-2.0214667320251465 2.452862501144409 0.2688619792461395 3692940 0 -1
-1.7933263778686523 2.605149507522583 0.6172851324081421 4456788 0 -1
-1.8076967000961304 2.6260251998901367 0.46913671493530273 4456788 0 -1
-1.7766776084899902 2.6329078674316406 0.5432109236717224 4456788 0 -1
-2.0375607013702393 2.47239089012146 0.3456796705722809 4725613 0 -1
-2.0375607013702393 2.47239089012146 0.3456796705722809 4725613 0 -1
-2.0358052253723145 2.4702606201171875 0.37037110328674316 4726897 0 -1
-2.0358052253723145 2.4702606201171875 0.37037110328674316 4726897 0 -1
-2.0339267253875732 2.4679815769195557 0.39506250619888306 4729209 0 -1
-1.9423576593399048 2.554079055786133 0.2962968647480011 4729209 0 -1
-1.965488076210022 2.533315658569336 0.320988267660141 4600703 0 -1
-1.772554636001587 2.6797292232513428 -0.2469140589237213 4536450 0 -1
-2.354666233062744 2.168464422225952 -0.37037110328674316 4212104 0 -1
-2.010493278503418 2.294848918914795 1.037039041519165 4212104 0 -1
-1.8167325258255005 2.6391515731811523 0.5736387372016907 4456788 0 -1
-1.8051667213439941 2.675126552581787 0.423993855714798 4456788 0 -1
-1.789628267288208 2.652099609375 0.5985795259475708 4456788 0 -1
-2.0597918033599854 2.499366283416748 0.3242305815219879 4725613 0 -1
-2.0597918033599854 2.499366283416748 0.3242305815219879 4725613 0 -1
-2.0613181591033936 2.501218318939209 0.2992897629737854 4726897 0 -1
-1.9589545726776123 2.5759029388427734 0.34917140007019043 4726897 0 -1
-1.8773863315582275 2.6207971572875977 0.4489346444606781 4729209 0 -1
-2.0101583003997803 2.5394561290740967 0.3242305815219879 4664956 0 -1
-1.9195404052734375 2.6268062591552734 0.09976325929164886 4664956 0 -1
-1.8753063678741455 2.617893695831299 0.4738754630088806 4600703 0 -1
-2.825047492980957 1.8036307096481323 0.07706711441278458 4456788 0 -1
-2.8228063583374023 1.8021998405456543 0.15413422882556915 4523353 0 -1
-2.8511343002319336 1.820285677909851 0.1296922266483307 4456788 0 -1
-2.8511343002319336 1.820285677909851 0.1296922266483307 4523353 0 -1
-1.8854851722717285 2.7941527366638184 -0.3112613558769226 4523353 0 -1
-2.9013853073120117 1.7940813302993774 0.20950284600257874 4456788 0 -1
-2.952268362045288 1.7659058570861816 0.2643726170063019 4456788 0 -1
-2.0077569484710693 2.8027920722961426 -0.13218630850315094 4456788 0 -1
-1.9790658950805664 2.8182921409606934 -0.21149811148643494 4657508 0 -1
-2.0706992149353027 2.9487829208374023 1.1283224821090698 4456788 0 -1
-2.2695770263671875 2.810086727142334 1.0993911027908325 4456788 0 -1
-2.0213727951049805 2.9364306926727295 1.24404776096344 4456788 0 -1
3.3596630096435547 1.5127617120742798 -0.9629648327827454 4456788 0 -1
3.395278215408325 1.528798222541809 -0.9417651295661926 4456788 0 -1
-2.896951913833618 2.429309368133545 -0.6768937110900879 4456788 0 -1
-2.8551807403564453 2.452446937561035 -0.7651841640472412 4456788 0 -1
-3.093017101287842 2.2214841842651367 0.5003127455711365 4657508 0 -1
-2.4218907356262207 2.938739776611328 0.5003127455711365 4657508 0 -1
3.377525568008423 1.7411795854568481 -0.559173047542572 4657508 0 -1
-3.063837766647339 2.2615580558776855 0.5003127455711365 4726897 0 -1
-3.041799545288086 2.245290756225586 0.6768937110900879 4729209 0 -1
-2.2900874614715576 3.072035551071167 0.2648714482784271 4729209 0 -1
-2.970273017883301 2.1924936771392822 1.0594857931137085 4664956 0 -1
-2.9259214401245117 2.394338846206665 0.6768937110900879 4664956 0 -1
-2.4424164295196533 2.9636459350585938 -0.05886032059788704 4664956 0 -1
-2.295485258102417 3.0792760848999023 -0.02943016029894352 4664956 0 -1
-2.986969470977783 2.444295644760132 0.32647526264190674 4456788 0 -1
-2.9750232696533203 2.4345197677612305 0.4748730957508087 4456788 0 -1
-2.9777705669403076 2.436768054962158 0.4451935291290283 4456788 0 -1
-2.9919991493225098 2.448411464691162 0.23743654787540436 4456788 0 -1
-2.982727527618408 2.440824270248413 0.38583439588546753 4456788 0 -1
-2.9720957279205322 2.432124137878418 0.5045526623725891 4523353 0 -1
-2.9750232696533203 2.4345197677612305 0.4748730957508087 4590430 0 -1
-2.9983835220336914 2.3932082653045654 0.5342322587966919 4657508 0 -1
-2.8941214084625244 2.368316173553467 1.0091053247451782 4726897 0 -1
-3.002794027328491 2.457245111465454 0.4489346444606781 4456788 0 -1
-3.0077922344207764 2.4613354206085205 0.38907670974731445 4456788 0 -1
-3.000023365020752 2.4549779891967773 0.4788636267185211 4456788 0 -1
-2.9970712661743164 2.452562093734741 0.5087926387786865 4456788 0 -1
-3.0077922344207764 2.4613354206085205 0.38907670974731445 4456788 0 -1
-3.0077922344207764 2.4613354206085205 0.38907670974731445 4456788 0 -1
-3.000023365020752 2.4549779891967773 0.4788636267185211 4523353 0 -1
-2.9906201362609863 2.4472830295562744 0.5686505436897278 4590430 0 -1
-2.9970712661743164 2.452562093734741 0.5087926387786865 4657508 0 -1
-2.9906201362609863 2.4472830295562744 0.5686505436897278 4724328 0 -1
-2.9622316360473633 2.4240520000457764 0.7781534194946289 4726897 0 -1
-3.0278172492980957 2.47772216796875 0.45267578959465027 4456788 0 -1
-3.030428409576416 2.479858875274658 0.42249739170074463 4456788 0 -1
-3.0250236988067627 2.475435972213745 0.4828541576862335 4456788 0 -1
-3.0220468044281006 2.4730000495910645 0.5130325555801392 4456788 0 -1
-3.0220468044281006 2.4730000495910645 0.5130325555801392 4456788 0 -1
-3.0328571796417236 2.481846570968628 0.392318993806839 4456788 0 -1
-3.0278172492980957 2.47772216796875 0.45267578959465027 4523353 0 -1
-3.0188865661621094 2.47041392326355 0.5432109236717224 4590430 0 -1
-3.0188865661621094 2.47041392326355 0.5432109236717224 4657508 0 -1
-3.0155420303344727 2.467677116394043 0.5733892917633057 4724328 0 -1
-3.00439715385437 2.458556890487671 0.6639244556427002 4726897 0 -1
-3.0438361167907715 2.490830659866333 0.5477002859115601 4456788 0 -1
-3.0438361167907715 2.490830659866333 0.5477002859115601 4456788 0 -1
-2.8371078968048096 2.67232346534729 0.7606948614120483 4456788 0 -1
-3.0438361167907715 2.490830659866333 0.5477002859115601 4456788 0 -1
-2.8625128269195557 2.6361517906188965 0.7911226153373718 4456788 0 -1
-3.0331599712371826 2.4820940494537354 0.6389836668968201 4456788 0 -1
-3.047022581100464 2.493438243865967 0.5172724723815918 4456788 0 -1
-2.845396041870117 2.6801300048828125 0.6998392343521118 4456788 0 -1
-3.047022581100464 2.493438243865967 0.5172724723815918 4523353 0 -1
-2.879265069961548 2.6515791416168213 0.6694114804267883 4523353 0 -1
-3.0331599712371826 2.4820940494537354 0.6389836668968201 4590430 0 -1
-2.8669722080230713 2.640258312225342 0.7606948614120483 4590430 0 -1
-3.281593084335327 2.291592836380005 0.09203160554170609 4456788 0 -1
-2.9956676959991455 2.6345443725585938 -0.33744922280311584 4456788 0 -1
-3.095736026763916 2.470911741256714 -0.5828668475151062 4456788 0 -1
-2.837128162384033 2.612774133682251 1.073702096939087 4456788 0 -1
-3.1587138175964355 2.2686691284179688 -0.9509932398796082 4456788 0 -1
-2.90866756439209 2.5580317974090576 1.01234769821167 4456788 0 -1
-3.125765800476074 2.4948806762695312 -0.18406321108341217 4456788 0 -1
-2.889723062515259 2.5413711071014404 1.1043792963027954 4456788 0 -1
-2.889723062515259 2.5413711071014404 1.1043792963027954 4456788 0 -1
-3.108337640762329 2.4809699058532715 -0.46015802025794983 4456788 0 -1
-2.96694016456604 2.670557737350464 -0.30677202343940735 4456788 0 -1
-2.965099573135376 2.668900966644287 -0.33744922280311584 4523353 0 -1
-2.914590835571289 2.5632410049438477 0.9816704392433167 4590430 0 -1
-2.914590835571289 2.5632410049438477 0.9816704392433167 4590430 0 -1
-2.3368592262268066 3.2622129917144775 -0.4329725205898285 4456788 0 -1
-2.2592294216156006 3.1538431644439697 1.1133579015731812 4456788 0 -1
-3.030451774597168 2.665135145187378 -0.06185321882367134 4456788 0 -1
-3.0597105026245117 2.5657944679260254 0.5876055955886841 4590430 0 -1
-3.0484023094177246 2.55631160736084 -0.680385410785675 4657508 0 -1
-3.0772793292999268 2.5805273056030273 -0.40204593539237976 4724328 0 -1
-3.0772793292999268 2.5805273056030273 -0.40204593539237976 4724328 0 -1
-2.4004828929901123 3.284954786300659 0.031176017597317696 4456788 0 -1
-2.3960390090942383 3.2788734436035156 -0.24940814077854156 4456788 0 -1
-2.382983446121216 3.196650505065918 -0.8105764389038086 4456788 0 -1
-2.332634687423706 3.3217926025390625 -0.2805841565132141 4456788 0 -1
-2.266713857650757 3.1642913818359375 1.184688687324524 4456788 0 -1
-3.2307682037353516 2.4492344856262207 0.3429361879825592 4456788 0 -1
-3.084385633468628 2.586486339569092 0.592344343662262 4456788 0 -1
-2.3960390090942383 3.2788734436035156 0.24940814077854156 4456788 0 -1
-3.2307682037353516 2.4492344856262207 -0.3429361879825592 4456788 0 -1
-3.0769760608673096 2.580272912979126 0.6546963453292847 4590430 0 -1
-3.094083547592163 2.594618797302246 -0.49881628155708313 4657508 0 -1
-2.493788480758667 3.2142415046691895 0.06235203519463539 4724328 0 -1
-3.1037158966064453 2.5398316383361816 0.6858723759651184 4725613 0 -1
-2.2668232917785645 3.2280735969543457 0.9976325631141663 4726897 0 -1
-2.8187129497528076 2.654996871948242 1.3512933254241943 4456788 0 -1
-2.384894371032715 3.3292691707611084 -0.2199779748916626 4456788 0 -1
-2.384894371032715 3.3292691707611084 -0.2199779748916626 4456788 0 -1
-2.348520040512085 3.344413995742798 -0.3456796705722809 4456788 0 -1
-2.290337562561035 3.1972696781158447 1.162740707397461 4456788 0 -1
-2.383841037750244 3.32779860496521 0.25140342116355896 4456788 0 -1
-3.3248307704925537 2.3879785537719727 -0.25140342116355896 4456788 0 -1
-3.1015918254852295 2.6009151935577393 0.6599339246749878 4590430 0 -1
-2.289449691772461 3.2602949142456055 0.9741882085800171 4590430 0 -1
-2.4926137924194336 3.2127275466918945 0.5342322587966919 4724328 0 -1
-3.1285457611083984 2.560150146484375 0.6913593411445618 4725613 0 -1
-2.3167104721069336 3.2991156578063965 0.7542102336883545 4726897 0 -1
-3.086221218109131 2.714181900024414 0.44344767928123474 4456788 0 -1
-2.311995267868042 3.29240083694458 0.9502450227737427 4456788 0 -1
-2.146148920059204 3.31001877784729 1.2353185415267944 4456788 0 -1
-2.2393860816955566 3.4538190364837646 -0.38009801506996155 4456788 0 -1
-2.35520601272583 3.287824869155884 0.8552204966545105 4456788 0 -1
-3.130068063735962 2.6247944831848145 0.6334967017173767 4456788 0 -1
-3.355067491531372 2.4096953868865967 -0.15837417542934418 4456788 0 -1
-3.2508983612060547 2.5295159816741943 0.34842318296432495 4523353 0 -1
-2.278139591217041 3.2441885471343994 1.1719688177108765 4523353 0 -1
-3.2304537296295166 2.5784387588500977 -0.06334967166185379 4657508 0 -1
-3.093087911605835 2.7202205657958984 -0.34842318296432495 4657508 0 -1
-2.73647403717041 2.8130695819854736 1.2986681461334229 4657508 0 -1
-3.0982961654663086 2.7248010635375977 0.25339868664741516 4724328 0 -1
-2.660557746887207 3.099726438522339 0.6334967017173767 4724328 0 -1
-2.3529083728790283 3.350663423538208 0.5701470375061035 4726897 0 -1
-2.3857979774475098 3.3974997997283936 0.35116666555404663 4456788 0 -1
-2.301422119140625 3.277343988418579 1.1492726802825928 4523353 0 -1
-2.37742280960083 3.4536614418029785 0.22521555423736572 4456788 0 -1
-3.5374388694763184 2.2584517002105713 -0.1286945939064026 4456788 0 -1
-2.9810423851013184 2.871065378189087 0.7078202962875366 4456788 0 -1
-2.402801513671875 3.4217135906219482 0.38608381152153015 4456788 0 -1
3.656264543533325 1.9617114067077637 -0.6434730291366577 4456788 0 -1
-2.569051504135132 3.3112480640411377 0.2573891878128052 4523353 0 -1
-2.3705532550811768 3.30924916267395 1.0295567512512207 4523353 0 -1
-3.518679141998291 2.2464747428894043 0.45043110847473145 4590430 0 -1
-2.5309510231018066 3.328042507171631 0.38608381152153015 4657508 0 -1
-2.3975448608398438 3.4828925132751465 0.16211529076099396 4456788 0 -1
-2.5466408729553223 3.3486738204956055 0.4539228081703186 4657508 0 -1
-2.4133851528167725 3.4367852210998535 0.5187689065933228 4657508 0 -1
-2.493317127227783 3.3446574211120605 0.8821566104888916 4726897 0 -1
-2.6616568565368652 3.362502098083496 0.2633749842643738 4657508 0 -1
-2.497357130050659 3.486265182495117 0.2633749842643738 4657508 0 -1
-2.5854604244232178 3.4682631492614746 0.16585642099380493 4657508 0 -1
-2.65822696685791 3.4261860847473145 0.467889666557312 4724328 0 -1
-4.37833309173584 2.5298309326171875 -1.4949524402618408 4456788 0 -1
-3.327320098876953 4.119736194610596 -0.325228214263916 4456788 0 -1
-4.593713760375977 2.6542794704437256 -0.0406535267829895 4456788 0 -1
-3.3297812938690186 3.7231664657592773 -1.788755178451538 4523353 0 -1
-3.3297812938690186 3.7231664657592773 -1.788755178451538 4523353 0 -1
-3.3373589515686035 4.132165431976318 -0.5317381620407104 4456788 0 -1
-4.621895790100098 2.670563220977783 -0.04090293496847153 4456788 0 -1
-3.558450937271118 3.978851318359375 -0.04090293496847153 4523353 0 -1
-3.34773325920105 4.145010471343994 -0.3272234797477722 4590430 0 -1
-3.579307794570923 4.002172470092773 -0.12345702946186066 4456788 0 -1
-4.6496686935424805 2.686610460281372 0.0823046863079071 4456788 0 -1
-3.5374388694763184 4.037759304046631 0.1646093726158142 4456788 0 -1
-3.5374388694763184 4.037759304046631 -0.1646093726158142 4523353 0 -1
-3.557936429977417 4.061156272888184 -0.20700876414775848 4456788 0 -1
-4.674962997436523 2.701225757598877 0.20700876414775848 4456788 0 -1
-3.477637767791748 3.9695000648498535 1.1592490673065186 4456788 0 -1
-3.955909490585327 3.64308500289917 -0.7913720607757568 4523353 0 -1
-3.9966328144073486 3.6805877685546875 -0.1666046380996704 4590430 0 -1
-3.5399327278137207 4.124256610870361 0.0833023190498352 4590430 0 -1
-3.5564215183258057 4.143466949462891 -0.2933039665222168 4456788 0 -1
-3.2785093784332275 4.31103515625 -0.7542102336883545 4456788 0 -1
-3.0843451023101807 4.392266750335693 -1.0475142002105713 4456788 0 -1
-4.57429313659668 2.9204235076904297 -0.670409083366394 4456788 0 -1
-3.9594950675964355 3.6463868618011475 0.9637130498886108 4523353 0 -1
-2.9082629680633545 4.669020175933838 -0.04214997589588165 4456788 0 -1
-2.795508623123169 4.488000869750977 1.5173991918563843 4456788 0 -1
-3.256277084350586 4.368129730224609 -0.7586995959281921 4456788 0 -1
-2.8417775630950928 4.655145168304443 -0.7165495753288269 4456788 0 -1
-3.1233091354370117 4.360083103179932 1.2223492860794067 4456788 0 -1
-2.908273935317993 4.576197147369385 0.9272994995117188 4456788 0 -1
-3.0978782176971436 4.411539077758789 1.0958993434906006 4456788 0 -1
-2.941823959350586 4.628988265991211 0.42149975895881653 4456788 0 -1
-3.313286781311035 4.356765270233154 -0.5479496717453003 4456788 0 -1
-3.313286781311035 4.356765270233154 -0.5479496717453003 4456788 0 -1
-3.5826427936553955 4.17401647567749 0.04214997589588165 4456788 0 -1
-3.3671441078186035 4.339908599853516 -0.29504984617233276 4456788 0 -1
-3.357713222503662 4.32775354385376 -0.5057997107505798 4456788 0 -1
-3.2010462284088135 4.468602657318115 0.21074987947940826 4456788 0 -1
-4.622866153717041 2.951434850692749 -0.42149975895881653 4456788 0 -1
-4.124751567840576 3.627518653869629 -0.29504984617233276 4590430 0 -1
-2.9653825759887695 4.483033657073975 1.3143808841705322 4456788 0 -1
-2.9500112533569336 4.549820423126221 1.1023839712142944 4456788 0 -1
-2.866912364959717 4.602634429931641 1.1023839712142944 4456788 0 -1
-3.171916961669922 4.427938461303711 0.9751858115196228 4456788 0 -1
-2.942668914794922 4.630317687988281 0.7207895517349243 4456788 0 -1
-3.391552448272705 4.371368408203125 0.08479876816272736 4456788 0 -1
-4.660508155822754 2.9754669666290283 0.211996927857399 4456788 0 -1
-4.8974928855896 2.524752140045166 -0.5087926387786865 4523353 0 -1
-3.6359572410583496 4.065514087677002 0.9327864646911621 4523353 0 -1
-3.537205219268799 4.121078968048096 1.059984564781189 4590430 0 -1
-3.2407004833221436 4.261318683624268 1.3991796970367432 4657508 0 -1
-2.0234265327453613 5.115865230560303 0.5935913920402527 4657508 0 -1
-2.9208264350891113 4.595948219299316 1.151517391204834 4456788 0 -1
-3.3612334728240967 4.419812202453613 0.38383913040161133 4456788 0 -1
-3.9644742012023926 3.903050422668457 -0.1705951690673828 4456788 0 -1
-3.7100090980529785 4.148314952850342 0.0852975845336914 4456788 0 -1
-3.2404518127441406 4.523611545562744 0.1279463768005371 4456788 0 -1
-3.2404518127441406 4.523611545562744 0.1279463768005371 4456788 0 -1
-2.9681880474090576 4.670472145080566 -0.5970830917358398 4456788 0 -1
-2.025995969772339 5.001272678375244 1.3647613525390625 4456788 0 -1
-2.004045248031616 4.947086334228516 1.578005313873291 4456788 0 -1
4.904807090759277 2.4238665103912354 -1.0235710144042969 4456788 0 -1
-4.602687835693359 3.1224594116210938 0.21324396133422852 4456788 0 -1
-1.963146448135376 4.963458061218262 1.578005313873291 4590430 0 -1
-5.053706169128418 2.2755417823791504 -0.5117855072021484 4657508 0 -1
-1.9584406614303589 4.9515604972839355 1.6206541061401367 4657508 0 -1
-4.558394432067871 2.726613759994507 1.6633028984069824 4724328 0 -1
-1.9352736473083496 5.013183116912842 1.450058937072754 4724328 0 -1
4.624229431152344 2.9523050785064697 -0.9382734298706055 4724328 0 -1
-3.8178277015686035 4.094595432281494 0.04289820045232773 4456788 0 -1
-3.3261969089508057 4.373741149902344 1.0724550485610962 4456788 0 -1
-2.849148988723755 4.667220592498779 1.201149582862854 4456788 0 -1
-3.3318846225738525 4.469553470611572 0.5147783756256104 4456788 0 -1
-2.0204567909240723 4.987598896026611 1.5443352460861206 4456788 0 -1
-4.716192245483398 2.9162731170654297 0.7721676230430603 4590430 0 -1
-2.1287741661071777 4.900270462036133 1.6730297803878784 4590430 0 -1
4.917410850524902 2.535020112991333 -0.8579639792442322 4590430 0 -1
-2.1697120666503906 4.882282257080078 1.6730297803878784 4657508 0 -1
-1.974626898765564 4.992484092712402 1.5872334241867065 4657508 0 -1
4.705453395843506 2.909632921218872 -0.8579639792442322 4724328 0 -1
4.918477535247803 2.4306223392486572 -1.1153532266616821 4724328 0 -1
-3.0470221042633057 4.426382541656494 1.682756781578064 4456788 0 -1
-4.73493766784668 3.0229859352111816 0.3883284628391266 4590430 0 -1
-2.151616096496582 4.952851295471191 1.596461534500122 4590430 0 -1
4.97195291519165 2.5631375312805176 -0.6472141146659851 4590430 0 -1
-2.182326555252075 4.910667419433594 1.682756781578064 4657508 0 -1
5.023162364959717 2.4823553562164307 -0.560918927192688 4657508 0 -1
-4.918249607086182 2.7408483028411865 -0.0862952172756195 4724328 0 -1
4.635784149169922 3.052427291870117 -0.9492473602294922 4724328 0 -1
4.791357517242432 2.8659610748291016 -0.733509361743927 4724328 0 -1
4.791357517242432 2.8659610748291016 -0.733509361743927 4724328 0 -1
5.294521331787109 1.8777974843978882 -0.3883284628391266 4724328 0 -1
-3.1010143756866455 4.688080310821533 0.6943522691726685 4456788 0 -1
-3.1342291831970215 4.64470100402832 0.824543297290802 4456788 0 -1
-2.002237319946289 5.062292098999023 1.5622925758361816 4456788 0 -1
-4.764694690704346 3.0419840812683105 0.34717613458633423 4590430 0 -1
-4.530392169952393 3.3440887928009033 0.6075582504272461 4590430 0 -1
-3.681809425354004 4.289552688598633 0.34717613458633423 4657508 0 -1
5.111217975616455 2.4148361682891846 -0.34717613458633423 4657508 0 -1
-3.078359365463257 4.747772693634033 0.6546963453292847 4456788 0 -1
-3.1217164993286133 4.719377517700195 0.6546963453292847 4456788 0 -1
-3.144669532775879 4.660172939300537 0.9165748953819275 4456788 0 -1
-3.127183198928833 4.634259223937988 1.0911606550216675 4456788 0 -1
-1.9992958307266235 5.0548553466796875 1.702210545539856 4456788 0 -1
-3.275813341140747 4.664927959442139 0.570645809173584 4456788 0 -1
-3.0930933952331543 4.770496845245361 0.7023333311080933 4456788 0 -1
-3.180222749710083 4.712860107421875 0.7023333311080933 4456788 0 -1
-3.1585381031036377 4.68072509765625 0.965708315372467 4456788 0 -1
-3.7311458587646484 4.34703254699707 0 4728182 0 -1
-4.9278059005737305 3.0471253395080566 0 4590430 0 -1
-4.9553446769714355 3.0641541481018066 0.044644057750701904 4590430 0 -1
-3.5608768463134766 4.589610576629639 0.763188898563385 4590430 0 -1
-3.439329147338867 5.096837043762207 0.6634256839752197 4456788 0 -1
-3.756242275238037 4.939223766326904 -0.38109564781188965 4456788 0 -1
-3.487576484680176 5.066371917724609 -0.9051021337509155 4456788 0 -1
-3.1638805866241455 5.182785511016846 -1.3338347673416138 4456788 0 -1
-3.2117130756378174 5.261140823364258 0.8098282217979431 4456788 0 -1
-3.525031089782715 5.120781898498535 0.047636955976486206 4456788 0 -1
-3.472491979598999 5.145981788635254 -0.33345869183540344 4456788 0 -1
-3.3495843410491943 5.270603179931641 -0.23943181335926056 4456788 0 -1
-3.4456777572631836 5.106245517730713 -1.0534999370574951 4456788 0 -1
-3.39565372467041 5.032113075256348 -1.4844772815704346 4456788 0 -1
-3.2326741218566895 5.189840793609619 -1.2929317951202393 4456788 0 -1
-3.4832651615142822 5.161947250366211 -0.5267499685287476 4456788 0 -1
-3.406667709350586 5.1501641273498535 -1.1552585363388062 4456788 0 -1
-3.371727705001831 5.2002363204956055 -1.2096295356750488 4456788 0 -1
-3.394768238067627 5.235772132873535 0.9677035808563232 4456788 0 -1
-3.934461832046509 5.071124076843262 1.5695254802703857 4456788 0 -1
-3.9954121112823486 5.047450542449951 1.628136396408081 4456788 0 -1
-4.003266334533691 5.057373046875 1.5772570371627808 4456788 0 -1
-4.003266334533691 5.057373046875 1.5772570371627808 4523353 0 -1
-4.022890090942383 5.0821638107299805 1.5849887132644653 4456788 0 -1
-4.04498291015625 5.110073566436768 1.4316027164459229 4456788 0 -1
-4.014997482299805 5.072192668914795 1.6361174583435059 4523353 0 -1
-4.0501790046691895 5.116637706756592 1.5413422584533691 4456788 0 -1
-4.572514533996582 4.903992176055908 -0.05137807875871658 4456788 0 -1
-4.300189971923828 4.908390522003174 1.5413422584533691 4523353 0 -1
-3.9847731590270996 5.135970115661621 1.6440985202789307 4523353 0 -1
-4.04740571975708 5.2166972160339355 1.342314600944519 4456788 0 -1
-3.8628432750701904 5.500888347625732 -0.4646473824977875 4456788 0 -1
-4.532402515411377 4.963734149932861 -0.4646473824977875 4456788 0 -1
-4.465672492980957 4.993253231048584 -0.7227848172187805 4523353 0 -1
-4.554298400878906 4.98771333694458 -0.4668920338153839 4456788 0 -1
-4.251906871795654 5.264516830444336 0.20750758051872253 4456788 0 -1
-4.500020980834961 5.0316596031188965 -0.5187689065933228 4456788 0 -1
-4.582263946533203 5.018340587615967 -0.31275781989097595 4456788 0 -1
-4.219130516052246 5.330076694488525 0.2606315016746521 4456788 0 -1
-4.530192852020264 5.065396308898926 -0.31275781989097595 4456788 0 -1
-4.5501275062561035 5.087686061859131 -0.366629958152771 4456788 0 -1
-4.509166717529297 5.81186056137085 -0.05636623874306679 4456788 0 -1
-4.528719902038574 5.837062835693359 0.11323129385709763 4456788 0 -1
-0.3255996108055115 7.074681282043457 -2.2177371978759766 4456788 0 -1
2.3008415699005127 6.769077777862549 -1.9902769327163696 4456788 0 -1
3.343099594116211 6.596052169799805 -0.6255156397819519 4456788 0 -1
-4.492339611053467 5.907145977020264 0 4456788 0 -1
-3.293910503387451 6.362561225891113 2.0561206340789795 4456788 0 -1
-2.0312447547912598 6.870667934417725 2.0561206340789795 4456788 0 -1
-3.7558021545410156 6.278122901916504 1.4278615713119507 4456788 0 -1
-3.370762825012207 6.375361442565918 1.884777307510376 4456788 0 -1
-1.7744275331497192 6.7893829345703125 2.5130364894866943 4456788 0 -1
-3.2862613201141357 6.347785949707031 2.1132352352142334 4456788 0 -1
-0.38428953289985657 7.154324054718018 -2.0561206340789795 4456788 0 -1
-2.210660934448242 7.059571743011475 -0.9138314127922058 4456788 6 -1
-4.511512756347656 5.9323577880859375 -0.11422892659902573 4456788 0 -1
-3.0671770572662354 6.4564948081970215 2.1132352352142334 4600703 0 -1
-1.9989476203918457 7.180571556091309 0.05711446329951286 4536450 6 -1
-1.666886568069458 6.816582679748535 -2.5130364894866943 3107982 0 -1
-1.6896430253982544 6.909643650054932 -2.227464199066162 6933851 0 -1
-1.6763556003570557 6.8553056716918945 -2.3988075256347656 11197490 0 -1
-3.4547674655914307 6.399082660675049 1.7782800197601318 4456788 0 -1
-3.3082942962646484 6.390345573425293 2.0650994777679443 4456788 0 -1
-1.9060842990875244 6.846990585327148 2.3519186973571777 4456788 0 -1
-3.641824245452881 6.340601921081543 1.606188416481018 4456788 0 -1
-3.057770252227783 6.43669319152832 2.2945549488067627 4456788 0 -1
-1.6789827346801758 6.866049289703369 2.466646432876587 4456788 0 -1
-3.579501152038574 6.361267566680908 1.6635522842407227 4456788 0 -1
-1.9341870546340942 6.947940826416016 2.00773549079895 4456788 0 -1
-3.597693920135498 6.393598556518555 1.4914606809616089 4456788 0 -1
-0.48880913853645325 7.0712361335754395 -2.409282684326172 4456788 0 -1
-2.870518922805786 6.4592366218566895 2.466646432876587 4456788 0 -1
-4.531612873077393 5.95878791809082 -0.05736387148499489 4456788 0 -1
-2.00773549079895 7.21213960647583 0 4536450 6 -1
-1.629363775253296 6.898296356201172 -2.409282684326172 3887499 0 -1
-1.6201601028442383 6.859330177307129 -2.524010419845581 3107982 0 -1
-3.1428794860839844 6.473301410675049 2.0650994777679443 2994813 0 -1
-3.225538492202759 6.501713275909424 1.8356438875198364 6343264 0 -1
-3.1428794860839844 6.473301410675049 2.0650994777679443 7589974 0 -1
-2.0342836380004883 6.880946636199951 2.246917963027954 4456788 0 -1
-2.006885290145874 6.788272380828857 2.5349843502044678 4456788 0 -1
-2.0290966033935547 6.863401412963867 2.3045313358306885 4456788 0 -1
-2.0182859897613525 6.826834678649902 2.419757843017578 4456788 0 -1
-2.04422664642334 6.914579391479492 2.1316914558410645 4456788 0 -1
-3.393049716949463 6.417514324188232 1.9588515758514404 4456788 0 -1
-2.8989057540893555 6.5231122970581055 2.3621444702148438 4456788 0 -1
6.68332052230835 3.3027756214141846 0.9794257879257202 4456788 0 -1
-2.2357425689697266 7.139668941497803 -0.7489726543426514 4456788 6 -1
-2.3455755710601807 6.7214155197143555 -2.419757843017578 13164576 0 -1
-2.1368932723999023 7.228023052215576 -0.4629015028476715 4456788 6 -1
-2.1378376483917236 7.231217384338379 -0.40503883361816406 4456788 6 -1
-2.0270230770111084 6.856388092041016 2.4302330017089844 4456788 0 -1
-2.134625196456909 7.220351696014404 -0.5786268711090088 4456788 6 -1
-2.1134727001190186 6.943991661071777 2.083056688308716 4456788 0 -1
-2.0700480937957764 6.801316738128662 2.5459582805633545 4456788 0 -1
-1.8726469278335571 6.939824104309082 2.314507484436035 4456788 0 -1
-1.757859706878662 6.9503021240234375 -2.3723702430725098 4456788 0 -1
-2.108564615249634 6.927865982055664 2.1409194469451904 4456788 0 -1
-2.2436227798461914 7.1648335456848145 -0.8100776672363281 4456788 6 -1
-2.1408567428588867 7.241429328918457 -0.05786268785595894 3757452 6 -1
-2.412141799926758 6.912166118621826 1.851606011390686 3651704 0 -1
-2.145028829574585 7.2555413246154785 -0.5230088829994202 4456788 6 -1
-2.1438262462615967 7.251473903656006 -0.5811209678649902 4456788 6 -1
-2.145028829574585 7.2555413246154785 -0.5230088829994202 4456788 6 -1
-2.137740135192871 7.230887413024902 -0.8135693669319153 4456788 6 -1
-2.0964560508728027 6.888082027435303 2.382596015930176 4456788 0 -1
-2.205080986022949 7.244977951049805 -0.40678468346595764 4456788 6 -1
-2.112577199935913 6.941049575805664 2.2082595825195312 4456788 0 -1
-2.1736960411071777 7.141860485076904 -1.3365782499313354 4456788 6 -1
-2.145056962966919 7.047764301300049 1.8014750480651855 2264205 0 -1
-2.2083423137664795 7.255693435668945 -0.7003380656242371 4456788 6 -1
-2.211217164993286 7.265139102935791 -0.5836150646209717 4456788 6 -1
-2.153027296066284 7.282596111297607 -0.5836150646209717 4456788 6 -1
-2.1502280235290527 7.273127555847168 -0.7003380656242371 4456788 6 -1
-2.204939842224121 7.244514465332031 -0.8170610666275024 4456788 6 -1
-2.209845542907715 7.260632514953613 -0.641976535320282 4456788 6 -1
-2.2124574184417725 7.269214153289795 -0.5252535343170166 4456788 6 -1
-2.211217164993286 7.265139102935791 -0.5836150646209717 4456788 6 -1
-2.206707000732422 7.250320911407471 -0.7586995959281921 4456788 6 -1
-2.191540479660034 7.200490474700928 -1.1672301292419434 4456788 6 -1
-2.1583476066589355 7.091432571411133 1.750845193862915 2588302 0 -1
-2.21514630317688 7.0738959312438965 1.750845193862915 2006409 0 -1
-2.2177796363830566 7.28670072555542 -0.703330934047699 4456788 6 -1
-2.1622281074523926 7.313718318939209 -0.5861091613769531 4456788 6 -1
-2.2124545574188232 7.269205093383789 -0.8791636824607849 4456788 6 -1
-2.2192893028259277 7.291660785675049 -0.6447200179100037 4456788 6 -1
-2.224008560180664 7.307167053222656 -0.4102763831615448 4456788 6 -1
-2.102849245071411 6.909087657928467 2.5202691555023193 4456788 0 -1
-2.2255678176879883 7.312289714813232 -0.7651841640472412 4456788 6 -1
-2.0501110553741455 7.1436967849731445 1.9423905611038208 2139270 0 -1
-2.47623610496521 7.095832824707031 -1.589228630065918 5949540 6 -1
-2.1705615520477295 7.34190559387207 -0.945755660533905 4456788 6 -1
-2.3750388622283936 6.98736572265625 2.2461698055267334 4726897 0 -1
-2.4132323265075684 7.292636394500732 -0.7093167304992676 2264205 6 -1
-2.37262225151062 7.368526935577393 -0.29679569602012634 2264205 6 -1
-2.6744985580444336 7.280777454376221 -0.5960854291915894 2134668 6 -1
-2.3785030841827393 7.187686920166016 1.7882564067840576 3257723 0 -1
-2.003453254699707 7.665689945220947 0.5477002859115601 2523534 6 -1
-2.26352596282959 7.887349605560303 -0.6941028833389282 4456788 6 -1
-2.2603113651275635 7.876148223876953 -0.8203033804893494 4456788 6 -1
-2.2603113651275635 7.876148223876953 -0.8203033804893494 4456788 6 -1
-2.265474319458008 7.894138813018799 -0.9502450227737427 4456788 6 -1
-4.438790321350098 7.126179218292236 -0.19304190576076508 4456788 0 -1
-4.516988277435303 7.107524394989014 -0.3875802457332611 4456788 0 -1
-4.553341388702393 7.164726257324219 -0.32547762989997864 4456788 0 -1
-4.504032611846924 7.230921268463135 -0.39206960797309875 4456788 0 -1
-4.4556989669799805 7.298926830291748 -0.3935660421848297 4456788 0 -1
-4.509174823760986 7.386526584625244 -0.26537024974823 4456788 0 -1
-4.52825403213501 7.41778039932251 0 4456788 0 -1
-4.541876792907715 7.440095901489258 0.3342069089412689 4456788 0 -1
-4.4865922927856445 8.310276985168457 -0.7257776856422424 4456788 0 -1
-4.429397106170654 8.377631187438965 -0.7282717823982239 4456788 0 -1
-4.343564510345459 9.143326759338379 0.07756593078374863 4456788 0 -1
-4.34318208694458 9.142520904541016 -0.15513186156749725 4523353 0 -1
-4.17578649520874 8.600751876831055 -3.423874855041504 4456788 0 -1
-4.43430233001709 9.133209228515625 0.23344601690769196 4523353 0 -1
-4.4432854652404785 9.151711463928223 -0.5464532375335693 4456788 0 -1
-4.449560165405273 9.164634704589844 0.07806474715471268 4523353 0 -1
-4.49022912979126 9.24839973449707 -0.315251886844635 4456788 0 -1
-4.397820949554443 9.257537841796875 -0.8669427037239075 4456788 0 -1
-4.411738395690918 9.286833763122559 -0.8696861863136292 4456788 0 -1
-4.430886268615723 9.327141761779785 -0.7138060927391052 4456788 0 -1
-3.3107054233551025 10.004743576049805 -0.40404120087623596 4456788 4 -1
-3.3122622966766357 10.009449005126953 -0.24242471158504486 4456788 4 -1
-3.3013482093811035 9.97646713256836 -0.8888906240463257 4456788 4 -1
-3.2911810874938965 9.9457426071167 -1.2121235132217407 4456788 4 -1
-3.288144588470459 9.936566352844238 -1.2929317951202393 4456788 0 -1
-3.220827341079712 10.002752304077148 -0.8888906240463257 4456788 4 -1
-3.3122622966766357 10.009449005126953 -0.24242471158504486 4456788 4 -1
-3.3130404949188232 10.011800765991211 -0.08080823719501495 4456788 4 -1
-3.2246344089508057 10.014575958251953 -0.7272741198539734 4456788 4 -1
-3.3115811347961426 10.007390975952148 -0.3232329487800598 4456788 4 -1
-3.3224852085113525 10.040342330932617 0.24317294359207153 4456788 4 -1
-3.32326602935791 10.04270076751709 -0.08105764538049698 4456788 4 -1
-3.32326602935791 10.04270076751709 -0.08105764538049698 4456788 4 -1
-3.32326602935791 10.04270076751709 0.08105764538049698 4456788 4 -1
-3.3154516220092773 10.019086837768555 -0.7295188307762146 4456788 4 -1
-3.3068344593048096 9.993045806884766 -1.053749442100525 4456788 4 -1
-3.3092846870422363 10.00045108795166 -0.9726917743682861 4456788 4 -1
-3.3171136379241943 10.024109840393066 -0.6484611630439758 4456788 4 -1
-3.3171136379241943 10.024109840393066 -0.6484611630439758 4456788 4 -1
-3.3209235668182373 10.035622596740723 -0.4052882194519043 4456788 4 -1
-3.3209235668182373 10.035622596740723 -0.4052882194519043 4456788 4 -1
-3.3185794353485107 10.028538703918457 -0.5674034953117371 4456788 4 -1
-3.3185794353485107 10.028538703918457 -0.5674034953117371 4456788 4 -1
-3.3198494911193848 10.032376289367676 -0.48634588718414307 4456788 4 -1
-3.3209235668182373 10.035622596740723 -0.4052882194519043 4456788 4 -1
-4.370811939239502 9.616682052612305 -0.5674034953117371 4456788 0 -1
-3.330064296722412 10.06324577331543 -0.487842321395874 4456788 4 -1
-3.3327083587646484 10.071235656738281 -0.243921160697937 4456788 4 -1
-3.25228214263916 10.10044002532959 0 4456788 4 -1
-3.25228214263916 10.10044002532959 0 4456788 4 -1
-3.2521867752075195 10.100143432617188 0.081307053565979 4456788 4 -1
-3.323788642883301 10.044281005859375 -0.81307053565979 4456788 4 -1
-3.331141710281372 10.06650161743164 -0.406535267829895 4456788 4 -1
-3.327320098876953 10.054952621459961 -0.650456428527832 4456788 4 -1
-3.3217267990112305 10.038049697875977 -0.894377589225769 4456788 4 -1
-3.327320098876953 10.054952621459961 -0.650456428527832 4456788 4 -1
-3.325652837753296 10.049914360046387 -0.731763482093811 4456788 4 -1
-3.331141710281372 10.06650161743164 -0.406535267829895 4456788 4 -1
-3.331141710281372 10.06650161743164 -0.406535267829895 4456788 4 -1
-3.325652837753296 10.049914360046387 -0.731763482093811 4456788 4 -1
-3.331141710281372 10.06650161743164 -0.406535267829895 4456788 4 -1
-3.3287904262542725 10.059395790100098 -0.569149374961853 4456788 4 -1
-3.3287904262542725 10.059395790100098 -0.569149374961853 4456788 4 -1
-3.317009210586548 10.023794174194336 -1.056991696357727 4456788 4 -1
-4.384260654449463 9.646271705627441 -0.569149374961853 4456788 0 -1
-3.3296496868133545 10.061992645263672 -0.9786775708198547 4456788 4 -1
-3.333984375 10.075091361999512 -0.8155646324157715 4456788 4 -1
-3.3358542919158936 10.080742835998535 -0.7340081334114075 4456788 4 -1
-3.3429312705993652 10.102128982543945 -0.24466939270496368 4456788 4 -1
-3.1792078018188477 10.15255069732666 -0.3262258470058441 4456788 4 -1
-3.262258529663086 10.131422996520996 0 4456788 4 -1
-3.2613964080810547 10.128746032714844 0.24466939270496368 4456788 4 -1
-3.2588090896606445 10.120710372924805 -0.48933878540992737 4456788 4 -1
-3.3081886768341064 9.997138023376465 -1.5495728254318237 4456788 0 -1
-3.331916093826294 10.068841934204102 -0.8971210718154907 4456788 4 -1
-3.3296496868133545 10.061992645263672 -0.9786775708198547 4456788 4 -1
-3.3358542919158936 10.080742835998535 -0.7340081334114075 4456788 4 -1
-3.3296496868133545 10.061992645263672 -0.9786775708198547 4456788 4 -1
-3.3296496868133545 10.061992645263672 -0.9786775708198547 4456788 4 -1
-3.3296496868133545 10.061992645263672 -0.9786775708198547 4456788 4 -1
-4.395766735076904 9.671586990356445 -0.6524516940116882 4456788 0 -1
-3.3421053886413574 10.09963321685791 -0.8998645544052124 4456788 4 -1
-3.350494146347046 10.124982833862305 -0.4908352196216583 4456788 4 -1
-3.2626144886016846 10.132529258728027 -0.8180587291717529 4456788 4 -1
-3.272138833999634 10.162107467651367 0.08180586993694305 4456788 4 -1
-3.2718505859375 10.161212921142578 0.1636117398738861 4456788 4 -1
-3.2722349166870117 10.162405967712402 0 4456788 4 -1
-3.272138833999634 10.162107467651367 -0.08180586993694305 4456788 4 -1
-3.267524480819702 10.147777557373047 0.5726410746574402 4456788 4 -1
-3.2713701725006104 10.159720420837402 0.24541760981082916 4456788 4 -1
-3.435443162918091 10.107075691223145 0.1636117398738861 4456788 4 -1
-3.1053359508514404 10.202841758728027 0.4908352196216583 4456788 4 -1
-3.2713701725006104 10.159720420837402 -0.24541760981082916 4456788 4 -1
-3.346055746078491 10.111570358276367 -0.7362528443336487 4456788 4 -1
-3.416019916534424 10.049932479858398 -1.1452821493148804 4456788 4 -1
-3.3421053886413574 10.09963321685791 -0.8998645544052124 4456788 4 -1
-3.339832067489624 10.09276294708252 -0.9816704392433167 4456788 4 -1
-3.339832067489624 10.09276294708252 -0.9816704392433167 4456788 4 -1
-3.3421053886413574 10.09963321685791 -0.8998645544052124 4456788 4 -1
-4.412846088409424 9.7091646194458 -0.4908352196216583 4456788 0 -1
-3.198652505874634 10.214645385742188 -0.3282211124897003 4456788 4 -1
-3.2774863243103027 10.178715705871582 -0.5743869543075562 4456788 4 -1
-3.2818257808685303 10.192192077636719 -0.16411055624485016 4456788 4 -1
-3.2818257808685303 10.192192077636719 0.16411055624485016 4456788 4 -1
-3.199310302734375 10.21674633026123 0.24616584181785583 4456788 4 -1
-3.279801368713379 10.185905456542969 -0.4102763831615448 4456788 4 -1
-3.278740644454956 10.182610511779785 0.49233168363571167 4456788 4 -1
-3.281343936920166 10.190695762634277 0.24616584181785583 4456788 4 -1
-3.1728897094726562 10.132373809814453 1.3949397802352905 4456788 0 -1
-3.274397134780884 10.169121742248535 -0.7384974956512451 4456788 4 -1
-3.3019628524780273 9.978324890136719 -2.051382064819336 4456788 0 -1
-3.3500144481658936 10.123533248901367 -0.9846633672714233 4456788 4 -1
-3.272561550140381 10.163420677185059 -0.8205527663230896 4456788 4 -1
-3.207526206970215 10.242982864379883 -0.4115234315395355 4456788 4 -1
-3.292090892791748 10.224071502685547 -0.0823046863079071 4456788 4 -1
-3.2083747386932373 10.24569320678711 0.3292187452316284 4456788 4 -1
-3.2083747386932373 10.24569320678711 -0.3292187452316284 4456788 4 -1
-3.285996198654175 10.205143928527832 0.6584374904632568 4456788 4 -1
-3.2913174629211426 10.221670150756836 -0.2469140589237213 4456788 4 -1
-3.267352342605591 10.147242546081543 -1.3168749809265137 4456788 4 -1
-3.282508611679077 10.194313049316406 -0.823046863079071 4456788 4 -1
-3.357708692550659 10.146785736083984 -1.0699609518051147 4456788 4 -1
-3.195322036743164 10.204010009765625 -1.320865511894226 4456788 4 -1
-3.3843204975128174 10.227204322814941 -0.16510818898677826 4456788 4 -1
-3.2986721992492676 10.244510650634766 -0.49532458186149597 4456788 4 -1
-3.294302225112915 10.230939865112305 0.7429868578910828 4456788 0 -1
-3.2802798748016357 10.18739128112793 1.2383114099502563 4456788 0 -1
-3.939730405807495 9.960890769958496 -1.1557573080062866 11197490 0 -1
-3.4865834712982178 10.257530212402344 0.3322116434574127 4456788 4 -1
-3.4977729320526123 10.290450096130371 0.24990695714950562 4456788 4 -1
-3.4977729320526123 10.290450096130371 0.24990695714950562 4456788 4 -1
-3.415294885635376 10.320806503295898 0.0833023190498352 4456788 4 -1
-3.415294885635376 10.320806503295898 -0.0833023190498352 4456788 4 -1
-3.424715518951416 10.349275588989258 0.2506551742553711 4456788 4 -1
-3.5187177658081055 10.352069854736328 0.25140342116355896 4456788 4 -1
-3.4459710121154785 10.413508415222168 0.08405054360628128 4456788 4 -1
-3.4284467697143555 10.086492538452148 2.874678134918213 4456788 0 -1
-4.983234882354736 9.425143241882324 -2.967956781387329 4456788 0 -1
-3.645918846130371 10.44764232635498 -0.1695975363254547 4456788 0 -1
-5.165278911590576 9.769455909729004 -0.5935913920402527 4456788 0 -1
-3.38836407661438 10.523062705993652 0.5087926387786865 4456788 4 -1
-3.6440579891204834 10.442310333251953 -0.9355299472808838 4456788 0 -1
-3.4869751930236816 10.537420272827148 0 4456788 4 -1
-3.2404518127441406 10.64677619934082 0.2558927536010742 4456788 4 -1
-3.582077741622925 10.538475036621094 0.1705951690673828 4456788 4 -1
-3.2404518127441406 10.64677619934082 -0.2558927536010742 4456788 4 -1
-4.380921840667725 10.81452465057373 -1.0774431228637695 4456788 0 -1
-4.398810386657715 10.858682632446289 -0.9003633856773376 4456788 0 -1
-4.342669486999512 11.249363899230957 -0.6477129459381104 4456788 0 -1
-4.357450485229492 11.287652969360352 -0.4638991355895996 4456788 0 -1
-4.370319843292236 11.320990562438965 -0.37211695313453674 4456788 0 -1
-4.383581638336182 11.35534381866455 -0.18655729293823242 4456788 0 -1
4.010863780975342 11.493419647216797 0.09327864646911621 2458766 5 -1
4.0217061042785645 11.52448844909668 0 2523534 5 -1
4.021588325500488 11.524150848388672 -0.09352805465459824 2458766 5 -1
4.021588325500488 11.524150848388672 -0.09352805465459824 2328718 5 -1
4.032430648803711 11.555220603942871 0 2523534 5 -1
3.9381909370422363 11.586159706115723 -0.18755492568016052 2458766 5 -1
4.032430648803711 11.555220603942871 0 2328718 5 -1
4.040186882019043 11.577446937561035 -0.47013434767723083 2588302 5 -1
3.948085069656372 11.61526870727539 0.28208062052726746 2523534 5 -1
3.9491286277770996 11.618338584899902 0 2458766 5 -1
4.043036460876465 11.585612297058105 -0.09402687102556229 2328718 5 -1
4.05280876159668 11.613615036010742 -0.28282883763313293 2782862 5 -1
3.846102714538574 11.622681617736816 -1.2255916595458984 2718350 5 -1
4.051975250244141 11.611227035522461 -0.37710511684417725 2588302 5 -1
3.9591386318206787 11.647788047790527 0.18855255842208862 2523534 5 -1
4.148034572601318 11.583014488220215 0.09427627921104431 2134668 5 -1
3.9696125984191895 11.67860221862793 -0.18905137479305267 3107982 5 -1
3.970078706741333 11.679974555969238 0 2588302 5 -1
3.9699623584747314 11.679631233215332 -0.09452568739652634 2523534 5 -1
4.2531561851501465 11.578351974487305 -0.18905137479305267 2134668 5 -1
4.2531561851501465 11.578351974487305 -0.18905137479305267 2070155 5 -1
3.9795022010803223 11.707697868347168 -0.2843252718448639 3107982 5 -1
3.9795022010803223 11.707697868347168 -0.2843252718448639 2977934 5 -1
3.9795022010803223 11.707697868347168 -0.2843252718448639 2912910 5 -1
4.168145179748535 11.639171600341797 -0.37910038232803345 2199437 5 -1
4.169614315032959 11.643274307250977 -0.18955019116401672 2134668 5 -1
3.8918850421905518 11.761032104492188 -0.5701470375061035 3238030 5 -1
3.9880988597869873 11.732989311218262 -0.47512251138687134 3107982 5 -1
3.9880988597869873 11.732989311218262 -0.47512251138687134 2977934 5 -1
3.9910290241241455 11.741609573364258 0 2718350 5 -1
4.0849738121032715 11.70578670501709 -0.28507351875305176 2588302 5 -1
4.180955410003662 11.674942970275879 0.09502450376749039 2264205 5 -1
4.179973125457764 11.672201156616211 -0.28507351875305176 2199437 5 -1
3.905771493911743 11.802996635437012 0.19054782390594482 3432845 5 -1
3.902099847793579 11.791901588439941 -0.5716434717178345 3238030 5 -1
3.993978977203369 11.750288963317871 -0.7621912956237793 3107982 5 -1
3.9845526218414307 11.722556114196777 -1.143286943435669 2977934 5 -1
4.096657752990723 11.73926830291748 -0.09527391195297241 2718350 5 -1
4.096297264099121 11.73823356628418 -0.19054782390594482 2588302 5 -1
4.096297264099121 11.73823356628418 -0.19054782390594482 2523534 5 -1
4.191559791564941 11.70455551147461 -0.19054782390594482 2199437 5 -1
4.192051887512207 11.70592975616455 0 2134668 5 -1
3.9159960746765137 11.833894729614258 -0.19104664027690887 3432845 5 -1
4.294003963470459 11.689552307128906 -0.5731399059295654 3238030 5 -1
4.107382297515869 11.769998550415039 -0.09552332013845444 3107982 5 -1
3.886911630630493 11.746003150939941 -1.528373122215271 2977934 0 -1
4.107382297515869 11.769998550415039 0.09552332013845444 2718350 5 -1
4.107382297515869 11.769998550415039 0.09552332013845444 2588302 5 -1
4.199940204620361 11.727956771850586 -0.4776165783405304 2523534 5 -1
4.107020378112793 11.768961906433105 -0.19104664027690887 2264205 5 -1
4.2025322914123535 11.73519515991211 -0.19104664027690887 2134668 5 -1
3.9173336029052734 11.837936401367188 -0.8619545102119446 3692940 5 -1
3.830909013748169 11.89745044708252 0 3432845 5 -1
3.830909013748169 11.89745044708252 0 3238030 5 -1
3.830796480178833 11.897101402282715 0.09577272832393646 3107982 5 -1
4.118106365203857 11.800729751586914 0.09577272832393646 2588302 5 -1
