VERSION .7
FIELDS x y z rgb label object
SIZE 4 4 4 4 4 4
TYPE F F F I I I
COUNT 1 1 1 1 1 1
WIDTH 687
HEIGHT 1
POINTS 687
VIEWPOINT 0 0 0 1 0 0 0
DATA ascii
-1.6068387031555176 2.029937982559204 0.2793371081352234 4456788 0 -1
-1.813771367073059 1.8645399808883667 -0.11971590667963028 4456788 0 -1
-1.7159279584884644 1.958621621131897 0 4456788 0 -1
-1.6154054403305054 2.0407605171203613 0.07981060445308685 4456788 0 -1
-1.8755491971969604 1.8063561916351318 0 4456788 0 -1
-1.5005778074264526 2.0534744262695312 0.5586742162704468 4456788 0 -1
-1.5397253036499023 2.065462827682495 0.37910038232803345 4456788 0 -1
-1.5430465936660767 2.069918155670166 0.3391950726509094 4456788 0 -1
-1.5397253036499023 2.065462827682495 0.37910038232803345 4456788 0 -1
-1.5643686056137085 2.057047128677368 0.3192424178123474 4456788 0 -1
-1.654318928718567 2.0073626041412354 -0.11971590667963028 4657508 0 -1
-1.654318928718567 2.0073626041412354 -0.11971590667963028 4657508 0 -1
-1.6131254434585571 2.0378799438476562 0.1596212089061737 4726897 0 -1
-1.6123172044754028 2.0368590354919434 0.17957386374473572 4728182 0 -1
-1.6330405473709106 2.021956205368042 0.1596212089061737 4729209 0 -1
-1.6353487968444824 2.0248141288757324 0.07981060445308685 4664956 0 -1
-1.625274658203125 2.012340784072876 0.2992897629737854 4600703 0 -1
-1.6359344720840454 2.066694974899292 0.060606177896261215 4456788 0 -1
-1.8909488916397095 1.8211877346038818 -0.24242471158504486 4456788 0 -1
-1.896525502204895 1.7863718271255493 0.40404120087623596 4456788 0 -1
-1.9340640306472778 1.7408607006072998 0.4242432415485382 4456788 0 -1
-1.8427537679672241 1.8540478944778442 0.34343501925468445 4456788 0 -1
-1.7448581457138062 1.910909652709961 0.5050514936447144 4456788 0 -1
-1.5312108993530273 2.0953946113586426 0.4646473824977875 4456788 0 -1
-1.5607008934020996 2.0936005115509033 0.3636370599269867 4456788 0 -1
-1.558971881866455 2.0912811756134033 0.38383913040161133 4456788 0 -1
-1.586753249168396 2.0864813327789307 0.28282883763313293 4456788 0 -1
-1.6324710845947266 2.062319755554199 0.18181852996349335 4725613 0 -1
-1.6332894563674927 2.0633535385131836 0.1616164743900299 4726897 0 -1
-1.6534535884857178 2.0472307205200195 0.1616164743900299 4729209 0 -1
-1.6553527116775513 2.049582004547119 0.10101030021905899 4664956 0 -1
-1.6495511531829834 2.0423989295959473 0.24242471158504486 4600703 0 -1
-1.6282281875610352 2.056959629058838 0.2626267671585083 4536450 0 -1
-1.8487498760223389 1.900497555732727 -0.30677202343940735 4456788 0 -1
-1.915084958076477 1.8038532733917236 0.4499322772026062 4456788 0 -1
-1.8997294902801514 1.8296444416046143 0.40902936458587646 4456788 0 -1
-1.8973865509033203 1.8273879289627075 0.42948082089424133 4456788 0 -1
-2.034975051879883 1.7064777612686157 0.2658690810203552 4456788 0 -1
-1.8667632341384888 1.8378403186798096 0.5112866759300232 4456788 0 -1
-1.3383400440216064 2.2371420860290527 0.5726410746574402 4456788 0 -1
-1.9401493072509766 1.7867265939712524 0.40902936458587646 4456788 0 -1
-1.7436106204986572 1.9496031999588013 0.5317381620407104 4456788 0 -1
-1.7792776823043823 1.9894840717315674 0 4456788 0 -1
-1.7792776823043823 1.9894840717315674 0 4456788 0 -1
-1.8182560205459595 1.9500676393508911 -0.12270880490541458 4456788 0 -1
-1.6974220275878906 2.059664011001587 0.020451467484235764 4456788 0 -1
-1.7171162366867065 2.041738510131836 0.08180586993694305 4456788 0 -1
-1.6746063232421875 2.073421001434326 0.14316026866436005 4726897 0 -1
-1.6516985893249512 2.0866100788116455 0.20451468229293823 4729209 0 -1
-1.6746063232421875 2.073421001434326 0.14316026866436005 4664956 0 -1
-1.623361587524414 2.050811529159546 0.5317381620407104 4600703 0 -1
-2.0092973709106445 1.767079472541809 0.3726157546043396 4456788 0 -1
-1.9180350303649902 1.847274661064148 0.45541927218437195 4456788 0 -1
-1.78022301197052 2.032010316848755 -0.02070087566971779 4456788 0 -1
-1.6278234720230103 2.0154967308044434 -0.7659323811531067 4456788 0 -1
-1.8404297828674316 1.9738489389419556 -0.12420525401830673 4456788 0 -1
-1.8317464590072632 1.9645360708236694 -0.28981226682662964 4456788 0 -1
-1.690280795097351 2.0928285121917725 0.24841050803661346 4729209 0 -1
2.19087815284729 1.4862898588180542 -0.5382227897644043 4729209 0 -1
-1.8854701519012451 1.9799453020095825 -0.020950283855199814 4456788 0 -1
-1.8008779287338257 2.055586576461792 -0.08380113542079926 4456788 0 -1
-1.7991307973861694 2.0535922050476074 -0.1466519832611084 4456788 0 -1
-1.8016715049743652 2.056492328643799 -0.020950283855199814 4456788 0 -1
2.237804651260376 1.4734803438186646 -0.5447073578834534 4729209 0 -1
-1.9943650960922241 1.7539472579956055 0.6494588255882263 3238030 0 -1
-1.9077482223510742 2.0033395290374756 -0.04239938408136368 4456788 0 -1
-1.9079163074493408 2.0035159587860107 -0.02119969204068184 4456788 0 -1
-1.7881327867507935 2.126180648803711 0.3431856036186218 4456788 0 -1
-2.149113178253174 1.802191138267517 -0.3905731439590454 4456788 0 -1
-1.674451231956482 2.2461907863616943 -0.412271648645401 4456788 0 -1
-1.5556743144989014 2.35185170173645 -0.2603820860385895 4456788 0 -1
-1.0810647010803223 2.606426239013672 -0.23868359625339508 4456788 0 -1
-1.7915853261947632 2.087315797805786 -0.6726537346839905 4456788 0 -1
-1.7459980249404907 2.1186065673828125 -0.6943522691726685 4657508 0 -1
-1.6695585250854492 2.284717082977295 -0.10849253833293915 3887499 0 -1
-1.6408847570419312 2.2906453609466553 -0.28208062052726746 3238030 0 -1
-1.5942292213439941 2.362532377243042 -0.285322904586792 4456788 0 -1
-1.5942292213439941 2.362532377243042 -0.285322904586792 4456788 0 -1
-2.1346700191497803 1.8773387670516968 -0.35116666555404663 4456788 0 -1
-1.7690353393554688 2.1903388500213623 -0.5267499685287476 4456788 0 -1
-1.4701218605041504 2.457425832748413 -0.06584374606609344 4456788 0 -1
-1.907449722290039 2.132798433303833 0.1316874921321869 4456788 0 -1
-1.5790897607803345 2.387251138687134 -0.10973957926034927 4456788 0 -1
-1.3340587615966797 2.5231995582580566 0.24142707884311676 4456788 0 -1
-1.6538294553756714 2.3087158203125 -0.37311458587646484 4456788 0 -1
-1.5318373441696167 2.41036057472229 -0.21947915852069855 4456788 0 -1
-1.7448581457138062 2.2042994499206543 -0.5486978888511658 4456788 0 -1
-1.57950758934021 2.387882709503174 -0.08779166638851166 4456788 0 -1
-1.5555158853530884 2.3516123294830322 -0.5048021078109741 4456788 0 -1
-1.6365948915481567 2.3305957317352295 -0.3072708249092102 4590430 0 -1
-1.7258881330490112 2.2244954109191895 -0.5267499685287476 4657508 0 -1
-1.4978421926498413 2.310131311416626 -0.7901250123977661 4729209 0 -1
-1.7690353393554688 2.1903388500213623 -0.5267499685287476 3238030 0 -1
-1.7526456117630005 2.2589831352233887 -0.46614381670951843 4456788 0 -1
-1.4649803638458252 2.499079942703247 -0.02219732478260994 4456788 0 -1
-1.9524468183517456 2.138253688812256 0.08878929913043976 4456788 0 -1
-1.637772798538208 2.379178285598755 -0.2219732403755188 4456788 0 -1
-2.0361499786376953 2.0486295223236084 -0.2219732403755188 4456788 0 -1
-1.6690226793289185 2.329925298690796 -0.42174917459487915 4456788 0 -1
-1.6690226793289185 2.329925298690796 -0.42174917459487915 4456788 0 -1
-1.4206287860870361 2.524653434753418 0 4456788 0 -1
-1.8076555728912354 2.1493942737579346 -0.7103143930435181 4456788 0 -1
-2.120344638824463 1.9526724815368652 -0.2885652184486389 4456788 0 -1
-1.7307374477386475 2.2758116722106934 -0.46614381670951843 4456788 0 -1
-1.5492445230484009 2.437751054763794 -0.2219732403755188 4456788 0 -1
-1.4205870628356934 2.5245792865753174 0.02219732478260994 4456788 0 -1
-1.742899775505066 2.2464218139648438 -0.5549331307411194 4456788 0 -1
-1.5491316318511963 2.389235258102417 -0.5327357649803162 4456788 0 -1
-2.131181478500366 2.1908345222473145 -0.1406661868095398 4456788 0 -1
-1.8442587852478027 2.4250850677490234 0.2813323736190796 4456788 0 -1
-1.9893418550491333 2.3654286861419678 0.09477509558200836 4456788 0 -1
-1.7600497007369995 2.506401777267456 0.42648792266845703 4456788 0 -1
-2.1071975231170654 2.259955644607544 -0.11846886575222015 4456788 0 -1
-1.8682880401611328 2.4566822052001953 0.18955019116401672 4456788 0 -1
-2.582545518875122 1.700474500656128 -0.02369377389550209 4456788 0 -1
-2.17463755607605 2.1879658699035645 -0.21324396133422852 4456788 0 -1
-2.0130245685577393 2.3453073501586914 0.09477509558200836 4456788 0 -1
-2.153853416442871 2.2141411304473877 -0.14216263592243195 4456788 0 -1
-2.1218338012695312 2.228152275085449 -0.3080190420150757 4456788 0 -1
-2.6854496002197266 1.9287586212158203 0.7262765169143677 4725613 0 -1
-2.4566404819488525 2.1101224422454834 0.985660970211029 4725613 0 -1
-2.7960338592529297 1.785107135772705 0.6743996143341064 4471684 0 -1
-2.7960338592529297 1.785107135772705 0.6743996143341064 4471684 0 -1
-2.7960338592529297 1.785107135772705 0.6743996143341064 4471684 0 -1
-2.766122817993164 1.8213508129119873 0.7003380656242371 3887499 0 -1
-2.6044445037841797 1.974420428276062 0.8819071650505066 3887499 0 -1
-3.0615687370300293 1.0047580003738403 1.0375378131866455 2912910 0 -1
3.1865341663360596 0.8598838448524475 0.7522149682044983 2912910 0 -1
-2.8214523792266846 1.7446545362472534 0.6743996143341064 2523534 0 -1
-2.4378936290740967 2.094019889831543 1.063476324081421 2070922 0 -1
3.161513090133667 1.0375580787658691 0.6225227117538452 2070922 0 -1
-3.036878824234009 1.077083945274353 1.0375378131866455 2271109 0 -1
-2.9109137058258057 1.7411695718765259 0.41900569200515747 4456788 0 -1
-2.9080493450164795 1.7394561767578125 0.4451935291290283 4523353 0 -1
-2.9109137058258057 1.7411695718765259 0.41900569200515747 4590430 0 -1
-2.9080493450164795 1.7394561767578125 0.4451935291290283 4657508 0 -1
-2.7158560752868652 1.9505974054336548 0.7070720791816711 4725613 0 -1
-2.7065112590789795 1.9438856840133667 0.7594478130340576 4471684 0 -1
-2.4741287231445312 2.1251437664031982 1.0213263034820557 4471684 0 -1
3.233525037765503 0.8725643157958984 0.6808842420578003 4471684 0 -1
-2.701575517654419 1.9403407573699951 0.7856356501579285 3887499 0 -1
-2.4364731311798096 2.1427597999572754 1.073702096939087 3887499 0 -1
-2.013744354248047 2.595513105392456 0.9427627921104431 3887499 0 -1
3.0226824283599854 1.5582510232925415 0.34044212102890015 3887499 0 -1
-3.236793279647827 0.765899121761322 0.7856356501579285 3887499 0 -1
-3.0580222606658936 1.084582805633545 1.073702096939087 2912910 0 -1
3.230668067932129 0.7644497156143188 0.8118234872817993 2912910 0 -1
-3.086571216583252 1.3897961378097534 0.47138139605522156 2523534 0 -1
-2.848581552505493 1.761430025100708 0.6808842420578003 2523534 0 -1
-2.1044647693634033 2.5023155212402344 0.9951384663581848 2523534 0 -1
0.9138802289962769 3.2828187942504883 -0.2618785500526428 2523534 0 -1
2.9421513080596924 1.6999952793121338 0.366629958152771 2523534 0 -1
-3.2433948516845703 0.8752276301383972 0.6285085082054138 2458766 0 -1
-2.5621285438537598 2.1485350131988525 0.7070720791816711 2458766 0 -1
3.0893502235412598 1.4595885276794434 0.07856356352567673 2458766 0 -1
-3.1924397945404053 0.8614774942398071 0.8641992211341858 2070922 0 -1
-2.8652522563934326 1.7717382907867432 0.5761328339576721 2070922 0 -1
-2.6403958797454834 2.0016751289367676 0.8380113840103149 2070922 0 -1
-2.6403958797454834 2.0016751289367676 0.8380113840103149 2070922 0 -1
3.175009250640869 1.1260744333267212 0.5761328339576721 2070922 0 -1
-3.0660793781280518 1.0874404907226562 1.0475142002105713 2271109 0 -1
3.230668067932129 0.7644497156143188 0.8118234872817993 2271109 0 -1
-2.607121467590332 2.133458375930786 0.5761328339576721 5424489 0 -1
2.635561227798462 2.156731367111206 0.28806641697883606 5424489 0 -1
-2.4364731311798096 2.1427597999572754 1.073702096939087 10016830 0 -1
-2.9123990535736084 1.800891637802124 0.4229962229728699 4456788 0 -1
-2.9123990535736084 1.800891637802124 0.4229962229728699 4590430 0 -1
-2.9386367797851562 1.7577520608901978 0.4229962229728699 4657508 0 -1
-2.6194212436676025 2.090733528137207 0.8195551633834839 4471684 0 -1
3.2694058418273926 0.882246732711792 0.6609315872192383 4471684 0 -1
-2.97009015083313 2.014906644821167 -0.4152645468711853 4456788 0 -1
-2.3783326148986816 2.7147140502929688 -0.16610582172870636 4456788 0 -1
-2.324867010116577 2.7643849849700928 0.08305291086435318 4456788 0 -1
2.985006332397461 1.8457887172698975 -0.8582134246826172 4456788 0 -1
-3.0430376529693604 1.9428048133850098 -0.13842152059078217 4456788 0 -1
-2.302255392074585 2.6822805404663086 0.7474762201309204 4456788 0 -1
-2.402299165725708 2.742070198059082 0 4456788 0 -1
-2.156456708908081 2.6700263023376465 1.2290832996368408 4456788 0 -1
-2.866509437561035 1.8874503374099731 1.2290832996368408 4456788 0 -1
-2.37262225151062 2.7642624378204346 0.1396685540676117 4456788 0 -1
-3.0896084308624268 1.9104697704315186 -0.3072708249092102 4456788 0 -1
-2.2923734188079834 2.670767307281494 0.9497461915016174 4456788 0 -1
-1.9999200105667114 2.905266284942627 0.9218124747276306 4456788 0 -1
-2.2879478931427 2.5582492351531982 1.2290832996368408 4523353 0 -1
-2.081144332885742 2.9636571407318115 -0.41900569200515747 4523353 0 -1
-2.7460079193115234 2.41498064994812 0.3945636749267578 4456788 0 -1
-1.9419398307800293 3.0556607246398926 0.6482117772102356 4456788 0 -1
3.02795147895813 1.9331732988357544 -0.7891273498535156 4456788 0 -1
-2.4202592372894287 2.76257061958313 0.1972818374633789 4456788 0 -1
-2.3930320739746094 2.788041353225708 0.16909871995449066 4456788 0 -1
-2.307809591293335 2.688751459121704 0.9864091873168945 4456788 0 -1
-2.757969856262207 2.4255006313323975 0.1972818374633789 4456788 0 -1
-2.7131400108337402 2.442110776901245 0.4509299099445343 4657508 0 -1
-2.2884087562561035 2.6120717525482178 1.2118741273880005 4725613 0 -1
-2.6660542488098145 2.511204719543457 0.3381974399089813 2458766 0 -1
-2.441295862197876 2.6736245155334473 0.6482117772102356 2458766 0 -1
-1.6973422765731812 3.143897294998169 0.8736767172813416 2458766 0 -1
-2.3472113609313965 2.7909536361694336 0.47911304235458374 8180304 0 -1
-1.5433454513549805 3.1109189987182617 -1.2118741273880005 8180304 0 -1
-3.51900315284729 1.1548806428909302 0.22746022045612335 4456788 0 -1
-2.8946640491485596 2.310422897338867 0.22746022045612335 4456788 0 -1
-2.6780760288238525 2.5225284099578857 0.48335298895835876 4456788 0 -1
-3.144780158996582 1.9445853233337402 -0.31275781989097595 4456788 0 -1
-2.8987553119659424 2.3136885166168213 0.11373011022806168 4456788 0 -1
-2.8987553119659424 2.3136885166168213 0.11373011022806168 4456788 0 -1
-2.274001121520996 2.9309580326080322 0.0852975845336914 4456788 0 -1
-2.8331351280212402 2.3757944107055664 0.31275781989097595 4456788 0 -1
-2.5394442081451416 2.6105246543884277 0.7108132243156433 4456788 0 -1
-2.6691839694976807 2.514152765274048 0.5686505436897278 4456788 0 -1
-3.4847562313079834 1.2359317541122437 0.31275781989097595 4456788 0 -1
-2.6691839694976807 2.514152765274048 0.5686505436897278 4456788 0 -1
-2.793586254119873 2.399540662765503 0.4549204409122467 4456788 0 -1
-2.4856882095336914 2.6102383136749268 0.8814083933830261 4456788 0 -1
-3.2745378017425537 1.6182169914245605 0.6539481282234192 4456788 0 -1
-2.6308250427246094 2.53376841545105 0.6539481282234192 4456788 0 -1
-2.4156606197357178 2.645550012588501 0.9667059779167175 4456788 0 -1
-2.7707626819610596 2.379936456680298 0.6539481282234192 4456788 0 -1
-2.793586254119873 2.399540662765503 0.4549204409122467 4456788 0 -1
-2.796165943145752 2.401756525039673 0.42648792266845703 4523353 0 -1
-2.7679219245910645 2.434252977371216 0.42648792266845703 4657508 0 -1
-2.753473997116089 2.421546697616577 0.5686505436897278 4725613 0 -1
-2.9568960666656494 2.2416129112243652 0.02843252755701542 3692940 0 -1
-2.772529363632202 2.438304901123047 0.3696228563785553 3692940 0 -1
-2.7703089714050293 2.436352252960205 0.39805540442466736 3432845 0 -1
-2.455726146697998 2.6894283294677734 0.7108132243156433 3432845 0 -1
-3.4302215576171875 1.386222004890442 0.2843252718448639 2782862 0 -1
-3.013848066329956 2.1646227836608887 0 2782862 0 -1
-2.652495861053467 2.5546398162841797 0.4549204409122467 2782862 0 -1
-2.9832236766815186 2.2020530700683594 0.14216263592243195 2458766 0 -1
-2.7703089714050293 2.436352252960205 0.39805540442466736 2458766 0 -1
-2.4836320877075195 2.663679361343384 0.7108132243156433 2458766 0 -1
-2.806544780731201 2.4106714725494385 0.2843252718448639 2072968 0 -1
-3.030698299407959 2.056023120880127 0.5970830917358398 8180304 0 -1
-3.12623929977417 2.058469295501709 -0.028681935742497444 4456788 0 -1
-2.8883588314056396 2.363600492477417 0.28681936860084534 4456788 0 -1
-2.7042291164398193 2.5471622943878174 0.4589109718799591 4456788 0 -1
-3.55488920211792 1.16665780544281 0.11472774296998978 4456788 0 -1
-2.8311636447906494 2.4318177700042725 0.28681936860084534 4456788 0 -1
3.551440477371216 1.165526032447815 -0.20077355206012726 4456788 0 -1
-3.490865707397461 1.3261643648147583 0.25813743472099304 4456788 0 -1
-3.490865707397461 1.3261643648147583 0.25813743472099304 4456788 0 -1
-3.011603355407715 2.223001480102539 0 4456788 0 -1
-2.673130512237549 2.5745129585266113 0.4875929057598114 4456788 0 -1
-3.3237147331237793 1.642519474029541 0.5162748694419861 4456788 0 -1
-2.689277172088623 2.533078908920288 0.602320671081543 4456788 0 -1
-3.27036190032959 1.6859345436096191 0.6883664727210999 4456788 0 -1
-2.653902530670166 2.5559945106506348 0.6596845388412476 4456788 0 -1
-2.4368507862091064 2.6687564849853516 0.9751858115196228 4456788 0 -1
-2.8025097846984863 2.407205581665039 0.602320671081543 4456788 0 -1
-2.8153181076049805 2.4182074069976807 0.4875929057598114 4456788 0 -1
-2.8123741149902344 2.4156785011291504 0.5162748694419861 4523353 0 -1
-2.8206937313079834 2.4228246212005615 0.4302290380001068 4657508 0 -1
-2.8153181076049805 2.4182074069976807 0.4875929057598114 4725613 0 -1
-3.5527994632720947 1.1659719944000244 0.17209161818027496 3692940 0 -1
-2.737576961517334 2.5210955142974854 0.4015471041202545 3692940 0 -1
-2.8231263160705566 2.4249141216278076 0.4015471041202545 3432845 0 -1
-3.490865707397461 1.3261643648147583 0.25813743472099304 2782862 0 -1
-3.011514902114868 2.2229361534118652 0.028681935742497444 2782862 0 -1
-2.7042291164398193 2.5471622943878174 0.4589109718799591 2782862 0 -1
3.6424989700317383 0.8618983030319214 -0.028681935742497444 2782862 0 -1
-3.5212438106536865 1.2488726377487183 0.22945548593997955 2458766 0 -1
-2.7922019958496094 2.455605983734131 0.4302290380001068 2458766 0 -1
-3.3304715156555176 1.6458585262298584 0.4589109718799591 3257723 0 -1
-2.54097056388855 2.668290615081787 0.6596845388412476 3257723 0 -1
-3.291656255722046 1.6969122886657715 0.5449568033218384 6343264 0 -1
-3.0761337280273438 1.9639347791671753 0.8317761421203613 6343264 0 -1
-2.3210244178771973 2.7598161697387695 1.003867745399475 6343264 0 -1
-3.0374343395233154 2.2420685291290283 -0.05786268785595894 4456788 0 -1
-3.268857955932617 1.8887686729431152 -0.05786268785595894 4456788 0 -1
-2.839799165725708 2.439235210418701 0.4918328523635864 4456788 0 -1
-2.6935553550720215 2.594184398651123 0.520764172077179 4456788 0 -1
-2.1156301498413086 3.073357582092285 0.5786268711090088 4456788 0 -1
3.6159932613372803 1.0851136445999146 0.05786268785595894 4456788 0 -1
-2.829939842224121 2.4887945652008057 0.23145075142383575 4456788 0 -1
-2.438211441040039 2.8406782150268555 0.4918328523635864 4456788 0 -1
-2.836829423904419 2.4366843700408936 0.520764172077179 4456788 0 -1
-2.839799165725708 2.439235210418701 0.4918328523635864 4456788 0 -1
-2.8164820671081543 2.476959228515625 0.4339701533317566 4523353 0 -1
-2.845221519470215 2.44389271736145 0.4339701533317566 4657508 0 -1
-2.845221519470215 2.44389271736145 0.4339701533317566 4725613 0 -1
-2.43442964553833 2.8362720012664795 0.7295188307762146 4456788 0 -1
-2.3010520935058594 2.9658236503601074 0.641976535320282 4456788 0 -1
-2.8766562938690186 2.470893383026123 0.35016903281211853 4456788 0 -1
-2.992884874343872 2.328756332397461 0.35016903281211853 4456788 0 -1
-2.956711530685425 2.3599469661712646 0.43771129846572876 4523353 0 -1
-2.8064160346984863 2.526069164276123 0.49607279896736145 4523353 0 -1
-2.907691478729248 2.4383151531219482 0.320988267660141 4590430 0 -1
-2.482806921005249 2.8339648246765137 0.5544342994689941 4590430 0 -1
-2.8772895336151123 2.5304362773895264 -0.2648714482784271 4456788 0 -1
-2.5202717781066895 2.8767282962799072 0.35316193103790283 4456788 0 -1
-2.7318577766418457 2.6895315647125244 0.23544128239154816 4456788 0 -1
-2.2523977756500244 2.9031131267547607 1.118346095085144 4456788 0 -1
-3.024089813232422 2.353036880493164 0.2648714482784271 4456788 0 -1
-2.9710497856140137 2.4312682151794434 0.11772064119577408 4456788 0 -1
-2.97318696975708 2.3730974197387695 0.5297428965568542 4523353 0 -1
-2.6202034950256348 2.693544387817383 0.794614315032959 4523353 0 -1
-2.4947731494903564 2.847623348236084 0.6474635601043701 4523353 0 -1
-2.5650103092193604 2.868044376373291 0.4451935291290283 4456788 0 -1
-2.898247718811035 2.548868179321289 -0.32647526264190674 4456788 0 -1
-2.771390438079834 2.6691479682922363 -0.4451935291290283 4456788 0 -1
-2.5626437664031982 2.8653981685638428 0.4748730957508087 4456788 0 -1
-2.4039745330810547 3.036968946456909 0.029679568484425545 4456788 0 -1
-2.744272232055664 2.701753616333008 0.4155139625072479 4456788 0 -1
-2.3699002265930176 3.0545623302459717 0.23743654787540436 4456788 0 -1
-2.771603584289551 2.72866153717041 0.35914772748947144 4456788 0 -1
-2.992809772491455 2.5096933841705322 0.02992897666990757 4456788 0 -1
-2.6336727142333984 2.8843092918395996 0.02992897666990757 4456788 0 -1
-3.2851786613464355 1.8981988430023193 0.9277982711791992 4456788 0 -1
-3.133303642272949 2.3128340244293213 -0.2992897629737854 4456788 0 -1
-2.825777530670166 2.369624376296997 -1.2869460582733154 4456788 0 -1
-2.9730632305145264 2.4931344985961914 -0.4489346444606781 4590430 0 -1
-2.918087959289551 2.5064809322357178 -0.8449947834014893 4456788 0 -1
-2.8799381256103516 2.4150421619415283 -1.1769570112228394 4456788 0 -1
-3.222425699234009 3.1724987030029297 0.9562308192253113 4456788 0 -1
-3.250389337539673 3.200029134750366 0.9272994995117188 4456788 0 -1
-3.2886180877685547 3.2376656532287598 -0.6063112020492554 4456788 0 -1
-3.12351131439209 3.420764207839966 0.9041045308113098 4456788 0 -1
-3.1497457027435303 3.4494950771331787 0.8739261031150818 4456788 0 -1
-3.575103759765625 3.144130229949951 -0.4766189455986023 4456788 0 -1
2.9802188873291016 3.8412013053894043 0.4489346444606781 2199437 5 -1
2.9730632305145264 3.8319783210754395 0.5611683130264282 2070155 5 -1
3.0056777000427246 3.8740150928497314 0.3389456570148468 2328718 5 -1
3.0056777000427246 3.8740150928497314 0.3389456570148468 2264205 5 -1
3.0056777000427246 3.8740150928497314 0.3389456570148468 2199437 5 -1
3.0056777000427246 3.8740150928497314 0.3389456570148468 2134668 5 -1
3.0056777000427246 3.8740150928497314 0.3389456570148468 2070155 5 -1
3.0056777000427246 3.8740150928497314 0.3389456570148468 2070922 5 -1
2.966442823410034 3.9006869792938232 0.376606285572052 2006409 5 -1
3.0056777000427246 3.8740150928497314 0.3389456570148468 2072968 5 -1
2.8915507793426514 3.8788678646087646 0.866194486618042 2139270 5 -1
2.946460723876953 3.952526569366455 0.41701042652130127 2328718 5 -1
2.982205629348755 3.921414375305176 0.4549204409122467 2264205 5 -1
2.9842357635498047 3.924083709716797 0.41701042652130127 2199437 5 -1
2.982205629348755 3.921414375305176 0.4549204409122467 2134668 5 -1
2.982205629348755 3.921414375305176 0.4549204409122467 2070155 5 -1
2.9842357635498047 3.924083709716797 0.41701042652130127 2070922 5 -1
2.9860880374908447 3.9265193939208984 0.37910038232803345 2072968 5 -1
2.987762928009033 3.9287219047546387 0.3411903381347656 2139270 5 -1
2.9860880374908447 3.9265193939208984 0.37910038232803345 2271109 5 -1
3.025582790374756 3.8996706008911133 0.3411903381347656 2468738 5 -1
2.9723005294799805 3.9083895683288574 0.6065605878829956 2666112 5 -1
3.089462995529175 3.902954339981079 0.152637779712677 2523534 5 -1
3.0131800174713135 3.9621434211730957 0.152637779712677 2458766 5 -1
3.12457013130188 3.8687002658843994 0.26711612939834595 2458766 5 -1
2.970839262008667 3.985229253768921 0.305275559425354 2264205 5 -1
3.1216251850128174 3.86505389213562 0.34343501925468445 2264205 5 -1
3.12457013130188 3.8687002658843994 0.26711612939834595 2199437 5 -1
3.12457013130188 3.8687002658843994 0.26711612939834595 2134668 5 -1
2.999602794647217 3.9442903995513916 0.49607279896736145 2070155 5 -1
3.003868818283081 3.9499001502990723 0.41975390911102295 2070922 5 -1
3.003868818283081 3.9499001502990723 0.41975390911102295 2006409 5 -1
3.0057334899902344 3.9523518085479736 0.3815944492816925 2271109 5 -1
3.0057334899902344 3.9523518085479736 0.3815944492816925 2468738 5 -1
3.0057334899902344 3.9523518085479736 0.3815944492816925 2666112 5 -1
3.0057334899902344 3.9523518085479736 0.3815944492816925 2994813 5 -1
3.0074193477630615 3.95456862449646 0.34343501925468445 3257723 5 -1
2.8765172958374023 4.096309185028076 0.2688619792461395 2523534 5 -1
3.0704524517059326 3.957503080368042 0.19204427301883698 2523534 5 -1
3.0704524517059326 3.957503080368042 0.19204427301883698 2458766 5 -1
3.103710412979126 3.9209535121917725 0.3456796705722809 2199437 5 -1
3.1066386699676514 3.924652576446533 0.2688619792461395 2134668 5 -1
3.0214452743530273 3.9730119705200195 0.4609062373638153 2139270 5 -1
3.025378704071045 3.978184223175049 0.38408854603767395 2271109 5 -1
3.025378704071045 3.978184223175049 0.38408854603767395 2468738 5 -1
3.025378704071045 3.978184223175049 0.38408854603767395 2666112 5 -1
3.0235021114349365 3.9757163524627686 0.42249739170074463 2994813 5 -1
3.0235021114349365 3.9757163524627686 0.42249739170074463 3257723 5 -1
3.0328738689422607 3.98803973197937 0.1536354124546051 3651704 5 -1
3.0310909748077393 3.9856953620910645 0.23045311868190765 4045940 5 -1
2.8986034393310547 4.127761363983154 0.1159747838973999 2782862 5 -1
2.937682867050171 4.1009521484375 0.0773165225982666 2523534 5 -1
2.937251567840576 4.1003499031066895 0.1159747838973999 2458766 5 -1
3.089390754699707 3.981912851333618 0.2319495677947998 2458766 5 -1
3.043135166168213 4.001532554626465 0.4252408742904663 2070155 5 -1
3.0450241565704346 4.004016399383545 0.386582612991333 2139270 5 -1
3.046731948852539 4.006262302398682 0.3479243516921997 2271109 5 -1
3.052567958831787 4.0139360427856445 0.1546330451965332 4045940 5 -1
3.0450241565704346 4.004016399383545 0.386582612991333 4505456 5 -1
3.0309641361236572 3.9855287075042725 0.6185321807861328 4899181 5 -1
3.0721654891967773 3.9597110748291016 0.5798739194869995 8705099 5 -1
2.995802640914917 4.099623680114746 0.038907669484615326 2782862 5 -1
2.995802640914917 4.099623680114746 0.038907669484615326 2718350 5 -1
2.9955387115478516 4.099262714385986 0.07781533896923065 2588302 5 -1
2.995802640914917 4.099623680114746 0.038907669484615326 2523534 5 -1
2.9950990676879883 4.098660469055176 0.11672300845384598 2458766 5 -1
2.9548120498657227 4.124863624572754 0.19453835487365723 2328718 5 -1
2.9555935859680176 4.125955104827881 0.1556306779384613 2264205 5 -1
2.9555935859680176 4.125955104827881 0.1556306779384613 2264205 5 -1
2.9566357135772705 4.127409934997559 0.07781533896923065 2199437 5 -1
2.9887583255767822 4.0899834632873535 0.35016903281211853 2271109 5 -1
3.150688409805298 3.9803013801574707 0.11672300845384598 2271109 5 -1
2.8282277584075928 4.191228866577148 0.4668920338153839 4045940 5 -1
2.9902565479278564 4.092033863067627 0.3112613558769226 4505456 5 -1
2.9639711380004883 4.056063652038574 0.7392457127571106 4899181 5 -1
2.970341444015503 4.146542549133301 -0.3132566213607788 4729209 5 -1
3.011906862258911 4.12166166305542 -0.2349424660205841 4664956 5 -1
2.9727911949157715 4.149962425231934 -0.2349424660205841 4600703 5 -1
2.934624671936035 4.179057598114014 -0.19578538835048676 4471684 5 -1
3.011906862258911 4.12166166305542 -0.2349424660205841 2912910 5 -1
3.0147409439086914 4.125539779663086 -0.0783141553401947 2782862 5 -1
3.0150949954986572 4.12602424621582 0 2718350 5 -1
3.0147409439086914 4.125539779663086 0.0783141553401947 2588302 5 -1
3.0147409439086914 4.125539779663086 0.0783141553401947 2523534 5 -1
3.0128815174102783 4.122994899749756 0.19578538835048676 2458766 5 -1
3.013678550720215 4.124085903167725 0.1566283106803894 2328718 5 -1
3.013678550720215 4.124085903167725 0.1566283106803894 2264205 5 -1
3.0150949954986572 4.12602424621582 0 2199437 5 -1
3.0142982006073 4.124934196472168 0.11747123301029205 2134668 5 -1
2.9364359378814697 4.181636810302734 0.0783141553401947 2070922 5 -1
2.9364359378814697 4.181636810302734 0.0783141553401947 2070922 5 -1
3.1693947315216064 4.003932952880859 0.19578538835048676 2139270 5 -1
3.2074851989746094 3.9713618755340576 0.2349424660205841 2271109 5 -1
3.20937180519104 3.9736979007720947 0.1566283106803894 2468738 5 -1
3.2085230350494385 3.972646713256836 0.19578538835048676 2666112 5 -1
3.1994545459747314 3.961418628692627 0.43072786927223206 4505456 5 -1
3.0192079544067383 4.13165283203125 -0.5122843384742737 4729209 5 -1
3.0214452743530273 4.134714603424072 -0.4728778302669525 4664956 5 -1
2.987762928009033 4.170863151550293 -0.3546583652496338 4600703 5 -1
2.9892609119415283 4.172954082489014 -0.315251886844635 4471684 5 -1
3.0235021114349365 4.137528896331787 -0.43347135186195374 4212104 5 -1
3.0285933017730713 4.144495964050293 -0.315251886844635 4147337 5 -1
2.987762928009033 4.170863151550293 -0.3546583652496338 3757452 5 -1
2.955139398574829 4.208271503448486 -0.07881297171115875 2912910 5 -1
3.0733449459075928 4.122735500335693 -0.07881297171115875 2782862 5 -1
3.0339431762695312 4.151817321777344 -0.07881297171115875 2718350 5 -1
3.0339431762695312 4.151817321777344 0.07881297171115875 2588302 5 -1
3.034210443496704 4.1521830558776855 0.039406485855579376 2523534 5 -1
3.0235021114349365 4.137528896331787 0.43347135186195374 2458766 5 -1
3.0328738689422607 4.150353908538818 0.1576259434223175 2328718 5 -1
3.0328738689422607 4.150353908538818 0.1576259434223175 2264205 5 -1
3.0334975719451904 4.151207447052002 0.11821945756673813 2134668 5 -1
2.955139398574829 4.208271503448486 0.07881297171115875 2070922 5 -1
2.955139398574829 4.208271503448486 0.07881297171115875 2070922 5 -1
2.9547054767608643 4.207653522491455 0.11821945756673813 2006409 5 -1
3.0692813396453857 4.117284297943115 0.27584540843963623 2139270 5 -1
2.9892609119415283 4.172954082489014 0.315251886844635 2271109 5 -1
2.987762928009033 4.170863151550293 0.3546583652496338 2468738 5 -1
2.9860880374908447 4.168524742126465 0.39406487345695496 2666112 5 -1
2.9892609119415283 4.172954082489014 0.315251886844635 2994813 5 -1
3.2394795417785645 3.9308078289031982 0.7093167304992676 2994813 5 -1
2.9484503269195557 4.1987457275390625 0.3546583652496338 4045940 5 -1
3.020970582962036 4.134064674377441 -0.753462016582489 4590430 5 -1
2.8901877403259277 4.034649848937988 -1.4672681093215942 4728182 0 -1
3.02748703956604 4.142982482910156 -0.6741502285003662 4729209 5 -1
3.0332679748535156 4.150893211364746 -0.5948384404182434 4664956 5 -1
3.009509563446045 4.201220512390137 -0.2775912582874298 4600703 5 -1
3.0081801414489746 4.199365139007568 -0.3172471523284912 4212104 5 -1
3.046234369277954 4.168637275695801 -0.3569030463695526 4147337 5 -1
3.0010805130004883 4.189453601837158 -0.4758707284927368 3757452 5 -1
2.974104881286621 4.235279083251953 -0.0396558940410614 2523534 5 -1
2.974104881286621 4.235279083251953 0.0396558940410614 2458766 5 -1
3.0520691871643066 4.176621913909912 0.1586235761642456 2328718 5 -1
3.1723785400390625 4.0888752937316895 -0.0396558940410614 2264205 5 -1
3.0116353034973145 4.204188346862793 0.198279470205307 2134668 5 -1
3.0502750873565674 4.174166679382324 0.2379353642463684 2139270 5 -1
3.051262140274048 4.175517559051514 0.198279470205307 2271109 5 -1
3.0520691871643066 4.176621913909912 0.1586235761642456 2468738 5 -1
3.0477614402770996 4.170726776123047 0.3172471523284912 2666112 5 -1
3.0332679748535156 4.150893211364746 0.5948384404182434 4045940 5 -1
3.0332679748535156 4.150893211364746 0.5948384404182434 5424489 5 -1
2.9425039291381836 4.190277576446533 0.753462016582489 5949540 5 -1
3.0574259757995605 4.183952331542969 -0.5187689065933228 4456788 5 -1
3.0399703979492188 4.160065174102783 -0.7582007646560669 4590430 5 -1
3.0399703979492188 4.160065174102783 -0.7582007646560669 4657508 5 -1
3.0287351608276367 4.144690036773682 -0.8779166340827942 4729209 5 -1
3.000490188598633 4.188630104064941 -0.7582007646560669 4664956 5 -1
3.0295960903167725 4.22926139831543 -0.23943181335926056 4600703 5 -1
3.0328030586242676 4.233737945556641 0 3302798 5 -1
2.9526455402374268 4.28928279876709 0.07981060445308685 2718350 5 -1
3.0313782691955566 4.231749057769775 0.1596212089061737 2134668 5 -1
3.1890485286712646 4.110361576080322 0.23943181335926056 2134668 5 -1
2.9487416744232178 4.283611297607422 0.2793371081352234 2070155 5 -1
3.10813307762146 4.1694016456604 0.2793371081352234 2070155 5 -1
3.110328435897827 4.172346591949463 0.19952651858329773 2139270 5 -1
3.0682852268218994 4.198812484741211 0.2793371081352234 2271109 5 -1
3.0712647438049316 4.202889919281006 0.1596212089061737 2468738 5 -1
3.0919859409332275 4.147741317749023 0.5985795259475708 4045940 5 -1
3.0574259757995605 4.183952331542969 -0.5187689065933228 5949540 5 -1
2.8882668018341064 4.280202388763428 0.6783901453018188 10672695 5 -1
3.0346529483795166 4.1527886390686035 1.003867745399475 4456788 5 -1
3.0553901195526123 4.181166172027588 -0.803094208240509 4590430 5 -1
3.0589702129364014 4.186065673828125 -0.7629395127296448 4657508 5 -1
3.015709638595581 4.20987606048584 -0.803094208240509 4664956 5 -1
2.9309496879577637 4.3434553146362305 0.0803094208240509 3887499 5 -1
2.8534646034240723 4.313837051391602 0.8432489037513733 3692940 5 -1
3.051668405532837 4.260073661804199 0.04015471041202545 3692940 5 -1
3.0513997077941895 4.259698390960693 0.0803094208240509 3302798 5 -1
2.889016628265381 4.367584228515625 0.20077355206012726 2782862 5 -1
2.8897809982299805 4.368740081787109 0.1606188416481018 2718350 5 -1
2.9671711921691895 4.3103837966918945 0.28108298778533936 2070155 5 -1
3.127558946609497 4.195460319519043 0.28108298778533936 2139270 5 -1
3.128755569458008 4.197065830230713 0.2409282624721527 2271109 5 -1
3.1938397884368896 4.116537094116211 0.5621659755706787 2468738 5 -1
3.1021337509155273 4.161354064941406 0.7227848172187805 5424489 5 -1
3.3510797023773193 4.066224575042725 0.20202060043811798 4456788 5 -1
3.0624217987060547 4.190789222717285 -0.929294764995575 4590430 0 -1
3.007449150085449 4.2827630043029785 -0.6464658975601196 4664956 5 -1
2.9491543769836426 4.370433330535889 -0.08080823719501495 4212104 5 -1
2.9491543769836426 4.370433330535889 -0.08080823719501495 4147337 5 -1
2.9481148719787598 4.368893146514893 -0.1616164743900299 3692940 5 -1
2.906020402908325 4.393290996551514 0.24242471158504486 2912910 5 -1
2.948721408843994 4.369791507720947 0.12121235579252243 2782862 5 -1
2.975034236907959 4.32180643081665 0.5252535343170166 2072968 5 -1
2.986743211746216 4.338816165924072 0.24242471158504486 2139270 5 -1
3.1440184116363525 4.217540264129639 0.3636370599269867 2139270 5 -1
3.1403067111968994 4.212561130523682 0.44444531202316284 2271109 5 -1
2.827540874481201 4.44916296005249 0.12121235579252243 2468738 5 -1
2.898744583129883 4.382291316986084 0.44444531202316284 8180304 5 -1
3.0413658618927 4.245691299438477 0.7272741198539734 8180304 5 -1
2.9673590660095215 4.397411346435547 0.081307053565979 4456788 5 -1
2.965528726577759 4.3946990966796875 -0.2032676339149475 4456788 5 -1
-4.526920795440674 2.7077877521514893 -0.569149374961853 4456788 0 -1
3.004030466079712 4.36392879486084 -0.2845746874809265 4590430 5 -1
3.007565975189209 4.369064807891846 -0.1219605803489685 4728182 5 -1
2.9673590660095215 4.397411346435547 -0.081307053565979 3692940 5 -1
2.9269680976867676 4.424959182739258 0.0406535267829895 2977934 5 -1
2.967620372772217 4.397798538208008 0.0406535267829895 2912910 5 -1
2.914654016494751 4.40634298324585 0.487842321395874 2006409 5 -1
2.910163402557373 4.3995537757873535 0.569149374961853 2139270 5 -1
2.9200854301452637 4.414554119110107 0.3658817410469055 5424489 5 -1
2.927053928375244 4.425088882446289 0 13164576 5 -1
3.184264659881592 4.187108993530273 0.6911099553108215 13164576 5 -1
-2.966574192047119 4.141283988952637 -1.5952144861221313 4456788 0 -1
-4.537346363067627 2.7140235900878906 -0.7362528443336487 4456788 0 -1
3.025395154953003 4.394965171813965 -0.1636117398738861 4590430 5 -1
2.9858267307281494 4.424778938293457 -0.04090293496847153 3692940 5 -1
2.9428491592407227 4.448967933654785 0.20451468229293823 2977934 5 -1
2.9855635166168213 4.424389362335205 0.08180586993694305 2912910 5 -1
2.9851253032684326 4.423739910125732 0.12270880490541458 2588302 5 -1
2.968683958053589 4.399374961853027 0.5726410746574402 2070922 5 -1
2.932535409927368 4.433375835418701 0.4908352196216583 2006409 5 -1
2.9345316886901855 4.436393737792969 0.4499322772026062 2139270 5 -1
3.136183738708496 4.291728973388672 0.4908352196216583 2666112 5 -1
3.2004497051239014 4.208391189575195 0.7362528443336487 3651704 5 -1
2.932535409927368 4.433375835418701 0.4908352196216583 5424489 5 -1
2.9428491592407227 4.448967933654785 0.20451468229293823 13164576 5 -1
3.2004497051239014 4.208391189575195 0.7362528443336487 13164576 5 -1
-2.977052688598633 4.155911445617676 1.646093726158142 4456788 0 -1
-4.533451080322266 2.8032748699188232 -0.6584374904632568 4456788 0 -1
3.0438427925109863 4.421763896942139 -0.1646093726158142 4590430 5 -1
3.0841598510742188 4.392003059387207 -0.20576171576976776 3692940 5 -1
2.9504168033599854 4.460408687591553 0.4938281178474426 2977934 5 -1
3.001915454864502 4.44862174987793 0.20576171576976776 2912910 5 -1
2.9504168033599854 4.460408687591553 0.4938281178474426 2006409 5 -1
3.198460578918457 4.290571689605713 0.45267578959465027 2666112 5 -1
3.109530448913574 4.340847969055176 0.5761328339576721 4045940 5 -1
2.9611294269561768 4.388179779052734 0.9053515791893005 7589974 5 -1
3.147730827331543 4.307530403137207 0.6172851324081421 7589974 5 -1
2.8354241847991943 4.552082538604736 0.28806641697883606 8180304 5 -1
3.0027096271514893 4.449798583984375 0.1646093726158142 8180304 5 -1
-3.140615701675415 4.384242534637451 -0.3312140107154846 4456788 0 -1
-4.572737693786621 2.8275678157806396 -0.5382227897644043 4456788 0 -1
-4.489017963409424 2.865980386734009 0.9108385443687439 4590430 0 -1
-4.125800132751465 3.210275173187256 1.3662577867507935 4590430 0 -1
3.2232635021209717 4.323843479156494 -0.3312140107154846 3107982 5 -1
3.1607728004455566 4.325377941131592 0.7038297653198242 4045940 5 -1
3.225921869277954 4.327409744262695 0.24841050803661346 6933851 5 -1
2.999528408050537 4.445084095001221 0.6624280214309692 7589974 5 -1
3.207935333251953 4.303281307220459 0.6210262775421143 7589974 5 -1
2.4424164295196533 4.818973064422607 -0.08280350267887115 8180304 0 -1
3.7564828395843506 3.8616292476654053 0.41401752829551697 8180304 0 -1
2.6656742095947266 4.737271308898926 0 4456788 5 -1
-3.317976951599121 4.2765374183654785 -0.49981391429901123 4456788 0 -1
-3.1621410846710205 4.4142913818359375 -0.24990695714950562 4456788 0 -1
-3.2275619506835938 4.07741641998291 1.5827441215515137 4456788 0 -1
-3.1212542057037354 4.271298408508301 1.2495348453521729 4456788 0 -1
-4.618390083312988 2.855797052383423 0.24990695714950562 4456788 0 -1
-4.455899715423584 2.9339826107025146 1.0412789583206177 4590430 0 -1
-3.8538894653320312 3.3893086910247803 1.7909998893737793 4590430 0 -1
3.2441139221191406 4.351812839508057 -0.2915581166744232 3107982 5 -1
3.164000988006592 4.4168877601623535 0.1666046380996704 6933851 5 -1
-4.646045207977295 2.8728976249694824 0.25140342116355896 4456788 0 -1
3.077251672744751 4.470296859741211 0.670409083366394 3257723 5 -1
-4.675212383270264 2.8909332752227783 0.21074987947940826 4456788 0 -1
-4.695127487182617 2.903247594833374 0.3815944492816925 4456788 0 -1
3.020230293273926 4.565951824188232 0.8055883049964905 2666112 5 -1
3.050860643386841 4.521154880523682 0.9327864646911621 2994813 5 -1
3.050860643386841 4.521154880523682 0.9327864646911621 3257723 5 -1
-4.643802642822266 3.0577075481414795 0.2558927536010742 4456788 0 -1
3.0413658618927 4.597904205322266 0.7676782608032227 2666112 5 -1
3.037996292114258 4.59281063079834 0.8103270530700684 2994813 5 -1
3.2103304862976074 4.481563091278076 0.7676782608032227 4045940 5 -1
3.0521860122680664 4.614262580871582 0.8579639792442322 2666112 5 -1
3.06235408782959 4.629634380340576 0.7292693853378296 2994813 5 -1
3.070847272872925 4.642474174499512 0.600574791431427 3651704 5 -1
3.2136058807373047 4.486135482788086 0.9437603950500488 3651704 5 -1
3.402615547180176 4.385627746582031 0.7292693853378296 3651704 5 -1
3.229104518890381 4.507771015167236 0.7721676230430603 4045940 5 -1
-1.9833327531814575 5.265807151794434 -0.21573804318904877 4456788 4 -1
-1.9845569133758545 5.269057273864746 -0.0862952172756195 4456788 4 -1
-1.9833327531814575 5.265807151794434 -0.21573804318904877 4456788 4 -1
-1.4238710403442383 5.448070049285889 0 4456788 4 -1
3.0131421089172363 4.741208076477051 0.3883284628391266 3257723 5 -1
3.2364864349365234 4.518076419830322 0.906099796295166 3257723 5 -1
3.043178081512451 4.693512439727783 0.6472141146659851 4045940 5 -1
3.197845220565796 4.553896903991699 0.8629521727561951 4045940 5 -1
3.340331554412842 4.392327308654785 1.121837854385376 4045940 5 -1
-1.9933891296386719 5.292507171630859 -0.30377912521362305 4456788 4 -1
-1.9933891296386719 5.292507171630859 -0.30377912521362305 4456788 4 -1
-1.7350651025772095 5.388499736785889 -0.17358806729316711 4456788 4 -1
3.17716383934021 4.615438461303711 0.824543297290802 3257723 5 -1
3.22367000579834 4.590672492980957 0.7811462879180908 4045940 5 -1
-2.00561261177063 5.324960708618164 -0.2618785500526428 4456788 4 -1
-1.658125877380371 5.447911739349365 0.1309392750263214 4456788 4 -1
-1.614870309829712 5.462285041809082 0.043646425008773804 4456788 4 -1
-1.7445752620697021 5.418034553527832 -0.21823212504386902 4456788 4 -1
-2.142881155014038 4.932744026184082 1.8767962455749512 4600703 0 -1
-2.326564311981201 4.897483825683594 1.7458570003509521 4341894 0 -1
-1.6679927110671997 5.480329990386963 0.04389583319425583 4456788 4 -1
-1.6678457260131836 5.479846954345703 0.08779166638851166 4456788 4 -1
-1.9305092096328735 5.390774250030518 0.17558333277702332 4456788 4 -1
-1.7545442581176758 5.4489946365356445 0.21947915852069855 4456788 4 -1
-1.7533057928085327 5.445148944854736 0.3072708249092102 4456788 4 -1
-1.7988835573196411 5.436113357543945 -0.17558333277702332 4456788 4 -1
-1.7545442581176758 5.4489946365356445 -0.21947915852069855 4456788 4 -1
-2.1611504554748535 4.974798202514648 1.8436249494552612 4600703 0 -1
-1.2811005115509033 5.238945960998535 -1.931416630744934 4600703 0 -1
-2.285832166671753 4.918756008148193 1.8436249494552612 3757452 0 -1
-1.6775192022323608 5.511630058288574 0 4456788 4 -1
-1.6773221492767334 5.510982513427734 0.08829048275947571 4456788 4 -1
-1.6774699687957764 5.511467933654785 0.044145241379737854 4456788 4 -1
-2.0742781162261963 5.373263835906982 -0.13243572413921356 4456788 4 -1
-1.9414780139923096 5.421403408050537 0.17658096551895142 4456788 4 -1
-1.8980224132537842 5.438920021057129 0.08829048275947571 4456788 4 -1
-1.809104561805725 5.467000484466553 -0.17658096551895142 4456788 4 -1
-1.809476613998413 5.468124866485596 -0.13243572413921356 4456788 4 -1
-1.8086260557174683 5.465554714202881 -0.22072620689868927 4456788 4 -1
-1.8080410957336426 5.463786602020264 -0.2648714482784271 4456788 4 -1
-1.8097423315048218 5.46892786026001 -0.08829048275947571 4456788 4 -1
-1.8056459426879883 5.456548690795898 -0.3973071575164795 4456788 4 -1
-1.8056459426879883 5.456548690795898 -0.3973071575164795 4456788 4 -1
-2.477217435836792 4.993323802947998 1.456792950630188 4600703 0 -1
-1.253901720046997 5.308688640594482 -1.8541001081466675 4600703 0 -1
-2.2570230960845947 4.96591329574585 1.8541001081466675 3757452 0 -1
-1.6869966983795166 5.542768955230713 0 4456788 4 -1
-1.6426019668579102 5.556087017059326 0 4456788 4 -1
-1.6425538063049316 5.555923938751221 -0.04439464956521988 4456788 4 -1
-1.6798501014709473 5.519288063049316 0.5327357649803162 4456788 4 -1
-1.8124698400497437 5.477169990539551 0.5327357649803162 4456788 4 -1
-1.9528484344482422 5.45315408706665 0.13318394124507904 4456788 4 -1
-1.9531351327896118 5.453955173492432 0.08878929913043976 4456788 4 -1
-1.9080730676651 5.4677205085754395 0.17757859826087952 4456788 4 -1
-1.9080730676651 5.4677205085754395 0.17757859826087952 4456788 4 -1
-1.8196996450424194 5.49901819229126 0.13318394124507904 4456788 4 -1
-1.8196996450424194 5.49901819229126 -0.13318394124507904 4456788 4 -1
-1.8182560205459595 5.494655609130859 -0.2663678824901581 4456788 4 -1
-1.8199669122695923 5.499825954437256 -0.08878929913043976 4456788 4 -1
-1.8081179857254028 5.464019298553467 -0.6659197211265564 4456788 4 -1
-1.874554991722107 5.514941692352295 -0.1339321732521057 4456788 4 -1
-1.6518300771713257 5.587301254272461 0 4456788 4 -1
-1.8550728559494019 5.457625389099121 0.8482370972633362 4456788 4 -1
-1.850616455078125 5.444514751434326 0.93752521276474 4456788 4 -1
-1.8590744733810425 5.469398021697998 0.7589489817619324 4456788 4 -1
-1.8590744733810425 5.469398021697998 0.7589489817619324 4456788 4 -1
-1.9191871881484985 5.499568939208984 0.1339321732521057 4456788 4 -1
-1.740658164024353 5.558655261993408 0.1339321732521057 4456788 4 -1
-1.964107871055603 5.48459529876709 0.08928811550140381 4456788 4 -1
-2.0084517002105713 5.4676008224487305 0.1339321732521057 4456788 4 -1
-1.8295464515686035 5.528774261474609 0.17857623100280762 4456788 4 -1
-1.8748302459716797 5.515751838684082 0.08928811550140381 4456788 4 -1
-2.1874945163726807 5.399940013885498 -0.044644057750701904 4456788 4 -1
-1.7857098579406738 5.5457844734191895 -0.044644057750701904 4456788 4 -1
-1.8165982961654663 5.4896464347839355 -0.7143049240112305 4456788 4 -1
-1.8087849617004395 5.466034889221191 -0.8928811550140381 4456788 4 -1
-1.8550728559494019 5.457625389099121 -0.8482370972633362 4523353 4 -1
-1.8654364347457886 5.488114833831787 0.8529758453369141 4456788 4 -1
-1.8654364347457886 5.488114833831787 0.8529758453369141 4456788 4 -1
-1.92474365234375 5.515491485595703 -0.4489346444606781 4456788 4 -1
-1.839767336845398 5.559661388397217 0.17957386374473572 4456788 4 -1
-1.839767336845398 5.559661388397217 0.17957386374473572 4456788 4 -1
-2.199521541595459 5.429628849029541 0.08978693187236786 4456788 4 -1
-2.199521541595459 5.429628849029541 0.08978693187236786 4456788 4 -1
-1.7838380336761475 5.539970874786377 -0.6734020113945007 4456788 4 -1
-1.8249493837356567 5.514882564544678 -0.763188898563385 4456788 4 -1
-4.5791335105896 3.654909372329712 0 4456788 0 -1
-1.8210211992263794 5.503011703491211 -0.8529758453369141 4456788 4 -1
-1.863253116607666 5.481691837310791 -0.8978692889213562 4523353 4 -1
-1.9848281145095825 5.542454719543457 -0.22571437060832977 4456788 4 -1
-2.02760910987854 5.5197529792785645 0.36114299297332764 4456788 4 -1
-1.9158483743667603 5.490001201629639 0.9480003714561462 4456788 4 -1
-1.8757998943328857 5.518604278564453 0.8577145934104919 4456788 4 -1
-1.9246044158935547 5.515092372894287 0.7674288749694824 4456788 4 -1
-1.883435606956482 5.5410685539245605 0.6771430969238281 4456788 4 -1
-1.883435606956482 5.5410685539245605 0.6771430969238281 4456788 4 -1
-1.892435073852539 5.567545413970947 0.36114299297332764 4456788 4 -1
-1.7572611570358276 5.61167573928833 0.36114299297332764 4456788 4 -1
-2.165266990661621 5.474483013153076 0.22571437060832977 4456788 4 -1
