VERSION .7
FIELDS x y z rgb label object
SIZE 4 4 4 4 4 4
TYPE F F F I I I
COUNT 1 1 1 1 1 1
WIDTH 674
HEIGHT 1
POINTS 674
VIEWPOINT 0 0 0 1 0 0 0
DATA ascii
0.23010970652103424 0.2023703157901764 -0.10973957926034927 4456788 0 -1
0.29793688654899597 0.09777812659740448 -0.08729285001754761 4456788 0 -1
0.04973497986793518 0.32070451974868774 0.024940814822912216 4456788 0 -1
0.1116754561662674 0.3040136992931366 -0.03242305666208267 4456788 0 -1
-0.5855146050453186 0.19215653836727142 0.05212630331516266 4456788 0 -1
0.49633535742759705 0.41621407866477966 -0.06484611332416534 4456788 0 -1
0.4500552713871002 0.4626525938510895 -0.08479876816272736 4456788 0 -1
0.5856757164001465 0.2767072319984436 -0.06484611332416534 4456788 0 -1
-0.6104925274848938 0.2165221869945526 0.06484611332416534 4456788 0 -1
0.6333292722702026 0.14986014366149902 -0.014964488334953785 4724328 0 -1
0.5082545876502991 0.4056716561317444 -0.02992897666990757 4729209 0 -1
-0.6542156934738159 0.19632181525230408 0.026187855750322342 4456788 0 -1
-0.4813403785228729 0.4738827049732208 0.10475142300128937 4456788 0 -1
0.6543887853622437 0.19637374579906464 -0.020950283855199814 4456788 0 -1
-0.6057720184326172 0.31228718161582947 -0.052375711500644684 4456788 0 -1
-0.5070889592170715 0.45643332600593567 0.04190056771039963 4456788 0 -1
0.4677923321723938 0.4808861315250397 -0.1309392750263214 4456788 0 -1
0.5094099044799805 0.44800129532814026 -0.08380113542079926 4456788 0 -1
-0.658362865447998 0.17765872180461884 -0.047138139605522156 4456788 0 -1
-0.6001773476600647 0.3220157325267792 0.05761327967047691 4456788 0 -1
0.5650595426559448 0.3833358883857727 -0.03142542764544487 4456788 0 -1
0.5543833374977112 0.3981723189353943 -0.0366629958152771 4456788 0 -1
0.6352964043617249 0.24134628474712372 -0.0733259916305542 4456788 0 -1
-0.6649957299232483 0.15735316276550293 -0.015712713822722435 4456788 0 -1
0.6479126214981079 0.21263457834720612 -0.047138139605522156 4456788 0 -1
-0.659623920917511 0.17799900472164154 -0.020950283855199814 4456788 0 -1
-0.659623920917511 0.17799900472164154 -0.020950283855199814 4456788 0 -1
-0.5537797212600708 0.3535565435886383 -0.18855255842208862 4456788 0 -1
0.5087665915489197 0.4266386032104492 -0.16236470639705658 4456788 0 -1
0.6127657294273376 0.23278698325157166 -0.19379012286663055 4456788 0 -1
-0.6362767219543457 0.24171870946884155 0.06285085529088974 4456788 0 -1
0.6171436905860901 0.29157453775405884 -0.0366629958152771 4456788 0 -1
-0.6410171389579773 0.22734829783439636 0.06808841973543167 4456788 0 -1
0.48593446612358093 0.478405624628067 -0.047138139605522156 4147337 0 -1
0.5634558796882629 0.37100696563720703 -0.1099889874458313 4147337 0 -1
0.6005498766899109 0.32221561670303345 -0.052375711500644684 4147337 0 -1
0.6214385628700256 0.27981629967689514 -0.052375711500644684 2468738 0 -1
0.654677152633667 0.1964602917432785 -0.0052375709637999535 2468738 0 -1
-0.6857918500900269 0.20579740405082703 -0.010973958298563957 4456788 0 -1
-0.6095559000968933 0.28798961639404297 0.24142707884311676 4456788 0 -1
0.5893266201019287 0.3525070250034332 0.20301823318004608 4456788 0 -1
-0.5745189785957336 0.36679738759994507 -0.21947915852069855 4456788 0 -1
-0.6552728414535522 0.2648090124130249 0.11522655934095383 4456788 0 -1
0.6933805346488953 0.16406963765621185 0.071330726146698 4456788 0 -1
-0.6720393896102905 0.23835089802742004 0.06584374606609344 4456788 0 -1
0.6076046824455261 0.37571442127227783 -0.04938281327486038 4600703 0 -1
0.629815936088562 0.33791786432266235 -0.04389583319425583 4147337 0 -1
0.6250563859939575 0.34833216667175293 0.02743489481508732 4045940 0 -1
0.6506270170211792 0.2929590344429016 0.06035676971077919 4045940 0 -1
0.23241370916366577 0.7023396492004395 0.11472774296998978 4456788 0 -1
-0.6480640769004822 0.27706730365753174 -0.25240105390548706 4456788 0 -1
0.6036743521690369 0.3974888026714325 0.19503717124462128 4456788 0 -1
0.059405870735645294 0.7022992968559265 0.25240105390548706 4456788 0 -1
0.18355900049209595 0.7257636189460754 -0.005736387334764004 4456788 0 -1
0.6296592354774475 0.36382144689559937 0.17782799899578094 4523353 0 -1
0.6552364826202393 0.2801337242126465 0.22945548593997955 4523353 0 -1
-0.6623857617378235 0.2676835060119629 0.22371910512447357 4724328 0 -1
0.6092126965522766 0.38894733786582947 0.19503717124462128 4724328 0 -1
-0.6644065380096436 0.2524051070213318 0.23519188165664673 4725613 0 -1
-0.6644065380096436 0.2524051070213318 0.23519188165664673 4725613 0 -1
-0.6644065380096436 0.2524051070213318 0.23519188165664673 4725613 0 -1
0.274180144071579 0.6932145357131958 0.06883664429187775 4664956 0 -1
0.6102603077888489 0.35261261463165283 0.25240105390548706 4664956 0 -1
0.57383793592453 0.46958282589912415 -0.10325497388839722 4600703 0 -1
0.08663433790206909 1.6128727197647095 -0.19952651858329773 4456788 0 -1
0.23659665882587433 1.6078174114227295 -0.08729285001754761 4523353 0 -1
0.03522087261080742 1.5317848920822144 -0.5486978888511658 4725613 0 -1
0.012682419270277023 1.6550954580307007 -0.12719815969467163 4456788 0 -1
0.012701504863798618 1.6575862169265747 0.08903870731592178 4523353 0 -1
-0.15187862515449524 1.644770860671997 -0.16535760462284088 4657508 0 -1
-0.06358227133750916 1.658367395401001 0.03815944492816925 4657508 0 -1
-0.13732679188251495 1.6234843730926514 -0.3179953694343567 4724328 0 -1
-0.0378715842962265 1.6470664739608765 -0.20351704955101013 4724328 0 -1
0.6220988631248474 1.5356820821762085 -0.10175852477550507 4724328 0 -1
-0.15064874291419983 1.6314518451690674 -0.26711612939834595 4725613 0 -1
1.3088077306747437 0.9660906195640564 0.33071520924568176 4725613 0 -1
-0.10375379025936127 1.689391016960144 0 4523353 0 -1
-0.2153426557779312 1.639074444770813 -0.36313825845718384 4657508 0 -1
-0.12871387600898743 1.6748671531677246 -0.20750758051872253 4657508 0 -1
0.16716338694095612 1.6698063611984253 -0.22047679126262665 4657508 0 -1
-0.0896015465259552 1.6681132316589355 -0.2723536789417267 4724328 0 -1
0.29723069071769714 1.6601531505584717 -0.142661452293396 4724328 0 -1
-0.22719450294971466 1.631505012512207 -0.38907670974731445 4725613 0 -1
0.0760032907128334 1.651411771774292 -0.36313825845718384 4725613 0 -1
0.18036584556102753 1.6716548204421997 -0.19453835487365723 4725613 0 -1
0.4080493748188019 1.6133633852005005 0.5656576752662659 4456788 0 -1
0.5948379635810852 1.6193253993988037 0.33670100569725037 4456788 0 -1
-0.22436705231666565 1.7077633142471313 -0.35016903281211853 4456788 0 -1
0.2525582015514374 1.7162857055664062 0.28282883763313293 4456788 0 -1
-0.3420148193836212 1.6823292970657349 -0.37710511684417725 4456788 0 -1
-0.22700589895248413 1.727848768234253 -0.2289566695690155 4456788 0 -1
0 1.7196459770202637 -0.3636370599269867 4456788 0 -1
0.8857275247573853 1.5109444856643677 -0.14814843237400055 4456788 0 -1
-0.09420706331729889 1.7538542747497559 -0.0673401951789856 4523353 0 -1
-0.02680210955440998 1.7487256526947021 0.17508451640605927 4523353 0 -1
0.26678648591041565 1.720310926437378 0.24242471158504486 4523353 0 -1
-0.18560132384300232 1.7201780080795288 -0.30976492166519165 4657508 0 -1
-0.05374390631914139 1.7526646852493286 -0.12121235579252243 4657508 0 -1
0.14673255383968353 1.7346798181533813 -0.24242471158504486 4657508 0 -1
0.3097558319568634 1.7301111221313477 0.013468039222061634 4657508 0 -1
-0.14418111741542816 1.7045166492462158 -0.40404120087623596 4724328 0 -1
-0.053465764969587326 1.7435941696166992 -0.21548862755298615 4724328 0 -1
0.3633700907230377 1.718383550643921 -0.0673401951789856 4724328 0 -1
0.15886014699935913 1.7203773260116577 -0.3232329487800598 4725613 0 -1
0.23937654495239258 1.7189854383468628 0.4389583170413971 4456788 0 -1
-0.163518488407135 1.7708247900009155 -0.20576171576976776 4456788 0 -1
-0.04114146903157234 1.7892764806747437 -0.04115234315395355 4456788 0 -1
0.274276465177536 1.7686083316802979 0.04115234315395355 4456788 0 -1
-0.09554456174373627 1.778754472732544 -0.178326815366745 4523353 0 -1
-0.012914320454001427 1.685359239578247 0.6035677194595337 4523353 0 -1
-0.012914320454001427 1.685359239578247 0.6035677194595337 4523353 0 -1
0.27369582653045654 1.764864206314087 -0.12345702946186066 4523353 0 -1
-0.05481177195906639 1.787489414215088 -0.0823046863079071 4657508 0 -1
0.14960628747940063 1.768653154373169 -0.23319661617279053 4657508 0 -1
0.26056262850761414 1.7706806659698486 -0.04115234315395355 4657508 0 -1
-0.8159432411193848 1.4802736043930054 0.5898502469062805 4724328 0 -1
0.35906481742858887 1.698023796081543 -0.4389583170413971 4725613 0 -1
1.0182491540908813 1.4214574098587036 0.38408854603767395 4725613 0 -1
-0.12109693139791489 1.7518186569213867 0.4888399541378021 4456788 0 -1
-0.20771780610084534 1.7952646017074585 -0.23743654787540436 4456788 0 -1
0.027569705620408058 1.7988080978393555 -0.2933039665222168 4456788 0 -1
0.12497634440660477 1.8079392910003662 -0.19553598761558533 4456788 0 -1
1.6855113506317139 0.5531578660011292 -0.41900569200515747 4456788 0 -1
-1.5776922702789307 0.7796668410301208 0.4748730957508087 4724328 0 -1
0.1396644562482834 1.8173598051071167 -0.013966855593025684 4724328 0 -1
1.0385160446166992 1.4497495889663696 0.37710511684417725 4725613 0 -1
-0.08520739525556564 1.8514000177383423 -0.0852975845336914 4523353 0 -1
-0.014215846545994282 1.8552125692367554 -0.01421626377850771 4523353 0 -1
-0.12994621694087982 1.8798346519470215 -0.11572537571191788 4523353 0 -1
-1.432281494140625 2.2090165615081787 -0.14141441881656647 4456788 0 -1
-0.9863783717155457 2.434924364089966 -0.22222265601158142 4456788 0 -1
-1.5076186656951904 2.1469268798828125 -0.2626267671585083 4456788 0 -1
-1.333296775817871 2.2744436264038086 0.02020205929875374 4456788 0 -1
-1.9408715963363647 1.7469881772994995 -0.3636370599269867 4456788 0 -1
-1.509171485900879 2.106775999069214 -0.4848494231700897 4456788 0 -1
-1.388981819152832 2.22991681098938 -0.22222265601158142 4456788 0 -1
-1.5639703273773193 2.056523323059082 -0.5252535343170166 4456788 0 -1
-1.4292421340942383 2.204329013824463 -0.22222265601158142 4456788 0 -1
-1.3913207054138184 2.2336716651916504 -0.1616164743900299 4456788 0 -1
-1.4649769067764282 2.170989990234375 -0.3030308783054352 4456788 0 -1
-1.4662402868270874 2.1728620529174805 -0.28282883763313293 4456788 0 -1
-1.413819432258606 2.180542469024658 -0.44444531202316284 4456788 0 -1
-0.28229695558547974 2.616365909576416 0.1616164743900299 4456788 0 -1
-1.4921410083770752 2.1676201820373535 -0.1616164743900299 4600703 0 -1
-1.5359514951705933 2.144160509109497 -0.40902936458587646 4456788 0 -1
-1.9142940044403076 1.8436715602874756 -0.24541760981082916 4456788 0 -1
-1.778807520866394 1.9889583587646484 -0.06135440245270729 4456788 0 -1
-1.4672658443450928 2.2181968688964844 -0.2249661386013031 4456788 0 -1
-1.308740258216858 2.3258121013641357 0.04090293496847153 4456788 0 -1
-1.6033201217651367 2.0665175914764404 -0.5317381620407104 4456788 0 -1
-1.4885679483413696 2.2059500217437744 -0.20451468229293823 4456788 0 -1
-1.5340571403503418 2.1415159702301025 -0.42948082089424133 4456788 0 -1
-1.6058177947998047 2.069736957550049 -0.5112866759300232 4456788 0 -1
-1.5089592933654785 2.192051887512207 -0.20451468229293823 4456788 0 -1
-1.503378987312317 2.183945655822754 -0.30677202343940735 4456788 0 -1
-1.5406932830810547 2.108370780944824 -0.5521896481513977 4456788 0 -1
-1.503112554550171 2.140510082244873 -0.5317381620407104 4523353 0 -1
-1.5046755075454712 2.185828924179077 -0.2863205373287201 4600703 0 -1
-1.5236949920654297 2.1698203086853027 -0.30677202343940735 4471684 0 -1
-1.5089592933654785 2.192051887512207 -0.20451468229293823 4147337 0 -1
-1.6160516738891602 2.125007152557373 0.41401752829551697 4456788 0 -1
-1.9017391204833984 1.9133946895599365 -0.14490613341331482 4456788 0 -1
-1.8211957216262817 1.9945119619369507 -0.062102627009153366 4456788 0 -1
-1.4860811233520508 2.2466416358947754 -0.20700876414775848 4456788 0 -1
-1.3247004747390747 2.354175567626953 0.04140175133943558 4456788 0 -1
-1.9608014822006226 1.846914529800415 -0.20700876414775848 4456788 0 -1
-1.4676464796066284 2.2635600566864014 -0.14490613341331482 4456788 0 -1
-1.3242336511611938 2.353346109390259 0.08280350267887115 4456788 0 -1
-1.5264136791229248 2.2174079418182373 -0.22770963609218597 4456788 0 -1
-1.5342262983322144 2.1848175525665283 -0.41401752829551697 4456788 0 -1
-1.611965537071228 2.1196341514587402 -0.45541927218437195 4456788 0 -1
-1.5459885597229004 2.2015676498413086 -0.24841050803661346 4456788 0 -1
-1.5203088521957397 2.2085394859313965 -0.3312140107154846 4456788 0 -1
-1.566782832145691 2.144073009490967 -0.49682101607322693 4456788 0 -1
-1.5303471088409424 2.179293394088745 -0.45541927218437195 4523353 0 -1
-1.5436066389083862 2.1981756687164307 -0.28981226682662964 4600703 0 -1
-1.5408536195755005 2.1942551136016846 -0.3312140107154846 4471684 0 -1
-1.5448437929153442 2.199937582015991 -0.26911139488220215 4147337 0 -1
-1.5459885597229004 2.2015676498413086 -0.24841050803661346 3562893 0 -1
-1.877049446105957 1.847967267036438 0.6003254055976868 4045940 0 -1
-1.6353691816329956 2.1504082679748535 0 11918891 0 -1
-1.6374386548995972 2.1531295776367188 0.39805540442466736 4456788 0 -1
-2.0934340953826904 1.713098168373108 -0.39805540442466736 4456788 0 -1
-1.964638352394104 1.8921586275100708 -0.18855255842208862 4456788 0 -1
-1.4448904991149902 2.319674253463745 -0.08380113542079926 4456788 0 -1
-1.6291671991348267 2.1422531604766846 -0.4818565249443054 4456788 0 -1
-1.5355043411254883 2.2306137084960938 -0.37710511684417725 4456788 0 -1
-1.6424254179000854 2.1169204711914062 -0.5447073578834534 4456788 0 -1
-1.530118703842163 2.222790002822876 -0.4399559497833252 4456788 0 -1
-1.557883620262146 2.2185068130493164 -0.35615482926368713 4456788 0 -1
-1.5437533855438232 2.2425971031188965 -0.25140342116355896 4456788 0 -1
-1.537111759185791 2.2329490184783936 -0.35615482926368713 4456788 0 -1
-1.797532081604004 1.968596339225769 -0.6075582504272461 4456788 0 -1
-1.6185046434402466 2.1711413860321045 -0.37710511684417725 4456788 0 -1
-1.557883620262146 2.2185068130493164 -0.35615482926368713 4456788 0 -1
-1.537111759185791 2.2329490184783936 -0.35615482926368713 4456788 0 -1
-1.58792245388031 2.173001766204834 -0.4818565249443054 4456788 0 -1
-1.5527108907699585 2.2111406326293945 -0.41900569200515747 4523353 0 -1
-1.5594180822372437 2.2206919193267822 -0.335204541683197 4724328 0 -1
-1.5622042417526245 2.2246596813201904 -0.2933039665222168 4600703 0 -1
-1.4242428541183472 2.3330671787261963 -0.06285085529088974 4600703 0 -1
-1.5426102876663208 2.240936517715454 -0.2723536789417267 4471684 0 -1
-1.5622042417526245 2.2246596813201904 -0.2933039665222168 4147337 0 -1
-2.1995062828063965 1.5797417163848877 -0.37710511684417725 3562893 0 -1
-1.6857268810272217 2.129598379135132 -0.3142542541027069 3562893 0 -1
-1.5277535915374756 2.2640204429626465 -0.12570171058177948 3562893 0 -1
-1.6967737674713135 2.1435539722442627 0.04190056771039963 4045940 0 -1
-1.541374921798706 2.2391419410705566 0.2933039665222168 4045940 0 -1
-1.759522795677185 2.1350176334381104 -0.02119969204068184 4456788 0 -1
-1.7130869626998901 2.1641626358032227 0.19079722464084625 4456788 0 -1
-1.78072190284729 2.117368698120117 0.02119969204068184 4456788 0 -1
-1.78072190284729 2.117368698120117 -0.02119969204068184 4456788 0 -1
-1.6476918458938599 2.210294485092163 0.23319661617279053 4456788 0 -1
-1.779937505722046 2.116436243057251 0.08479876816272736 4456788 0 -1
-1.6149842739105225 2.2100346088409424 0.40279415249824524 4456788 0 -1
-1.8620645999908447 2.0392701625823975 0.1695975363254547 4456788 0 -1
-1.7794667482376099 2.1158764362335205 0.1059984639286995 4456788 0 -1
-1.8655180931091309 2.0430524349212646 -0.02119969204068184 4456788 0 -1
-1.8642032146453857 2.041612386703491 -0.1059984639286995 4456788 0 -1
-1.863600254058838 2.04095196723938 -0.12719815969467163 4456788 0 -1
-1.759367823600769 2.1348297595977783 -0.04239938408136368 4456788 0 -1
-1.8229594230651855 2.0807912349700928 0.04239938408136368 4456788 0 -1
-1.5836983919143677 2.2108142375946045 -0.5087926387786865 4456788 0 -1
-1.7805650234222412 2.1171822547912598 -0.04239938408136368 4523353 0 -1
-1.7577139139175415 2.1328227519989014 0.12719815969467163 4536450 0 -1
-1.7370984554290771 2.1507959365844727 0.1059984639286995 3238030 0 -1
-1.180332064628601 2.4846324920654297 0.29679569602012634 3238030 0 -1
-2.2031493186950684 1.670199990272522 0.1059984639286995 4045940 0 -1
-1.5569428205490112 2.2617573738098145 0.3391950726509094 4045940 0 -1
-1.7098219394683838 2.2037878036499023 0.2359400987625122 4456788 0 -1
-1.78022301197052 2.160135507583618 -0.021449100226163864 4456788 0 -1
-1.9089138507843018 2.047297716140747 0.021449100226163864 4456788 0 -1
-1.7802753448486328 2.160198926925659 0 4456788 0 -1
-1.8861349821090698 2.06563138961792 -0.10724549740552902 4456788 0 -1
-1.8866339921951294 2.0661778450012207 -0.08579640090465546 4456788 0 -1
-1.8874653577804565 2.0670883655548096 0.021449100226163864 4456788 0 -1
-1.7800662517547607 2.159945249557495 -0.04289820045232773 4456788 0 -1
-1.844406008720398 2.105271100997925 -0.04289820045232773 4456788 0 -1
-1.8874653577804565 2.0670883655548096 0.021449100226163864 4523353 0 -1
-1.8015128374099731 2.142090320587158 -0.04289820045232773 4523353 0 -1
-1.880804181098938 2.05979323387146 -0.2359400987625122 4590430 0 -1
-1.8874653577804565 2.0670883655548096 0.021449100226163864 4725613 0 -1
-1.966219425201416 1.9357556104660034 -0.4718801975250244 4147337 0 -1
-1.9089641571044922 2.090632915496826 -0.06509552150964737 4456788 0 -1
-1.8872714042663574 2.110236406326294 -0.06509552150964737 4456788 0 -1
-1.9094126224517822 2.0911242961883545 -0.02169850841164589 4456788 0 -1
-1.8443191051483154 2.148754119873047 -0.02169850841164589 4456788 0 -1
-1.9092445373535156 2.090939998626709 -0.04339701682329178 4523353 0 -1
-1.9092445373535156 2.090939998626709 -0.04339701682329178 4523353 0 -1
-1.8850528001785278 2.107755661010742 -0.15188956260681152 4590430 0 -1
-1.5465949773788452 2.482954263687134 0.15712712705135345 4341894 0 -1
-1.9070758819580078 2.221869945526123 0.08978693187236786 4147337 0 -1
-1.8208192586898804 2.254455327987671 0.6127958297729492 4725613 0 -1
-1.8145540952682495 2.2466981410980225 0.6581881046295166 4729209 0 -1
-1.854294776916504 2.2500147819519043 0.5220112204551697 4664956 0 -1
-1.854294776916504 2.2500147819519043 0.5220112204551697 4664956 0 -1
-1.7986141443252563 2.272210121154785 0.6127958297729492 4600703 0 -1
-1.8620805740356445 2.214108467102051 0.6354919672012329 4341894 0 -1
-1.9062519073486328 2.2666304111480713 -0.04539228230714798 4147337 0 -1
-1.8614883422851562 2.304810047149658 0.4359654188156128 4590430 0 -1
-1.8466904163360596 2.2864878177642822 0.5736387372016907 4725613 0 -1
-1.8534798622131348 2.249025821685791 0.6883664727210999 4729209 0 -1
-1.8483425378799438 2.1977732181549072 0.8489853143692017 4341894 0 -1
-1.789750576019287 2.30680775642395 0.6654209494590759 4341894 0 -1
-1.8053946495056152 2.280776023864746 0.7113119959831238 4212104 0 -1
-1.785491943359375 2.395146369934082 0.20650994777679443 4017546 0 -1
-1.8377206325531006 2.2753818035125732 0.6424753665924072 3757452 0 -1
-1.8377206325531006 2.2753818035125732 0.6424753665924072 3757452 0 -1
-1.9024405479431152 2.3084352016448975 0.4638991355895996 4590430 0 -1
-1.7955585718154907 2.4086501598358154 0.37111932039260864 4590430 0 -1
-1.8695486783981323 2.3147897720336914 0.5566789507865906 4725613 0 -1
-1.7265348434448242 2.316058397293091 0.9046033024787903 4341894 0 -1
-1.8281922340393066 2.2635841369628906 0.8350184559822083 4212104 0 -1
-1.775194764137268 2.2880468368530273 0.8814083933830261 4147337 0 -1
-1.7836021184921265 2.2988829612731934 0.8350184559822083 4017546 0 -1
-1.8667632341384888 2.3113410472869873 0.5798739194869995 3302798 0 -1
-1.8015422821044922 2.4166769981384277 0.2783394753932953 3302798 0 -1
-1.9228969812393188 2.333256959915161 0.4688872992992401 4590430 0 -1
-1.8130797147750854 2.4321539402008057 0.3985542058944702 4590430 0 -1
-1.8949261903762817 2.3462111949920654 0.5157760381698608 4725613 0 -1
-1.7494258880615234 2.3467655181884766 0.8908858895301819 4341894 0 -1
-1.785282015800476 2.3010482788085938 0.9377745985984802 4212104 0 -1
-1.7942829132080078 2.3126494884490967 0.8908858895301819 4147337 0 -1
-1.7550207376480103 2.4992401599884033 0.18755492568016052 2588302 0 -1
-1.7348320484161377 2.5201754570007324 0.023444365710020065 2523534 0 -1
-1.7765334844589233 2.480008363723755 0.23444364964962006 2134668 0 -1
-1.7987923622131348 2.4615678787231445 0.2578880190849304 2070922 0 -1
-1.7792068719863892 2.4837405681610107 0.16411055624485016 2006409 0 -1
-1.7564681768417358 2.5013015270233154 0.1406661868095398 3651704 0 -1
-1.7809346914291382 2.486152410507202 0.09377746284008026 4045940 0 -1
-1.7578628063201904 2.5032875537872314 0.0703330934047699 4505456 0 -1
-1.7570364475250244 2.502110719680786 0.11722182482481003 4899181 0 -1
-1.7575013637542725 2.502772808074951 0.09377746284008026 5424489 0 -1
-1.7575013637542725 2.502772808074951 0.09377746284008026 5949540 0 -1
-1.6348285675048828 2.572418451309204 0.5212630033493042 4456788 0 -1
-1.781541109085083 2.486999034881592 0.4501816928386688 4456788 0 -1
-1.8358665704727173 2.462721347808838 0.35540661215782166 4456788 0 -1
-1.772802472114563 2.524562358856201 0.21324396133422852 4456788 0 -1
-1.7835170030593872 2.4897572994232178 0.42648792266845703 4456788 0 -1
-1.766778588294983 2.515984058380127 0.33171284198760986 4456788 0 -1
-1.7617683410644531 2.4593966007232666 -0.6397318840026855 4456788 0 -1
-1.8106577396392822 2.4778051376342773 0.37910038232803345 4456788 0 -1
-1.7296454906463623 2.5632095336914062 0 4456788 0 -1
-1.7210428714752197 2.5504610538482666 0.3080190420150757 4456788 0 -1
-1.9498273134231567 2.3659346103668213 0.40279415249824524 4590430 0 -1
-1.8304516077041626 2.4554574489593506 0.42648792266845703 4590430 0 -1
-1.8952792882919312 2.442823648452759 -0.04738754779100418 4212104 0 -1
-1.7508152723312378 2.543394088745117 0.16585642099380493 4212104 0 -1
-1.7481844425201416 2.5395724773406982 0.2369377315044403 2588302 0 -1
-1.79643976688385 2.5077972412109375 0.21324396133422852 2134668 0 -1
-1.8190568685531616 2.4892988204956055 0.2369377315044403 2070922 0 -1
-1.7271556854248047 2.5595197677612305 0.16585642099380493 2070922 0 -1
-1.79643976688385 2.5077972412109375 0.21324396133422852 2006409 0 -1
-1.77070951461792 2.5215818881988525 0.2606315016746521 2072968 0 -1
-1.7973403930664062 2.50905442237854 0.18955019116401672 3651704 0 -1
-1.7994047403335571 2.5119364261627197 0.11846886575222015 4045940 0 -1
-1.7765634059906006 2.5299181938171387 0.07108131796121597 4505456 0 -1
-1.7943190336227417 2.5048367977142334 0.2606315016746521 6343264 0 -1
-1.8190568685531616 2.4892988204956055 0.2369377315044403 13164576 0 -1
-1.8002941608428955 2.5131778717041016 0.4549204409122467 4456788 0 -1
-1.7904592752456665 2.54970645904541 0.23943181335926056 4456788 0 -1
-1.826005220413208 2.498807430267334 0.4309772551059723 4456788 0 -1
-1.7651128768920898 2.5136120319366455 0.5746363401412964 4456788 0 -1
-1.8382047414779663 2.5155019760131836 0.23943181335926056 4456788 0 -1
-1.7427136898040771 2.582575559616089 0.23943181335926056 4456788 0 -1
-1.7416325807571411 2.5809736251831055 0.2633749842643738 4456788 0 -1
-1.7404478788375854 2.5792179107666016 0.2873181700706482 4523353 0 -1
-1.739159107208252 2.577308177947998 0.3112613558769226 4590430 0 -1
-1.7440632581710815 2.533585548400879 0.550693154335022 3302798 0 -1
-1.7881313562393188 2.546391487121582 0.2873181700706482 2718350 0 -1
-1.837064504623413 2.513941764831543 0.2633749842643738 2070922 0 -1
-1.7188408374786377 2.598525285720825 0.23943181335926056 2070922 0 -1
-1.8143320083618164 2.5327744483947754 0.23943181335926056 2006409 0 -1
-1.7881313562393188 2.546391487121582 0.2873181700706482 2072968 0 -1
-1.7453361749649048 2.5864620208740234 0.1676022708415985 2139270 0 -1
-1.837064504623413 2.513941764831543 0.2633749842643738 3651704 0 -1
-1.8183457851409912 2.5383777618408203 0.11971590667963028 4045940 0 -1
-1.819047212600708 2.5393569469451904 0.459659218788147 4456788 0 -1
-1.8949304819107056 2.4917151927948 0.4112740159034729 4456788 0 -1
-1.805419921875 2.5710113048553467 0.31450366973876953 4456788 0 -1
-1.8469575643539429 2.527479887008667 0.4112740159034729 4456788 0 -1
-1.8908517360687256 2.48635196685791 0.459659218788147 4456788 0 -1
-1.778387427330017 2.5834479331970215 0.3628888428211212 4456788 0 -1
-1.7799209356307983 2.5856757164001465 0.33869627118110657 4456788 0 -1
-1.7860444784164429 2.54341983795166 0.5564295649528503 4456788 0 -1
-1.7407851219177246 2.5797176361083984 0.5322369933128357 4456788 0 -1
-1.7635167837142944 2.6134042739868164 0.16934813559055328 4456788 0 -1
-1.8210647106170654 2.542173385620117 0.43546661734580994 4456788 0 -1
-1.706290602684021 2.631622552871704 0.3628888428211212 4456788 0 -1
-1.8308478593826294 2.555830240249634 0.2903110682964325 4456788 0 -1
-1.7367454767227173 2.6255931854248047 0.2419258952140808 4456788 0 -1
-1.7597745656967163 2.607858657836914 0.26611849665641785 4456788 0 -1
-1.7572753429412842 2.6041550636291504 0.31450366973876953 4523353 0 -1
-1.7543550729751587 2.599827527999878 0.3628888428211212 4590430 0 -1
-1.800756573677063 2.564370632171631 0.38708144426345825 4471684 0 -1
-1.788477897644043 2.5468850135803223 0.5322369933128357 3562893 0 -1
-1.7306569814682007 2.5647084712982178 0.6290073394775391 3302798 0 -1
-1.7096084356307983 2.5845677852630615 0.6048147678375244 2782862 0 -1
-1.781347632408142 2.5877482891082764 0.31450366973876953 2134668 0 -1
-1.805419921875 2.5710113048553467 0.31450366973876953 2006409 0 -1
-1.7799209356307983 2.5856757164001465 0.33869627118110657 2072968 0 -1
-1.9308611154556274 2.538961887359619 0.024441998451948166 4456788 0 -1
-1.9213142395019531 2.5264081954956055 0.31774598360061646 4456788 0 -1
-1.9032846689224243 2.5027005672454834 0.537723958492279 4456788 0 -1
-1.7914217710494995 2.6023828983306885 0.4399559497833252 4456788 0 -1
-1.7752119302749634 2.5788350105285645 0.6110499501228333 4456788 0 -1
-1.8922109603881836 2.4881393909454346 0.6354919672012329 4456788 0 -1
-1.823190689086914 2.5451409816741943 0.6110499501228333 4456788 0 -1
-1.7346391677856445 2.6224091053009033 0.537723958492279 4456788 0 -1
-1.9019371271133423 2.551351547241211 0.2199779748916626 4456788 0 -1
-1.7753915786743164 2.6310019493103027 0.31774598360061646 4456788 0 -1
-1.7800180912017822 2.6378579139709473 0.2199779748916626 4456788 0 -1
-1.8266266584396362 2.601210832595825 0.2688619792461395 4456788 0 -1
-1.8266266584396362 2.601210832595825 0.2688619792461395 4456788 0 -1
-1.7753915786743164 2.6310019493103027 0.31774598360061646 4456788 0 -1
-1.8266266584396362 2.601210832595825 0.2688619792461395 4523353 0 -1
-1.7967212200164795 2.610081434249878 0.366629958152771 4590430 0 -1
-1.8902320861816406 2.5356497764587402 0.4155139625072479 4600703 0 -1
-1.7752119302749634 2.5788350105285645 0.6110499501228333 3562893 0 -1
-1.7456635236740112 2.586947202682495 0.6599339246749878 3302798 0 -1
-1.7262823581695557 2.558225631713867 0.8065859079360962 2977934 0 -1
-1.7427164316177368 2.5825798511505127 0.6843759417533875 2782862 0 -1
-1.702634572982788 2.5740249156951904 0.8065859079360962 2718350 0 -1
-1.7967212200164795 2.610081434249878 0.366629958152771 2588302 0 -1
-1.8225716352462769 2.5954363346099854 0.3421879708766937 2006409 0 -1
-1.9503920078277588 2.564643621444702 0.04938281327486038 4456788 0 -1
-1.899842381477356 2.5998504161834717 0.12345702946186066 4456788 0 -1
-1.9003450870513916 2.6005382537841797 0.09876562654972076 4456788 0 -1
-1.839582920074463 2.619661331176758 0.37037110328674316 4456788 0 -1
-1.9131662845611572 2.5664148330688477 0.37037110328674316 4600703 0 -1
-1.813380479812622 2.634282112121582 0.39506250619888306 4600703 0 -1
-1.9187768697738647 2.473109722137451 -0.7654336094856262 4536450 0 -1
-1.7876336574554443 2.596879720687866 0.6666679382324219 4536450 0 -1
-1.9202674627304077 2.5759408473968506 0.2469140589237213 3887499 0 -1
-1.7876336574554443 2.596879720687866 0.6666679382324219 3562893 0 -1
-1.7604992389678955 2.6089327335357666 0.6913593411445618 3302798 0 -1
-1.7840173244476318 2.5405328273773193 0.8641992211341858 2977934 0 -1
-1.7953240871429443 2.5566344261169434 0.7901250123977661 2912910 0 -1
-1.7474488019943237 2.589592695236206 0.7901250123977661 2782862 0 -1
-1.7402292490005493 2.5788938999176025 0.8395078182220459 2718350 0 -1
-1.7604992389678955 2.6089327335357666 0.6913593411445618 2588302 0 -1
-1.7061432600021362 2.6313953399658203 0.7407422065734863 2070922 0 -1
-1.9199352264404297 2.6273465156555176 0.07482244074344635 4456788 0 -1
-1.8946113586425781 2.644843101501465 0.09976325929164886 4456788 0 -1
-1.8059663772583008 2.571789503097534 0.847987711429596 2977934 0 -1
-1.8097732067108154 2.5772106647491455 0.823046863079071 2912910 0 -1
-1.7299561500549316 2.6153292655944824 0.8729285001754761 2782862 0 -1
-1.8204686641693115 2.5924415588378906 0.7482244372367859 2718350 0 -1
-1.642278790473938 2.636568069458008 0.9726917743682861 2718350 0 -1
-1.8631746768951416 2.6009578704833984 0.5985795259475708 2588302 0 -1
-1.853319764137268 2.6923015117645264 -0.3526630997657776 2782862 0 -1
-1.755384087562561 2.7073395252227783 0.6297555565834045 2782862 0 -1
2.867551565170288 1.5980325937271118 -0.1763315498828888 2782862 0 -1
2.970263957977295 1.4033252000808716 0.1259511113166809 2782862 0 -1
-2.388796806335449 2.300668954849243 -0.152637779712677 4456788 0 -1
-1.7794667482376099 2.8000078201293945 -0.12719815969467163 4456788 0 -1
-1.908217430114746 2.66383695602417 -0.5342322587966919 4456788 0 -1
-1.9911398887634277 2.566378116607666 -0.6868700385093689 4456788 0 -1
-1.8504846096038818 2.7422845363616943 -0.27983593940734863 4456788 0 -1
-1.729691743850708 2.833425998687744 -0.05087926238775253 4456788 0 -1
-1.8580012321472168 2.6991021633148193 -0.5342322587966919 4456788 0 -1
-2.6335818767547607 1.8390753269195557 -0.8395078182220459 4456788 0 -1
-2.8303563594818115 1.692983865737915 -0.3815944492816925 4456788 0 -1
-1.8912080526351929 2.5880346298217773 -0.8649474382400513 4456788 0 -1
-1.9065715074539185 2.7150564193725586 0.12719815969467163 4523353 0 -1
-1.8645751476287842 2.551588773727417 1.017585277557373 4590430 0 -1
-1.7692102193832397 2.8403480052948 -0.20551231503486633 4456788 0 -1
-2.0283427238464355 2.6143288612365723 -0.539469838142395 4456788 0 -1
-1.87177312374115 2.7738325595855713 -0.20551231503486633 4456788 0 -1
-1.944320797920227 2.660717010498047 -0.6165369153022766 4456788 0 -1
-2.670055627822876 1.8645455837249756 -0.796360194683075 4456788 0 -1
-1.7939516305923462 2.8228001594543457 -0.23120135068893433 4456788 0 -1
-1.9139095544815063 2.725506067276001 -0.3853355646133423 4456788 0 -1
-1.7706693410873413 2.8426904678344727 -0.15413422882556915 4456788 0 -1
-2.6751182079315186 1.868080735206604 -0.7706711292266846 4456788 0 -1
-1.7948509454727173 2.8242151737213135 -0.20551231503486633 4456788 0 -1
-2.6648170948028564 1.8608874082565308 -0.8220492601394653 4456788 0 -1
-1.791833758354187 2.819467544555664 -0.2825794219970703 4456788 0 -1
-2.849674701690674 1.7045392990112305 0.46240270137786865 4456788 0 -1
-2.6095597743988037 1.8223001956939697 -1.0532505512237549 4456788 0 -1
-1.8915340900421143 2.7478151321411133 -0.3339574933052063 4456788 0 -1
-1.8452074527740479 2.789564847946167 -0.23120135068893433 4456788 0 -1
-1.9246406555175781 2.7407877445220947 0.15413422882556915 4523353 0 -1
-1.7929459810256958 2.8212175369262695 -0.2568903863430023 4523353 0 -1
-2.7270994186401367 1.8500616550445557 -0.6165369153022766 4590430 0 -1
-1.781046748161316 2.8024940490722656 -0.46240270137786865 4724328 0 -1
-1.8133968114852905 2.7968130111694336 -0.3596465289592743 4600703 0 -1
-1.8174314498901367 2.8030357360839844 -0.2825794219970703 4147337 0 -1
-2.7309908866882324 1.8527017831802368 0.590847909450531 3562893 0 -1
-1.7717108726501465 2.844362497329712 -0.10275615751743317 3562893 0 -1
-2.705052375793457 1.835105061531067 0.744982123374939 3238030 0 -1
-1.8715343475341797 2.665161609649658 0.796360194683075 10016830 0 -1
-1.785491943359375 2.8664870262145996 -0.23344601690769196 4456788 0 -1
-2.8013522624969482 1.9004348516464233 0 4456788 0 -1
-2.667731761932373 1.8629227876663208 -0.9337840676307678 4456788 0 -1
-2.571744441986084 2.1565988063812256 -0.4409535825252533 4456788 0 -1
-2.0249321460723877 2.6626594066619873 -0.5187689065933228 4456788 0 -1
-1.9431105852127075 2.7125470638275146 -0.570645809173584 4456788 0 -1
-2.701090097427368 1.886217474937439 -0.7781534194946289 4456788 0 -1
-1.81035315990448 2.8486080169677734 -0.2593844532966614 4456788 0 -1
-1.9324911832809448 2.751967430114746 -0.38907670974731445 4456788 0 -1
-1.7884387969970703 2.871218204498291 -0.1296922266483307 4456788 0 -1
-2.7060248851776123 1.889663577079773 -0.7522149682044983 4456788 0 -1
-1.8122767210006714 2.8516347408294678 -0.20750758051872253 4456788 0 -1
-2.67374324798584 1.8671207427978516 -0.9078456163406372 4456788 0 -1
-1.8079994916915894 2.8449044227600098 -0.3112613558769226 4456788 0 -1
-2.8883421421051025 1.7276681661605835 0.36313825845718384 4456788 0 -1
-2.6551568508148193 1.8541415929794312 -0.985660970211029 4456788 0 -1
-1.9083689451217651 2.772270917892456 -0.36313825845718384 4456788 0 -1
-1.8620775938034058 2.8150689601898193 -0.2593844532966614 4456788 0 -1
-1.81035315990448 2.8486080169677734 -0.2593844532966614 4523353 0 -1
-2.7407455444335938 1.8593192100524902 -0.7003380656242371 4590430 0 -1
-2.789484977722168 1.8923840522766113 0.3112613558769226 4724328 0 -1
-1.9439553022384644 2.7682926654815674 -0.1296922266483307 4724328 0 -1
-1.8052138090133667 2.8405210971832275 -0.36313825845718384 4724328 0 -1
-1.8362153768539429 2.8320062160491943 -0.2593844532966614 4600703 0 -1
-2.889098644256592 1.6693410873413086 0.570645809173584 4471684 0 -1
-2.7158355712890625 1.8424204587936401 -0.8300303220748901 4147337 0 -1
-1.8396823406219482 2.837353467941284 -0.1556306779384613 4147337 0 -1
-2.7612624168395996 1.87323796749115 0.570645809173584 3562893 0 -1
-1.78786039352417 2.8702893257141113 -0.1556306779384613 3562893 0 -1
-2.7313148975372314 1.8529216051101685 0.7522149682044983 3238030 0 -1
-1.8932874202728271 2.696139335632324 0.7781534194946289 10016830 0 -1
-1.9213898181915283 2.7911860942840576 -0.4451935291290283 4456788 0 -1
-1.754380226135254 2.932586431503296 -0.052375711500644684 4456788 0 -1
-2.0702812671661377 2.6683833599090576 -0.5237571001052856 4456788 0 -1
-1.9510728120803833 2.778428554534912 -0.39281782507896423 4456788 0 -1
-2.7499094009399414 1.8106751441955566 -0.9165748953819275 4456788 0 -1
-2.0935745239257812 2.644836902618408 -0.5499449372291565 4456788 0 -1
-1.9431629180908203 2.767164468765259 -0.4975692331790924 4456788 0 -1
-1.805051326751709 2.897888422012329 -0.15712712705135345 4456788 0 -1
-2.7419495582580566 1.8601360321044922 -0.8380113840103149 4456788 0 -1
-2.929938316345215 1.7525490522384644 0.15712712705135345 4456788 0 -1
-1.8799822330474854 2.842137098312378 -0.2618785500526428 4456788 0 -1
-2.8684606552124023 1.8313474655151367 0.3142542541027069 4590430 0 -1
-1.963166356086731 2.7956504821777344 0.10475142300128937 4657508 0 -1
-1.99004328250885 2.778064250946045 -0.052375711500644684 4729209 0 -1
-1.8999032974243164 2.872253656387329 -0.21149811148643494 4456788 0 -1
-2.9975552558898926 2.392547130584717 0.20601113140583038 4456788 0 -1
-3.001523971557617 2.39571475982666 0.05886032059788704 4456788 0 -1
-2.898214817047119 2.3132572174072266 -1.000625491142273 4523353 0 -1
-2.993051052093506 2.3889520168304443 0.2943015992641449 4590430 0 -1
-3.001523971557617 2.39571475982666 0.05886032059788704 4724328 0 -1
3.331430435180664 1.6463323831558228 -0.9711952805519104 4017546 0 -1
-3.0309505462646484 2.358375310897827 0.05886032059788704 3887499 0 -1
-2.833857297897339 2.550769090652466 0.6826300621032715 4456788 0 -1
-2.878833770751953 2.591252565383911 0.029679568484425545 4456788 0 -1
-2.907231330871582 2.5567686557769775 0.11871827393770218 4456788 0 -1
-3.016543388366699 2.407702922821045 0.32647526264190674 4456788 0 -1
-2.9078292846679688 2.5572946071624756 0.08903870731592178 4456788 0 -1
-3.020108938217163 2.410548686981201 0.26711612939834595 4456788 0 -1
-3.020108938217163 2.410548686981201 0.26711612939834595 4456788 0 -1
-3.036736488342285 2.362877130508423 0.4451935291290283 4456788 0 -1
-2.894131660461426 2.54524827003479 0.38583439588546753 4456788 0 -1
-2.9849376678466797 2.4426329135894775 0.35615482926368713 4456788 0 -1
-3.0244250297546387 2.353297710418701 0.5639117956161499 4523353 0 -1
-3.049717903137207 2.3729779720306396 0.26711612939834595 4590430 0 -1
-2.86867356300354 2.5821075439453125 0.32647526264190674 4725613 0 -1
-2.8482449054718018 2.5637195110321045 0.5639117956161499 4600703 0 -1
-2.86867356300354 2.5821075439453125 0.32647526264190674 2072968 0 -1
-2.8645997047424316 2.5784404277801514 0.38583439588546753 2468738 0 -1
-2.874244451522827 2.5277585983276367 0.7781534194946289 4456788 0 -1
-3.049527645111084 2.4340298175811768 0.17957386374473572 4456788 0 -1
-3.0696253776550293 2.388468027114868 0.35914772748947144 4456788 0 -1
-2.93166184425354 2.578254222869873 0.11971590667963028 4456788 0 -1
-2.93166184425354 2.578254222869873 0.11971590667963028 4456788 0 -1
-3.0696253776550293 2.388468027114868 0.35914772748947144 4456788 0 -1
-2.93166184425354 2.578254222869873 0.11971590667963028 4456788 0 -1
-3.0782470703125 2.395176649093628 -0.20950284600257874 4456788 0 -1
-2.8983936309814453 2.548996686935425 0.5985795259475708 4456788 0 -1
-3.0622551441192627 2.3827333450317383 0.4489346444606781 4456788 0 -1
-2.918452024459839 2.566636800765991 0.38907670974731445 4456788 0 -1
-3.0622551441192627 2.3827333450317383 0.4489346444606781 4456788 0 -1
-2.918452024459839 2.566636800765991 0.38907670974731445 4456788 0 -1
-3.0053834915161133 2.459364175796509 0.41900569200515747 4456788 0 -1
-3.0498404502868652 2.3730733394622803 0.5686505436897278 4523353 0 -1
-2.913602113723755 2.5623714923858643 0.4489346444606781 4523353 0 -1
-3.0717151165008545 2.390094041824341 0.3292187452316284 4590430 0 -1
-2.8597099781036377 2.5149762630462646 -0.8679403066635132 4590430 0 -1
-3.1977906227111816 2.23307204246521 -0.20950284600257874 2468738 0 -1
-2.918452024459839 2.566636800765991 0.38907670974731445 2468738 0 -1
-2.971898317337036 2.3720686435699463 -1.0260651111602783 4456788 0 -1
-3.0904366970062256 2.404661178588867 0.42249739170074463 4456788 0 -1
-2.935171365737915 2.581340789794922 0.4828541576862335 4456788 0 -1
-3.0877740383148193 2.4025893211364746 0.45267578959465027 4456788 0 -1
-3.092913866043091 2.4065887928009033 0.392318993806839 4456788 0 -1
-3.030428409576416 2.479858875274658 0.42249739170074463 4456788 0 -1
-3.057795524597168 2.440629005432129 0.45267578959465027 4523353 0 -1
-3.0786664485931396 2.395502805709839 0.5432109236717224 4590430 0 -1
-2.959106683731079 2.5417139530181885 0.5432109236717224 4590430 0 -1
-3.0904366970062256 2.404661178588867 0.42249739170074463 4724328 0 -1
-2.9292166233062744 2.576103925704956 0.5432109236717224 4724328 0 -1
-3.0716564655303955 2.3900485038757324 0.6035677194595337 4725613 0 -1
-2.953425168991089 2.5973939895629883 0.5477002859115601 4456788 0 -1
-2.7815237045288086 2.7384278774261475 0.7302670478820801 4456788 0 -1
-3.113292932510376 2.42244553565979 0.45641690492630005 4456788 0 -1
-2.9166319370269775 2.625274896621704 0.6085558533668518 4456788 0 -1
-3.1184751987457275 2.4264779090881348 0.3955613076686859 4456788 0 -1
-2.913034677505493 2.622037172317505 0.6389836668968201 4456788 0 -1
-2.777379274368286 2.7343478202819824 0.7606948614120483 4456788 0 -1
-3.047022581100464 2.493438243865967 0.5172724723815918 4456788 0 -1
-2.841341257095337 2.6763110160827637 0.7302670478820801 4456788 0 -1
-3.1104202270507812 2.420210361480713 0.4868446886539459 4523353 0 -1
-2.943066120147705 2.5882837772369385 0.6389836668968201 4523353 0 -1
-2.777379274368286 2.7343478202819824 0.7606948614120483 4523353 0 -1
-2.8876407146453857 2.599179983139038 0.8215504288673401 4590430 0 -1
-2.777379274368286 2.7343478202819824 0.7606948614120483 4590430 0 -1
-2.9200494289398193 2.6283512115478516 0.5781280994415283 4724328 0 -1
-2.912485122680664 2.561389207839966 0.8519781827926636 4471684 0 -1
-3.152742624282837 2.3900835514068604 0.6135440468788147 4456788 0 -1
-3.169285535812378 2.4026246070861816 0.46015802025794983 4456788 0 -1
-3.0568037033081055 2.56335711479187 -0.33744922280311584 4456788 0 -1
-3.0473899841308594 2.5554628372192383 -0.46015802025794983 4456788 0 -1
-3.0800981521606445 2.458430290222168 0.7055756449699402 4456788 0 -1
-2.8661458492279053 2.6394975185394287 0.9203160405158997 4456788 0 -1
-3.136017084121704 2.377403974533081 0.7362528443336487 4523353 0 -1
-2.8789870738983154 2.59139084815979 1.01234769821167 4523353 0 -1
-3.0111663341522217 2.586430311203003 0.5215124487876892 4724328 0 -1
-2.965099573135376 2.668900966644287 0.33744922280311584 4725613 0 -1
-2.9807991981506348 2.5603466033935547 0.7669300436973572 4471684 0 -1
-3.141605854034424 2.1938371658325195 -1.2679909467697144 4456788 0 -1
-3.083568572998047 2.585801362991333 -0.3092660903930664 4456788 0 -1
-2.472966432571411 3.187403917312622 0.12370643764734268 4456788 0 -1
-3.0721654891967773 2.5762388706207275 -0.4638991355895996 4456788 0 -1
-2.9063332080841064 2.799112319946289 -0.09277983009815216 4456788 0 -1
-3.046506404876709 2.616785764694214 -0.40204593539237976 4456788 0 -1
-2.8849399089813232 2.5371644496917725 1.2370643615722656 4523353 0 -1
-2.4852726459503174 2.955115556716919 1.1752111911773682 4471684 0 -1
-2.363805055618286 3.1082561016082764 1.020578145980835 4471684 0 -1
-3.0703155994415283 2.5124993324279785 0.7422386407852173 3887499 0 -1
-2.413684844970703 2.9885144233703613 -1.3405687808990479 4456788 0 -1
-3.071075201034546 2.6378886699676514 -0.4052882194519043 4456788 0 -1
-3.3589940071105957 2.278738498687744 0.2805841565132141 4456788 0 -1
-2.462616205215454 3.2381865978240967 0.06235203519463539 4456788 0 -1
-3.1723833084106445 2.5320889949798584 -0.2805841565132141 4456788 0 -1
-2.5252573490142822 3.1901869773864746 0 4456788 0 -1
-2.3690991401672363 3.3072192668914795 -0.06235203519463539 4456788 0 -1
-3.271078586578369 2.414531946182251 -0.15588009357452393 4456788 0 -1
-2.3557047843933105 3.2885212898254395 0.43646425008773804 4017546 0 -1
-3.042306900024414 2.6755611896514893 0.37411221861839294 3887499 0 -1
-2.3557047843933105 3.2885212898254395 0.43646425008773804 3692940 0 -1
-2.336198091506958 3.196984052658081 1.0684645175933838 4456788 0 -1
-2.275517702102661 3.240454912185669 1.0684645175933838 4456788 0 -1
-3.0280649662017822 2.725576400756836 0.47138139605522156 4456788 0 -1
-2.314911365509033 3.167853832244873 1.1941661834716797 4456788 0 -1
-2.2602014541625977 3.2186439037323 1.162740707397461 4456788 0 -1
-3.195969820022583 2.550915002822876 -0.3142542541027069 4456788 0 -1
-2.5453848838806152 3.215614080429077 -0.03142542764544487 4456788 0 -1
-3.2879281044006348 2.426969289779663 -0.3456796705722809 4456788 0 -1
-2.4950690269470215 3.2158918380737305 -0.5028068423271179 4523353 0 -1
-2.4588820934295654 3.2332763671875 0.5656576752662659 4017546 0 -1
-2.343306303024292 3.336989402770996 0.4399559497833252 4017546 0 -1
-3.061920404434204 2.692810297012329 0.4399559497833252 3887499 0 -1
-2.3703155517578125 3.30891752243042 0.5028068423271179 3692940 0 -1
-2.3645083904266357 3.235725164413452 1.0135947465896606 4456788 0 -1
-2.288587808609009 3.2590672969818115 1.108619213104248 4456788 0 -1
-2.3191022872924805 3.237424612045288 1.108619213104248 4456788 0 -1
-2.278139591217041 3.2441885471343994 1.1719688177108765 4456788 0 -1
-3.325467109680176 2.454678535461426 -0.06334967166185379 4456788 0 -1
-3.3117682933807373 2.4445669651031494 -0.38009801506996155 4456788 0 -1
-2.4907703399658203 3.2103514671325684 0.7601960301399231 4523353 0 -1
-3.06368350982666 2.6943609714508057 0.6651715040206909 4664956 0 -1
-2.4205634593963623 3.312434196472168 0.5067973732948303 4664956 0 -1
-2.4352800846099854 3.266803741455078 0.6968463659286499 4017546 0 -1
-2.254444122314453 3.2750113010406494 1.2450454235076904 4456788 0 -1
-2.422988176345825 3.3157522678375244 0.7023333311080933 4725613 0 -1
-3.123167037963867 2.6826329231262207 0.6384848356246948 4664956 0 -1
-2.434673547744751 3.3317432403564453 0.5746363401412964 4664956 0 -1
-3.2032933235168457 2.949984073638916 1.101386308670044 4523353 0 -1
-3.266523838043213 2.9402143955230713 1.0746996402740479 4523353 0 -1
-4.527514457702637 2.5230987071990967 0.9696988463401794 4456788 0 -1
4.963639736175537 1.3394343852996826 1.1717194318771362 4456788 0 -1
-4.388524055480957 2.535719394683838 -1.4545482397079468 4456788 0 -1
-3.627713680267334 3.8094871044158936 0.3636370599269867 4523353 0 -1
-3.212125062942505 4.057914733886719 1.0101029872894287 4523353 0 -1
-4.89633846282959 1.4693288803100586 1.2929317951202393 4590430 0 -1
-4.199504852294922 2.932586193084717 1.2525277137756348 4590430 0 -1
-3.115222215652466 3.9354963302612305 1.6161648035049438 4590430 0 -1
-4.575544357299805 2.5498650074005127 0.6060617566108704 4724328 0 -1
-4.017914295196533 3.126329183578491 1.3737400770187378 4724328 0 -1
-3.3622355461120605 4.079761028289795 0.4471887946128845 4456788 0 -1
-4.0525007247924805 3.3162405490875244 -0.8537240624427795 4456788 0 -1
-3.454636812210083 4.024880886077881 0.1219605803489685 4456788 0 -1
-3.3738465309143066 4.0938496589660645 -0.081307053565979 4456788 0 -1
-4.593848705291748 2.6543571949005127 0 4456788 0 -1
-3.4936366081237793 3.9877617359161377 -0.2032676339149475 4523353 0 -1
-4.504683494567871 2.694486379623413 -0.7724170088768005 4657508 0 -1
-4.243988037109375 3.132680892944336 -0.569149374961853 4657508 0 -1
-3.3320231437683105 4.125558853149414 -0.162614107131958 4657508 0 -1
4.854976177215576 1.9619941711425781 0.8537240624427795 4657508 0 -1
-3.948997974395752 3.311528205871582 1.2602593898773193 4724328 0 -1
4.9814910888671875 1.6348458528518677 0.81307053565979 4724328 0 -1
-3.839798927307129 3.61677622795105 -0.569149374961853 4725613 0 -1
-3.5568835735321045 3.9770987033843994 -0.1636117398738861 4456788 0 -1
-3.3122622966766357 4.18441915512085 0.12270880490541458 4456788 0 -1
0.04001800715923309 5.222475528717041 1.1043792963027954 4456788 0 -1
-2.4950058460235596 4.718980312347412 0.04090293496847153 4456788 0 -1
-3.3868613243103027 4.109642028808594 0.36812642216682434 4456788 0 -1
-4.106797695159912 3.277906894683838 -0.9407675266265869 4456788 0 -1
-3.6811561584472656 3.865607500076294 -0.04090293496847153 4456788 0 -1
-3.4358465671539307 4.0853962898254395 0 4456788 0 -1
-3.3933486938476562 4.117513656616211 -0.1636117398738861 4456788 0 -1
-3.433324098587036 4.082396984100342 0.20451468229293823 4456788 0 -1
-4.6220316886901855 2.6706416606903076 0 4456788 0 -1
-3.554792642593384 3.9747607707977295 0.24541760981082916 4456788 0 -1
-3.5150699615478516 4.012226581573486 -0.20451468229293823 4523353 0 -1
-3.5559427738189697 3.9760468006134033 -0.20451468229293823 4590430 0 -1
-4.1686320304870605 3.1602258682250977 -1.063476324081421 4724328 0 -1
5.091207504272461 1.5278065204620361 0.4908352196216583 4724328 0 -1
-3.8891539573669434 3.581608295440674 -0.7362528443336487 4725613 0 -1
-3.636512041091919 3.9001352787017822 -0.24541760981082916 4725613 0 -1
-4.953811168670654 1.3367822170257568 1.4725056886672974 4536450 0 -1
-4.0594377517700195 3.404139995574951 -0.6544469594955444 4536450 0 -1
-3.679534673690796 3.8639047145843506 -0.1636117398738861 4536450 0 -1
