VERSION .7
FIELDS x y z rgb label object
SIZE 4 4 4 4 4 4
TYPE F F F I I I
COUNT 1 1 1 1 1 1
WIDTH 689
HEIGHT 1
POINTS 689
VIEWPOINT 0 0 0 1 0 0 0
DATA ascii
-2.641087293624878 2.543652057647705 0.5686505436897278 4664956 0 -1
-2.808119058609009 2.4120235443115234 0.2558927536010742 4536450 0 -1
-2.9832236766815186 2.2020530700683594 -0.14216263592243195 4017546 0 -1
-2.7879185676574707 2.3946726322174072 0.5117855072021484 3887499 0 -1
-2.8008205890655518 2.405754566192627 0.3696228563785553 3107982 0 -1
-2.8993515968322754 2.314164400100708 -0.0852975845336914 3257723 0 -1
-2.6673765182495117 2.5689713954925537 0.5449568033218384 4456788 0 -1
-3.1504714488983154 2.011395215988159 -0.20077355206012726 4456788 0 -1
-2.9528515338897705 2.2976064682006836 0.11472774296998978 4456788 0 -1
-2.8274827003479004 2.4286558628082275 0.3441832363605499 4456788 0 -1
-2.8365092277526855 2.4364092350006104 0.17209161818027496 4456788 0 -1
-2.982133150100708 2.260745048522949 0.08604580909013748 4456788 0 -1
-2.8391783237457275 2.438701868057251 -0.05736387148499489 4456788 0 -1
-2.673130512237549 2.5745129585266113 0.4875929057598114 4456788 0 -1
-2.8294074535369873 2.430309295654297 0.31550130248069763 4456788 0 -1
-2.8274827003479004 2.4286558628082275 0.3441832363605499 4456788 0 -1
-2.8123741149902344 2.4156785011291504 0.5162748694419861 4456788 0 -1
-2.8206937313079834 2.4228246212005615 0.4302290380001068 4523353 0 -1
-2.7988758087158203 2.4040842056274414 0.6310026049613953 4590430 0 -1
-2.8206937313079834 2.4228246212005615 0.4302290380001068 4657508 0 -1
-2.981519937515259 2.260280132293701 0.11472774296998978 4664956 0 -1
-2.670335054397583 2.5718207359313965 0.5162748694419861 4664956 0 -1
-2.8311636447906494 2.4318177700042725 0.28681936860084534 4536450 0 -1
-2.98073148727417 2.2596824169158936 -0.14340968430042267 4017546 0 -1
-2.8206937313079834 2.4228246212005615 0.4302290380001068 4017546 0 -1
-2.8123741149902344 2.4156785011291504 0.5162748694419861 3887499 0 -1
-2.8231263160705566 2.4249141216278076 0.4015471041202545 3107982 0 -1
-2.6809563636779785 2.302797555923462 1.2333232164382935 12640037 0 -1
-2.8499577045440674 2.44796085357666 0.37610748410224915 4456788 0 -1
-3.123117208480835 2.1187198162078857 -0.11572537571191788 4456788 0 -1
-2.97774076461792 2.3169727325439453 0.1446567177772522 4456788 0 -1
-2.7635953426361084 2.5450563430786133 0.37610748410224915 4456788 0 -1
-2.8211703300476074 2.4810822010040283 0.37610748410224915 4456788 0 -1
-2.839799165725708 2.439235210418701 0.4918328523635864 4456788 0 -1
-2.845221519470215 2.44389271736145 0.4339701533317566 4456788 0 -1
-2.836829423904419 2.4366843700408936 0.520764172077179 4456788 0 -1
-2.839799165725708 2.439235210418701 0.4918328523635864 4523353 0 -1
-2.833686590194702 2.4339847564697266 0.5496955513954163 4590430 0 -1
-2.839799165725708 2.439235210418701 0.4918328523635864 4657508 0 -1
-2.9743244647979736 2.314314603805542 0.23145075142383575 4664956 0 -1
-2.8499577045440674 2.44796085357666 0.37610748410224915 4536450 0 -1
-2.8764395713806152 2.4121081829071045 0.40503883361816406 4017546 0 -1
-2.836829423904419 2.4366843700408936 0.520764172077179 3887499 0 -1
-2.992884874343872 2.328756332397461 0.35016903281211853 4456788 0 -1
-2.832383155822754 2.490943431854248 0.5252535343170166 4456788 0 -1
-2.992884874343872 2.328756332397461 0.35016903281211853 4456788 0 -1
-2.8612849712371826 2.4576902389526367 0.5252535343170166 4456788 0 -1
-2.985698938369751 2.323164939880371 0.43771129846572876 4523353 0 -1
-2.829245090484619 2.4881837368011475 0.5544342994689941 4523353 0 -1
-2.990668773651123 2.3270320892333984 0.37934979796409607 4590430 0 -1
-2.8581149578094482 2.454967498779297 0.5544342994689941 4590430 0 -1
-2.9882736206054688 2.3251683712005615 0.4085305333137512 4657508 0 -1
-2.7936480045318604 2.5145766735076904 0.6127958297729492 4657508 0 -1
-2.4557502269744873 2.9200119972229004 0.44145241379737854 4456788 0 -1
3.1960723400115967 1.9763020277023315 -0.794614315032959 4456788 0 -1
-3.2326576709747314 2.063866376876831 0.20601113140583038 4523353 0 -1
-2.4345734119415283 2.836439847946167 0.8829048275947571 4523353 0 -1
3.2110342979431152 1.9855538606643677 -0.7063238620758057 4523353 0 -1
-2.453484535217285 2.9173178672790527 0.4708825647830963 4590430 0 -1
3.2062501907348633 1.9825955629348755 -0.7357540130615234 4590430 0 -1
-3.516658306121826 1.5034794807434082 -0.35316193103790283 4657508 0 -1
-3.353461980819702 1.868821382522583 -0.11772064119577408 4657508 0 -1
-3.2357966899871826 2.065870523452759 0.11772064119577408 4657508 0 -1
-3.7342424392700195 1.0076825618743896 0.20775698125362396 4456788 0 -1
-2.744863748550415 2.527806043624878 -1.0387848615646362 4590430 0 -1
-3.0089662075042725 2.5232417583465576 -0.30178385972976685 4456788 0 -1
-2.5405242443084717 3.3406307697296143 0.1286945939064026 4456788 0 -1
-2.5410468578338623 3.341317892074585 0.09652095288038254 4590430 0 -1
-2.5611207485198975 3.3677139282226562 0.06484611332416534 4456788 0 -1
-3.705143928527832 3.41214919090271 1.6667946577072144 4456788 0 -1
4.886477470397949 1.974724531173706 0.6098029017448425 4456788 0 -1
-4.1543097496032715 3.0664849281311035 1.219605803489685 4456788 0 -1
-4.530549049377441 2.709958076477051 -0.5284958481788635 4456788 0 -1
-4.474093437194824 2.766570568084717 0.6911099553108215 4725613 0 -1
-3.868546724319458 3.322874069213867 1.463526964187622 4725613 0 -1
0.12190328538417816 5.3016743659973145 -0.162614107131958 4729209 0 -1
4.906887054443359 1.8641047477722168 0.7724170088768005 4341894 0 -1
0.835959255695343 5.127468109130859 -1.2270880937576294 4456788 0 -1
-4.00091552734375 3.1933953762054443 1.5134086608886719 4456788 0 -1
4.8907928466796875 1.976468563079834 0.8180587291717529 4456788 0 -1
4.8907928466796875 1.976468563079834 0.8180587291717529 4456788 0 -1
-3.940455675125122 3.3043646812438965 1.4316027164459229 4456788 0 -1
4.790136337280273 2.26313853263855 0.6544469594955444 4456788 0 -1
-4.53231954574585 2.711016893386841 -0.7771557569503784 4456788 0 -1
-4.20189094543457 3.101606845855713 1.1043792963027954 4725613 0 -1
-3.8440167903900146 3.3806262016296387 1.5134086608886719 4725613 0 -1
-3.382068634033203 4.021451473236084 0.9407675266265869 4725613 0 -1
-4.342177391052246 2.9457292556762695 0.9816704392433167 4729209 0 -1
2.0009002685546875 4.824131965637207 1.1043792963027954 4729209 0 -1
4.8713250160217285 2.082641124725342 0.6544469594955444 4729209 0 -1
-5.03609561920166 1.1916550397872925 1.3088939189910889 4341894 0 -1
-4.737507343292236 1.7997580766677856 1.6770203113555908 4341894 0 -1
4.911919593811035 1.9850062131881714 0.6544469594955444 4341894 0 -1
-4.079364776611328 3.092552661895752 1.5134086608886719 3302798 0 -1
-3.9130637645721436 3.2813947200775146 1.5543115139007568 3302798 0 -1
5.032840251922607 1.510291337966919 0.9407675266265869 3302798 0 -1
-4.451385021209717 2.841953992843628 0.7771557569503784 3238030 0 -1
4.802541255950928 2.2689993381500244 0.5317381620407104 3238030 0 -1
-4.96959114074707 1.1759185791015625 1.5543115139007568 3238030 0 -1
-0.42975690960884094 5.080608367919922 -1.6872460842132568 4456788 0 -1
2.091301202774048 4.926013946533203 -0.45267578959465027 4456788 0 -1
-4.157350063323975 3.151672840118408 1.275722622871399 4456788 0 -1
5.0363945960998535 1.6528642177581787 0.8641992211341858 4456788 0 -1
-3.72131609916687 3.5051751136779785 1.646093726158142 4456788 0 -1
4.855403900146484 2.186251640319824 0.6995898485183716 4456788 0 -1
-4.528990268707275 2.800516366958618 -0.6995898485183716 4456788 0 -1
-4.045003890991211 3.1474077701568604 1.6049413681030273 4724328 0 -1
-4.57429313659668 2.736123561859131 0.6584374904632568 4725613 0 -1
-4.274705410003662 3.0702028274536133 1.0699609518051147 4725613 0 -1
4.762307167053223 2.455061197280884 0.37037110328674316 4725613 0 -1
4.995778560638428 1.7718430757522583 0.8641992211341858 4725613 0 -1
-3.9664602279663086 3.2458319664001465 1.6049413681030273 4729209 0 -1
-4.5104875564575195 2.7890751361846924 1.0350438356399536 4456788 0 -1
-4.089410305023193 3.181959867477417 1.5318647623062134 4456788 0 -1
5.04583215713501 1.5141899585723877 1.2006508111953735 4456788 0 -1
-4.5761260986328125 2.829663038253784 -0.49682101607322693 4456788 0 -1
-4.108165264129639 3.1965532302856445 1.4490612745285034 4724328 0 -1
-3.940915107727051 3.3047502040863037 1.6560701131820679 4725613 0 -1
-3.2846176624298096 4.066863536834717 1.3662577867507935 4725613 0 -1
-4.24595308303833 3.1341311931610107 1.1592490673065186 4728182 0 -1
-3.674452543258667 3.5388941764831543 1.7802753448486328 4729209 0 -1
2.900739908218384 4.213879585266113 1.7388736009597778 4729209 0 -1
5.032262325286865 1.7847826480865479 0.8280350565910339 4729209 0 -1
-4.089410305023193 3.181959867477417 1.5318647623062134 4341894 0 -1
-3.042261838912964 4.163200855255127 1.6146682500839233 4341894 0 -1
-2.246321678161621 4.626686096191406 -1.6560701131820679 4341894 0 -1
-4.541309833526611 2.808134078979492 0.8280350565910339 3302798 0 -1
-4.182546138763428 3.170773983001709 1.2834542989730835 3302798 0 -1
5.144266128540039 1.2172505855560303 1.1178473234176636 3302798 0 -1
-5.1574482917785645 1.220369815826416 1.207883596420288 4456788 0 -1
-4.19948673248291 3.1836166381835938 1.3328371047973633 4456788 0 -1
-4.19948673248291 3.1836166381835938 1.3328371047973633 4456788 0 -1
-4.616623401641846 2.8547046184539795 0.2915581166744232 4456788 0 -1
-4.568666934967041 2.8250505924224854 0.833023190498352 4725613 0 -1
-4.153987407684326 3.1491236686706543 1.541092872619629 4725613 0 -1
-3.3765435218811035 4.097122669219971 1.1662324666976929 4725613 0 -1
-4.278754711151123 3.158343553543091 1.1245813369750977 4728182 0 -1
5.001771926879883 2.02131724357605 0.6664185523986816 4728182 0 -1
-4.975545883178711 1.63289475440979 1.4577906131744385 4729209 0 -1
5.001771926879883 2.02131724357605 0.6664185523986816 4729209 0 -1
-4.697642803192139 2.617908000946045 0.7913720607757568 4341894 0 -1
-4.280246257781982 3.0741822719573975 1.3328371047973633 4341894 0 -1
-4.692144393920898 2.6148440837860107 0.833023190498352 3302798 0 -1
-4.53281307220459 2.8939409255981445 0.7913720607757568 3302798 0 -1
5.077499866485596 1.3701595067977905 1.3744882345199585 3238030 0 -1
-5.138091087341309 1.3865100145339966 1.2570170164108276 4456788 0 -1
-4.058317184448242 3.321000576019287 1.5503209829330444 4456788 0 -1
-0.5025705695152283 5.442592620849609 -0.1676022708415985 4456788 4 -1
-4.240963935852051 3.215060234069824 1.2570170164108276 4456788 0 -1
-3.848132371902466 3.4637231826782227 1.7598237991333008 4456788 0 -1
5.051486015319824 1.9190372228622437 0.8380113840103149 4456788 0 -1
-5.247239112854004 1.0435932874679565 1.1313153505325317 4456788 0 -1
-4.647548198699951 2.8738272190093994 0.20950284600257874 4456788 0 -1
-5.14844274520874 1.2182389497756958 1.3827186822891235 4724328 0 -1
-4.038577556610107 3.304847240447998 1.6341221332550049 4724328 0 -1
-4.3180832862854 3.1873738765716553 1.0475142002105713 4728182 0 -1
5.031722545623779 2.033421039581299 0.670409083366394 4728182 0 -1
-4.322520732879639 3.1045451164245605 1.2570170164108276 4341894 0 -1
-0.041060637682676315 5.358541965484619 -1.0894147157669067 4341894 0 -1
4.096479892730713 3.6026551723480225 0.37710511684417725 4341894 0 -1
4.974496841430664 2.1267502307891846 0.7961108088493347 4341894 0 -1
-4.740631103515625 2.641864538192749 0.670409083366394 3302798 0 -1
-4.675212383270264 2.8909332752227783 0.21074987947940826 4456788 0 -1
-0.800755500793457 5.441617965698242 0.0842999517917633 2070922 4 -1
-0.800755500793457 5.441617965698242 0.0842999517917633 2006409 4 -1
-0.8006379008293152 5.440818786621094 0.12644992768764496 2468738 4 -1
-4.562662124633789 2.8213374614715576 -1.3567802906036377 4456788 0 -1
-0.8054937124252319 5.473816871643066 0.08479876816272736 2199437 4 -1
-0.8055646419525146 5.47429895401001 0.04239938408136368 2134668 4 -1
-0.8054937124252319 5.473816871643066 0.08479876816272736 2070155 4 -1
-0.8053754568099976 5.473012924194336 0.12719815969467163 2070922 4 -1
-0.8053754568099976 5.473012924194336 0.12719815969467163 2006409 4 -1
-0.8055646419525146 5.47429895401001 -0.04239938408136368 4505456 4 -1
-0.8053754568099976 5.473012924194336 -0.12719815969467163 5949540 4 -1
-0.8055646419525146 5.47429895401001 -0.04239938408136368 6343264 4 -1
-4.648172378540039 3.060584545135498 0.0852975845336914 4456788 0 -1
-0.6822003722190857 5.52251672744751 -0.1279463768005371 2199437 4 -1
-0.7250081896781921 5.518378734588623 0.0426487922668457 2134668 4 -1
-0.7675881385803223 5.512122631072998 0.0852975845336914 2006409 4 -1
-0.810303270816803 5.506500720977783 0.0426487922668457 2271109 4 -1
-0.8956246376037598 5.493433952331543 0 3257723 4 -1
-0.8529508113861084 5.500056266784668 0.0426487922668457 4505456 4 -1
-0.8529758453369141 5.500217437744141 0 5424489 4 -1
-0.8529758453369141 5.500217437744141 0 5949540 4 -1
-0.8529508113861084 5.500056266784668 0.0426487922668457 6343264 4 -1
-0.8528756499290466 5.499571800231934 0.0852975845336914 7589974 4 -1
-0.8527504801750183 5.4987640380859375 0.1279463768005371 8180304 4 -1
-0.8579639792442322 5.532382488250732 0 2588302 4 -1
-0.7292693853378296 5.5508131980896 0 2523534 4 -1
-0.7292693853378296 5.5508131980896 0 2328718 4 -1
-0.6863510608673096 5.556117534637451 -0.04289820045232773 2199437 4 -1
-0.6863510608673096 5.556117534637451 -0.04289820045232773 2134668 4 -1
-0.8579639792442322 5.532382488250732 0 2271109 4 -1
-0.8150418996810913 5.538702487945557 -0.04289820045232773 2468738 4 -1
-0.90062415599823 5.524099349975586 0.1286945939064026 2994813 4 -1
-0.9008357524871826 5.525397300720215 0.04289820045232773 3257723 4 -1
-0.8150418996810913 5.538702487945557 -0.04289820045232773 4505456 4 -1
-0.857938826084137 5.532220363616943 0.04289820045232773 5424489 4 -1
-0.857938826084137 5.532220363616943 0.04289820045232773 5949540 4 -1
-0.857938826084137 5.532220363616943 0.04289820045232773 6343264 4 -1
-0.8150658011436462 5.538865089416504 0 7589974 4 -1
-0.8577373027801514 5.530920505523682 0.1286945939064026 8180304 4 -1
-0.5997102856636047 5.558195114135742 0.3002873957157135 13164576 4 -1
-0.8627241253852844 5.563076972961426 0.12944282591342926 2588302 4 -1
-0.6903414726257324 5.588420391082764 0.04314760863780975 2588302 4 -1
-0.7764517068862915 5.575772762298584 0.12944282591342926 2523534 4 -1
-0.7765657305717468 5.576591491699219 0.0862952172756195 2328718 4 -1
-0.7333155274391174 5.581609725952148 0.12944282591342926 2264205 4 -1
-0.8189377188682556 5.565176963806152 0.2588856518268585 2139270 4 -1
-0.775196373462677 5.566758155822754 0.345180869102478 2271109 4 -1
-0.7758357524871826 5.571349143981934 0.2588856518268585 2468738 4 -1
-0.7760867476463318 5.5731520652771 -0.21573804318904877 4505456 4 -1
-0.732453465461731 5.575048446655273 0.3020332455635071 4899181 4 -1
-0.8628508448600769 5.563894271850586 0.0862952172756195 5424489 4 -1
-0.8628508448600769 5.563894271850586 0.0862952172756195 5949540 4 -1
-0.6898548603057861 5.584481716156006 0.21573804318904877 5949540 4 -1
-0.6898548603057861 5.584481716156006 0.21573804318904877 8705099 4 -1
-0.8195879459381104 5.569595813751221 0.12944282591342926 11918891 4 -1
-0.6040487885475159 5.598404884338379 0.04314760863780975 11918891 4 -1
-0.6036230325698853 5.594459056854248 0.21573804318904877 12640037 4 -1
-0.6508787870407104 5.625418663024902 0.08679403364658356 4471684 4 -1
-1.0404270887374878 5.561135292053223 0.2603820860385895 3562893 4 -1
-1.0404270887374878 5.561135292053223 0.2603820860385895 3432845 4 -1
-0.7809398770332336 5.608002662658691 0.13019104301929474 2523534 4 -1
-0.824325442314148 5.601789951324463 0.13019104301929474 2328718 4 -1
-0.8229926824569702 5.592733383178711 0.34717613458633423 2139270 4 -1
-0.7792866230010986 5.59613037109375 0.3905731439590454 2271109 4 -1
-0.7792866230010986 5.59613037109375 0.3905731439590454 2468738 4 -1
-0.7792866230010986 5.59613037109375 0.3905731439590454 2666112 4 -1
-0.7809398770332336 5.608002662658691 -0.13019104301929474 4505456 4 -1
-0.7803203463554382 5.603553771972656 0.2603820860385895 4899181 4 -1
-0.6471989154815674 5.593614101409912 0.6075582504272461 8180304 4 -1
-0.649041473865509 5.609539031982422 0.4339701533317566 8705099 4 -1
-0.21759052574634552 5.675246238708496 0.43646425008773804 4456788 0 -1
-0.7377075552940369 5.615039825439453 -0.6110499501228333 4726897 4 -1
-0.6962897181510925 5.636572360992432 -0.43646425008773804 4536450 4 -1
-0.6958577632904053 5.633075714111328 -0.48011067509651184 4471684 4 -1
-0.6966802477836609 5.639733791351318 -0.39281782507896423 4341894 4 -1
-1.0460063219070435 5.590956211090088 0.3055249750614166 3562893 4 -1
-1.045020341873169 5.585686683654785 0.39281782507896423 3432845 4 -1
-1.0024226903915405 5.598934650421143 0.3055249750614166 3107982 4 -1
-0.9592060446739197 5.608708381652832 0.2618785500526428 2328718 4 -1
-0.8703621029853821 5.612329006195068 0.43646425008773804 2139270 4 -1
-0.8263311386108398 5.615419864654541 0.48011067509651184 2271109 4 -1
-0.7837652564048767 5.628292083740234 0.39281782507896423 2468738 4 -1
-0.7405938506126404 5.6370086669921875 0.34917140007019043 2666112 4 -1
-0.6970295310020447 5.642560958862305 0.34917140007019043 2994813 4 -1
-0.6962897181510925 5.636572360992432 0.43646425008773804 3651704 4 -1
-0.8291847109794617 5.6348114013671875 0.08729285001754761 4505456 4 -1
-0.697830080986023 5.649042129516602 0.21823212504386902 4899181 4 -1
-0.6514402031898499 5.630270481109619 0.5674034953117371 8180304 4 -1
-0.6527715921401978 5.641777515411377 0.43646425008773804 8705099 4 -1
-0.6948503851890564 5.624920845031738 -0.8340208530426025 4456788 4 -1
-0.6988402009010315 5.657218933105469 -0.570645809173584 4456788 4 -1
-0.6546379923820496 5.6579084396362305 -0.6145416498184204 4456788 4 -1
-0.6988402009010315 5.657218933105469 -0.570645809173584 4456788 4 -1
-0.6963492631912231 5.637054443359375 -0.7462291717529297 4657508 4 -1
-0.6963492631912231 5.637054443359375 -0.7462291717529297 4725613 4 -1
-0.6976788640022278 5.647817611694336 -0.6584374904632568 4726897 4 -1
-0.700661301612854 5.671960830688477 -0.39506250619888306 4536450 4 -1
-0.6998341083526611 5.66526460647583 -0.4828541576862335 4471684 4 -1
-0.6998341083526611 5.66526460647583 -0.4828541576862335 4341894 4 -1
-0.9634092450141907 5.633285999298096 0.39506250619888306 3238030 4 -1
-1.0066359043121338 5.622467517852783 0.4389583170413971 2912910 4 -1
-0.9204855561256409 5.64592170715332 0.3072708249092102 2199437 4 -1
-0.8304876685142517 5.643665790557861 0.5267499685287476 2271109 4 -1
-0.7440353035926819 5.663203239440918 0.4389583170413971 2666112 4 -1
-0.7010125517845154 5.674804210662842 0.35116666555404663 2994813 4 -1
-0.7002685070037842 5.668781280517578 0.4389583170413971 3257723 4 -1
-0.7444525957107544 5.666379451751709 0.39506250619888306 3651704 4 -1
-0.8324523568153381 5.657017230987549 0.35116666555404663 4045940 4 -1
-0.6568699479103088 5.677198886871338 0.39506250619888306 8705099 4 -1
-0.21945250034332275 5.72381067276001 0.6180333495140076 4456788 0 -1
-0.6971197128295898 5.643291473388672 -0.9270500540733337 4456788 4 -1
-0.7022480368614197 5.684805870056152 -0.6180333495140076 4456788 4 -1
-0.6995733976364136 5.663154602050781 -0.794614315032959 4657508 4 -1
-0.6995733976364136 5.663154602050781 -0.794614315032959 4725613 4 -1
-0.7016429305076599 5.67990779876709 -0.662178635597229 4726897 4 -1
-0.70557701587677 5.711754322052002 -0.2648714482784271 4536450 4 -1
-0.7028108835220337 5.689362525939941 -0.5738881230354309 4471684 4 -1
-0.9693688750267029 5.66813325881958 0.35316193103790283 3238030 4 -1
-1.0129233598709106 5.657585144042969 0.3973071575164795 2912910 4 -1
-0.9670810103416443 5.654755592346191 0.5297428965568542 2588302 4 -1
-0.9655910134315491 5.646043300628662 0.6180333495140076 2070155 4 -1
-0.6168711185455322 5.7172441482543945 0.35316193103790283 9360965 4 -1
-0.5287466645240784 5.726066589355469 0.35316193103790283 13164576 4 -1
-0.7035258412361145 5.695149898529053 -0.7991036772727966 4657508 4 -1
-1.018646001815796 5.689548492431641 0.3995518386363983 3238030 4 -1
-1.0191566944122314 5.692400932312012 0.35515719652175903 2912910 4 -1
-0.9283381700515747 5.694087028503418 0.5327357649803162 2070155 4 -1
-0.930945634841919 5.710080146789551 0.31076255440711975 2070922 4 -1
-1.085854411125183 5.563487529754639 1.1986554861068726 6933851 0 -1
-0.5680971741676331 5.6747612953186035 1.0210769176483154 6933851 4 -1
-0.3975646197795868 5.751270294189453 0.5771304368972778 6933851 4 -1
-0.6200454235076904 5.746664047241211 0.3995518386363983 9360965 4 -1
-0.6200454235076904 5.746664047241211 0.3995518386363983 10672695 4 -1
-1.0714259147644043 5.726825714111328 0.044644057750701904 3432845 4 -1
-0.3540079891681671 5.7642035484313965 0.9876562356948853 4456788 0 -1
-0.7283149361610413 5.543548107147217 1.750845193862915 4726897 0 -1
-0.6710057258605957 5.799371719360352 0.4938281178474426 4536450 4 -1
-1.0774115324020386 5.758819103240967 0.04489346593618393 4017546 4 -1
-1.0774115324020386 5.758819103240967 0.04489346593618393 3562893 4 -1
-1.0774115324020386 5.758819103240967 0.04489346593618393 3432845 4 -1
-0.8003594279289246 5.7474565505981445 0.8080824017524719 3257723 4 -1
-0.7532437443733215 5.733293056488037 0.9427627921104431 4045940 4 -1
-0.3110540807247162 5.790898323059082 1.0382860898971558 4456788 0 -1
-1.1165475845336914 5.7207465171813965 0.8577145934104919 3887499 4 -1
-0.7792313694953918 5.595733642578125 1.6702862977981567 3887499 0 -1
-0.5653592944145203 5.647411823272705 1.5800005197525024 2718350 0 -1
-0.8418303728103638 5.7207465171813965 1.12857186794281 2994813 0 -1
-0.7168372869491577 5.802907943725586 0.7222859859466553 2994813 4 -1
-0.8048058748245239 5.779386520385742 0.8125717043876648 3257723 4 -1
-0.7564462423324585 5.757668972015381 0.9931432008743286 3651704 4 -1
-0.7583637237548828 5.772263526916504 0.9028574824333191 4045940 4 -1
-0.6513819694519043 5.629767417907715 1.7249066829681396 3238030 0 -1
-1.0395996570587158 5.806583404541016 0.5447073578834534 3107982 4 -1
-0.9026069045066833 5.820251941680908 0.6354919672012329 2468738 4 -1
-0.8542107939720154 5.8048787117004395 0.8170610666275024 2666112 4 -1
-0.8512146472930908 5.784518241882324 0.9532378911972046 3651704 4 -1
-0.6826125979423523 5.89968729019165 -0.45641690492630005 4729209 4 -1
-0.6082304120063782 5.637160778045654 1.8256676197052002 3107982 0 -1
-1.003645420074463 5.868556499481201 -0.18256676197052002 2328718 4 -1
-0.8628790378570557 5.8637847900390625 0.5933419466018677 2468738 4 -1
-0.6844444274902344 5.915520191192627 0.13692507147789001 6343264 4 -1
-0.6794607639312744 5.8724470138549805 0.7302670478820801 6933851 4 -1
-0.9323951601982117 5.718970775604248 1.5144062042236328 2328718 0 -1
-0.9361305832862854 5.74188232421875 1.4226239919662476 2264205 0 -1
-0.8668993711471558 5.891105651855469 0.6424753665924072 2468738 4 -1
-3.6483397483825684 4.608989715576172 -1.1472774744033813 2666112 0 -1
-0.4982239603996277 5.890029430389404 0.9637130498886108 2666112 4 -1
-1.5580512285232544 5.773967266082764 0.3212376832962036 6933851 0 -1
-1.1406570672988892 5.844274044036865 0.6424753665924072 6933851 4 -1
-0.6825013756752014 5.898726463317871 0.7801486849784851 6933851 4 -1
-0.5030057430267334 5.946559906005859 0.5048021078109741 6933851 4 -1
-0.18160861730575562 5.922513961791992 0.8719308376312256 6933851 0 -1
-4.567373752593994 3.923129081726074 -0.09228101372718811 4456788 0 -1
-0.7286279201507568 5.898355484008789 0.968950629234314 2588302 4 -1
-3.6886789798736572 4.6599507331848145 -0.968950629234314 2468738 0 -1
-0.7360776662826538 5.958662033081055 0.46140506863594055 2468738 4 -1
-3.6886789798736572 4.6599507331848145 -0.968950629234314 2666112 0 -1
-3.6736409664154053 4.640953063964844 -1.1073721647262573 2994813 0 -1
-0.5046167969703674 5.96560525894165 0.6459670662879944 2994813 4 -1
-3.6736409664154053 4.640953063964844 -1.1073721647262573 3257723 0 -1
-0.5057395100593567 5.978878021240234 0.5075455904006958 3257723 4 -1
-5.052788257598877 3.3270034790039062 -0.2319495677947998 4456788 0 -1
-4.7267680168151855 3.7727463245391846 0.2783394753932953 4456788 0 -1
-4.870368957519531 3.595041036605835 0.09277983009815216 4456788 0 -1
-3.242130994796753 5.000358581542969 1.0669680833816528 4456788 0 -1
-4.592601299285889 3.944798231124878 0 4456788 0 -1
-4.592061996459961 3.9443349838256836 -0.09277983009815216 4456788 0 -1
-4.542873859405518 3.995237112045288 -0.2319495677947998 4456788 0 -1
-4.358603477478027 4.197804927825928 -0.18555966019630432 4456788 0 -1
-4.592061996459961 3.9443349838256836 -0.09277983009815216 4523353 0 -1
-4.356040954589844 4.195337295532227 -0.2783394753932953 4523353 0 -1
-5.454530715942383 2.5770370960235596 0.5102890729904175 4726897 0 -1
-4.26330041885376 4.19724702835083 0.9277982711791992 4726897 0 -1
-4.6323137283325195 3.8845391273498535 0.32472941279411316 4536450 0 -1
-4.427733421325684 4.077597618103027 0.6494588255882263 4536450 0 -1
-4.052241802215576 4.34600305557251 1.159747838973999 4536450 0 -1
-1.4297888278961182 5.8469929695129395 0.6494588255882263 2468738 0 -1
-3.647899866104126 4.701774597167969 -1.1133579015731812 2666112 0 -1
-3.6987693309783936 4.672698020935059 -1.0669680833816528 2994813 0 -1
-3.6987693309783936 4.672698020935059 -1.0669680833816528 3257723 0 -1
-1.375258207321167 5.822480201721191 0.9277982711791992 5424489 0 -1
-4.896553993225098 3.6143691539764404 0.09327864646911621 4456788 0 -1
-4.896553993225098 3.6143691539764404 0.09327864646911621 4456788 0 -1
-4.663795471191406 3.9109387397766113 0.046639323234558105 4456788 0 -1
-4.6639323234558105 3.9110536575317383 0 4456788 0 -1
-4.430605411529541 4.173267841339111 0.046639323234558105 4456788 0 -1
-4.608609676361084 3.9585485458374023 -0.37311458587646484 4456788 0 -1
-4.426050662994385 4.1689772605896 -0.27983593940734863 4456788 0 -1
-4.663795471191406 3.9109387397766113 -0.046639323234558105 4523353 0 -1
-4.428654193878174 4.171429634094238 -0.18655729293823242 4523353 0 -1
-5.732424736022949 2.0331079959869385 0.23319661617279053 4726897 0 -1
-5.425312042236328 2.6810905933380127 0.6529505252838135 4726897 0 -1
-4.346742630004883 4.186381816864014 0.7928684949874878 4726897 0 -1
-4.458407402038574 4.105846405029297 0.5596718788146973 4536450 0 -1
-3.976806879043579 4.539269924163818 -0.7928684949874878 2468738 0 -1
-1.4748289585113525 5.83124303817749 0.9327864646911621 2468738 0 -1
-3.672745943069458 4.733798503875732 -1.0727044343948364 2666112 0 -1
-3.747760772705078 4.640305995941162 -1.2126224040985107 2994813 0 -1
-4.0097479820251465 4.483465194702148 -1.1253294944763184 2468738 0 -1
-3.9894676208496094 4.553720951080322 -0.8908858895301819 2666112 0 -1
-3.655939817428589 4.807332515716553 -0.9846633672714233 2666112 0 -1
-3.8858985900878906 4.527329921722412 -1.3597731590270996 3257723 0 -1
-4.0037736892700195 4.476785182952881 -1.1722183227539062 3651704 0 -1
2.818321704864502 5.932646751403809 0.3022826611995697 2199437 5 -1
2.8322737216949463 5.962016582489014 0.30377912521362305 2458766 5 -1
2.8331902027130127 5.963945388793945 0.25314927101135254 2328718 5 -1
2.7806334495544434 5.98349142074585 0.35440897941589355 2199437 5 -1
2.833939790725708 5.9655232429504395 0.20251941680908203 2134668 5 -1
2.7816975116729736 5.985781192779541 0.30377912521362305 2070155 5 -1
2.84714674949646 5.9933247566223145 0.25439631938934326 2458766 5 -1
2.84714674949646 5.9933247566223145 0.25439631938934326 2328718 5 -1
2.795400381088257 6.015267848968506 0.305275559425354 2199437 5 -1
2.847899913787842 5.99491024017334 0.20351704955101013 2134668 5 -1
2.795400381088257 6.015267848968506 0.305275559425354 2070155 5 -1
2.795400381088257 6.015267848968506 0.305275559425354 2072968 5 -1
2.796304941177368 6.017213821411133 0.25439631938934326 2139270 5 -1
2.96467924118042 5.975899696350098 0.15338601171970367 2718350 5 -1
2.8100123405456543 6.046710014343262 0.2556433379650116 2458766 5 -1
2.8618602752685547 6.024296760559082 0.20451468229293823 2328718 5 -1
2.8100123405456543 6.046710014343262 0.2556433379650116 2199437 5 -1
2.8618602752685547 6.024296760559082 0.20451468229293823 2134668 5 -1
2.8618602752685547 6.024296760559082 0.20451468229293823 2070155 5 -1
2.8100123405456543 6.046710014343262 0.2556433379650116 2139270 5 -1
2.8100123405456543 6.046710014343262 0.2556433379650116 2468738 5 -1
2.80910325050354 6.0447540283203125 0.30677202343940735 2666112 5 -1
3.0309505462646484 5.980171203613281 0.10275615751743317 2912910 5 -1
3.030505657196045 5.979292869567871 0.15413422882556915 2782862 5 -1
3.030505657196045 5.979292869567871 0.15413422882556915 2718350 5 -1
2.9791409969329834 6.005050182342529 0.15413422882556915 2588302 5 -1
2.9264004230499268 6.027425289154053 0.2568903863430023 2458766 5 -1
2.825047492980957 6.079063892364502 0.15413422882556915 2468738 5 -1
-4.242154598236084 5.044137477874756 -1.2330738306045532 2994813 0 -1
-4.235834121704102 5.036622047424316 -1.284451961517334 3257723 0 -1
2.8237195014953613 6.076206207275391 0.2568903863430023 3257723 5 -1
-5.1475701332092285 4.316619873046875 0.5162748694419861 4664956 0 -1
3.044590473175049 6.007083415985107 0.20650994777679443 2912910 5 -1
3.044590473175049 6.007083415985107 0.20650994777679443 2782862 5 -1
3.044590473175049 6.007083415985107 0.20650994777679443 2718350 5 -1
2.9413840770721436 6.058287143707275 0.20650994777679443 2458766 5 -1
2.9424211978912354 6.060422897338867 0.10325497388839722 2328718 5 -1
2.941988945007324 6.05953311920166 -0.15488246083259583 2264205 5 -1
-4.178287506103516 5.173364639282227 -1.0841771364212036 2468738 0 -1
1.575401782989502 6.4424638748168945 1.1874321699142456 6343264 0 -1
-5.698243618011475 3.6380016803741455 -0.36313825845718384 4456788 0 -1
6.533417701721191 1.7630378007888794 -0.20750758051872253 4456788 0 -1
-5.392662048339844 4.088159084320068 0.20750758051872253 4456788 0 -1
-5.185871124267578 3.9313912391662598 1.8675681352615356 4523353 0 -1
-6.587591648101807 1.558774471282959 -0.10375379025936127 4726897 0 -1
-4.732009410858154 4.761011600494385 0.8819071650505066 4726897 0 -1
-4.240963935852051 5.042721748352051 1.5563068389892578 4726897 0 -1
3.0085065364837646 6.064241886138916 -0.10375379025936127 4664956 5 -1
3.0592987537384033 6.036103248596191 0.20750758051872253 2912910 5 -1
3.0599279403686523 6.037344455718994 0.1556306779384613 2782862 5 -1
3.0575003623962402 6.032554626464844 0.3112613558769226 2718350 5 -1
3.056330680847168 6.030247211456299 0.36313825845718384 2588302 5 -1
2.8000361919403076 6.160653114318848 0.20750758051872253 2523534 5 -1
3.0074462890625 6.06210470199585 0.20750758051872253 2523534 5 -1
2.7474567890167236 6.1823225021362305 0.2593844532966614 2458766 5 -1
2.8531453609466553 6.139525890350342 0.051876895129680634 2328718 5 -1
3.056330680847168 6.030247211456299 0.36313825845718384 2328718 5 -1
3.0085065364837646 6.064241886138916 0.10375379025936127 2264205 5 -1
3.0080647468566895 6.063351631164551 0.1556306779384613 2199437 5 -1
2.8000361919403076 6.160653114318848 0.20750758051872253 2134668 5 -1
3.0592987537384033 6.036103248596191 0.20750758051872253 2134668 5 -1
-5.421135425567627 4.109744548797607 0 4456788 0 -1
-4.165694713592529 5.369159698486328 0.31275781989097595 4456788 0 -1
6.5150227546691895 1.9550753831863403 -0.10425260663032532 4456788 0 -1
-5.4171552658081055 4.106727123260498 -0.2606315016746521 4456788 0 -1
-5.420976161956787 4.109623432159424 0.05212630331516266 4456788 0 -1
-5.418588638305664 4.107813358306885 -0.20850521326065063 4456788 0 -1
-5.413331508636475 4.103828430175781 -0.3648841083049774 4523353 0 -1
-4.754759788513184 4.783901214599609 0.886147141456604 4726897 0 -1
-4.3199615478515625 5.0330424308776855 1.5116627216339111 4726897 0 -1
-5.995131969451904 3.0906059741973877 0.886147141456604 4664956 0 -1
2.8095266819000244 6.181534290313721 -0.41701042652130127 4664956 5 -1
3.0201287269592285 6.0876688957214355 -0.31275781989097595 4664956 5 -1
2.917701482772827 6.141844272613525 -0.20850521326065063 3887499 5 -1
2.8661890029907227 6.167593955993652 0.15637890994548798 2912910 5 -1
3.0750906467437744 6.067261219024658 0.10425260663032532 2782862 5 -1
3.072199821472168 6.061557292938232 0.31275781989097595 2718350 5 -1
2.814737558364868 6.192999362945557 0.05212630331516266 2588302 5 -1
3.0201287269592285 6.0876688957214355 0.31275781989097595 2588302 5 -1
2.81349778175354 6.190271377563477 0.20850521326065063 2523534 5 -1
3.02297043800354 6.09339714050293 0.10425260663032532 2523534 5 -1
2.8148202896118164 6.193181037902832 0 2328718 5 -1
2.8140764236450195 6.191544532775879 0.15637890994548798 2264205 5 -1
3.022526502609253 6.092502593994141 0.15637890994548798 2199437 5 -1
2.812753677368164 6.188634395599365 0.2606315016746521 2134668 5 -1
3.075361490249634 6.067795276641846 0.05212630331516266 2134668 5 -1
2.950150728225708 6.076343536376953 -1.0475142002105713 4456788 0 -1
-5.446913719177246 4.129286766052246 0.052375711500644684 4456788 0 -1
-5.443074703216553 4.126376628875732 -0.2618785500526428 4456788 0 -1
-5.43923282623291 4.123464107513428 -0.366629958152771 4523353 0 -1
-4.777509689331055 4.806790828704834 0.8903870582580566 4726897 0 -1
-4.340631484985352 5.05712366104126 1.5188956260681152 4726897 0 -1
2.809544801712036 6.18157434463501 -0.7856356501579285 4726897 5 -1
2.8142216205596924 6.191864013671875 -0.6808842420578003 4664956 5 -1
2.826211929321289 6.218245029449463 0.2618785500526428 2912910 5 -1
2.9840128421783447 6.146088123321533 0.20950284600257874 2912910 5 -1
2.8805794715881348 6.198559761047363 -0.052375711500644684 2782862 5 -1
3.135061025619507 6.055726051330566 -0.47138139605522156 2782862 5 -1
3.0355608463287354 6.118775367736816 0.2618785500526428 2718350 5 -1
2.9798011779785156 6.137413501739502 0.41900569200515747 2588302 5 -1
2.8269596099853516 6.219890117645264 0.20950284600257874 2523534 5 -1
3.088715076446533 6.094142436981201 -0.20950284600257874 2523534 5 -1
2.9832236766815186 6.144462585449219 0.2618785500526428 2458766 5 -1
2.827956199645996 6.22208309173584 0.10475142300128937 2264205 5 -1
2.984626531600952 6.14735221862793 0.15712712705135345 2199437 5 -1
2.822969436645508 6.211111068725586 0.41900569200515747 2134668 5 -1
3.0374343395233154 6.122551918029785 0.10475142300128937 2134668 5 -1
2.7746083736419678 6.243419170379639 0.20950284600257874 2070155 5 -1
2.9822587966918945 6.142475128173828 0.3142542541027069 2070922 5 -1
2.723217010498047 6.268631458282471 0.10475142300128937 2139270 5 -1
2.98532772064209 6.148796558380127 -0.052375711500644684 2139270 5 -1
-5.523041248321533 4.076808452606201 -0.21050047874450684 4456788 0 -1
-5.517683029174805 4.072853088378906 -0.36837583780288696 4523353 0 -1
2.749216318130493 6.186281681060791 -1.1577526330947876 4523353 0 -1
2.8145973682403564 6.192690849304199 -0.947252094745636 4726897 5 -1
2.775259256362915 6.2448835372924805 -0.6841265559196472 4729209 5 -1
2.777315616607666 6.249510765075684 -0.6315014362335205 4664956 5 -1
2.780931234359741 6.257646560668945 -0.5262511968612671 4471684 5 -1
2.780931234359741 6.257646560668945 -0.5262511968612671 4341894 5 -1
2.7890493869781494 6.275914192199707 0.05262511968612671 2718350 5 -1
2.9995436668395996 6.17807674407959 0.05262511968612671 2718350 5 -1
2.946227788925171 6.201893329620361 -0.15787535905838013 2588302 5 -1
2.841005563735962 6.250793933868408 0.15787535905838013 2523534 5 -1
2.9470067024230957 6.2035322189331055 0 2458766 5 -1
2.9466605186462402 6.202804088592529 -0.10525023937225342 2328718 5 -1
2.894296407699585 6.228076934814453 0.05262511968612671 2264205 5 -1
2.841672897338867 6.252262592315674 0.05262511968612671 2199437 5 -1
2.894296407699585 6.228076934814453 0.05262511968612671 2070922 5 -1
2.946227788925171 6.201893329620361 0.15787535905838013 2006409 5 -1
2.840421199798584 6.249508857727051 0.21050047874450684 2072968 5 -1
2.7891311645507812 6.276098251342773 0 2139270 5 -1
2.7891311645507812 6.276098251342773 0 2468738 5 -1
2.783778190612793 6.264052867889404 -0.793117880821228 4523353 5 -1
2.781209707260132 6.258273601531982 -0.8459924459457397 4729209 5 -1
2.79831600189209 6.296765327453613 -0.37012168765068054 4341894 5 -1
2.960625648498535 6.232201099395752 -0.10574905574321747 2588302 5 -1
2.8551406860351562 6.281894207000732 0.052874527871608734 2523534 5 -1
2.8551406860351562 6.281894207000732 0.052874527871608734 2523534 5 -1
2.9609735012054443 6.232933044433594 0 2458766 5 -1
2.9608864784240723 6.232749938964844 0.052874527871608734 2264205 5 -1
2.9067325592041016 6.254837512969971 0.21149811148643494 2006409 5 -1
2.799386739730835 6.299174785614014 0.3172471523284912 2468738 5 -1
2.5736818313598633 6.353262424468994 0.793117880821228 3257723 5 -1
2.902630090713501 6.246009349822998 -0.4229962229728699 6933851 5 -1
2.553140163421631 6.155571460723877 1.9124616384506226 4456788 0 -1
2.769630193710327 6.093753814697266 1.8062137365341187 4456788 0 -1
2.6730170249938965 6.014817714691162 2.1780812740325928 4456788 0 -1
2.8470518589019775 6.264097213745117 -0.8499829173088074 4523353 5 -1
2.7943286895751953 6.2877936363220215 -0.8499829173088074 4725613 5 -1
2.7855703830718994 6.268085479736328 -1.0093547105789185 4726897 5 -1
2.7855703830718994 6.268085479736328 -1.0093547105789185 4729209 5 -1
2.8135013580322266 6.330935955047607 -0.2656196653842926 4341894 5 -1
2.7092411518096924 6.381557941436768 0.05312393233180046 2264205 5 -1
2.8007638454437256 5.895687103271484 -2.3374531269073486 2264205 0 -1
2.9196712970733643 6.282679080963135 0.2656196653842926 2006409 5 -1
2.5901260375976562 6.393856048583984 0.6906111240386963 3257723 5 -1
2.8115155696868896 6.326467037200928 0.3718675374984741 3257723 5 -1
2.971986770629883 6.121318817138672 1.3280982971191406 3257723 0 -1
2.6223251819610596 6.1768293380737305 1.8680670261383057 4456788 0 -1
2.6782963275909424 6.026697635650635 2.241680383682251 4456788 0 -1
2.8100404739379883 6.323147773742676 -0.8006001114845276 4725613 5 -1
2.7986481189727783 6.297513008117676 -1.0140935182571411 4726897 5 -1
2.795372486114502 6.29014253616333 -1.0674668550491333 4729209 5 -1
2.8287041187286377 6.365144729614258 -0.053373340517282486 4341894 5 -1
2.667961835861206 6.432404518127441 0.16012002527713776 2070922 5 -1
2.6674132347106934 6.431081771850586 0.21349336206912994 2072968 5 -1
2.71692156791687 6.399649143218994 0.4269867241382599 3257723 5 -1
2.6326825618743896 6.06022834777832 2.3057782649993896 4456788 0 -1
2.774514675140381 6.386714458465576 -0.6970957517623901 4725613 5 -1
2.817790985107422 6.340588569641113 -0.9115867614746094 4726897 5 -1
2.748478889465332 6.326781749725342 -1.179700493812561 3107982 0 -1
2.679877996444702 6.4611334800720215 0.21449099481105804 2070155 5 -1
2.679169178009033 6.4594244956970215 0.26811376214027405 2070922 5 -1
2.680428981781006 6.462462425231934 0.16086825728416443 2072968 5 -1
2.680428981781006 6.462462425231934 0.16086825728416443 2139270 5 -1
2.679877996444702 6.4611334800720215 0.21449099481105804 2994813 5 -1
2.7340376377105713 6.439965724945068 0.16086825728416443 3257723 5 -1
2.7340376377105713 6.439965724945068 0.16086825728416443 3651704 5 -1
2.7344391345977783 6.440911293029785 0.10724549740552902 4045940 5 -1
2.768261671066284 6.372320652008057 -1.0774431228637695 3107982 5 -1
2.6928961277008057 6.492520332336426 -0.1616164743900299 2199437 5 -1
2.7461893558502197 6.468588829040527 0.21548862755298615 2070922 5 -1
2.639735698699951 6.516319751739502 0 2072968 5 -1
2.693291664123535 6.493473529815674 0.10774431377649307 2139270 5 -1
2.692342519760132 6.491185188293457 0.21548862755298615 2666112 5 -1
2.6928961277008057 6.492520332336426 0.1616164743900299 2994813 5 -1
2.693291664123535 6.493473529815674 0.10774431377649307 3257723 5 -1
2.6928961277008057 6.492520332336426 0.1616164743900299 3651704 5 -1
2.7467541694641113 6.469919204711914 0.1616164743900299 4045940 5 -1
2.6512560844421387 6.544758319854736 -0.16236470639705658 2523534 5 -1
2.7048070430755615 6.521236896514893 -0.21648626029491425 2458766 5 -1
2.7057604789733887 6.523536205291748 -0.10824313014745712 2264205 5 -1
2.703217029571533 6.517403602600098 0.32472941279411316 2666112 5 -1
2.7057604789733887 6.523536205291748 0.10824313014745712 2994813 5 -1
2.7057604789733887 6.523536205291748 -0.10824313014745712 3257723 5 -1
2.7059988975524902 6.524110794067383 0.05412156507372856 3651704 5 -1
2.7048070430755615 6.521236896514893 0.21648626029491425 6343264 5 -1
2.89697265625 6.233835220336914 1.6236469745635986 6343264 0 -1
2.716552734375 6.549556255340576 -0.27185487747192383 2458766 5 -1
2.7182295322418213 6.553598403930664 0.10874194651842117 2328718 5 -1
2.7178304195404053 6.55263614654541 -0.16311292350292206 2264205 5 -1
2.6546974182128906 6.553253650665283 0.5980806946754456 2994813 5 -1
2.7716169357299805 6.528482913970947 -0.21748389303684235 5424489 5 -1
2.6713407039642334 6.29228401184082 1.9029841423034668 8180304 0 -1
2.6751413345336914 6.603720188140869 -0.21848152577877045 2458766 5 -1
2.67136549949646 6.594399929046631 0.4369630515575409 2328718 5 -1
2.5197012424468994 6.220008850097656 2.403296947479248 2468738 0 -1
2.9913947582244873 6.43701696395874 -0.6554446220397949 7589974 5 -1
2.9439539909362793 6.477301597595215 -0.4369630515575409 8705099 5 -1
-5.8708953857421875 4.0997467041015625 0.05486978963017464 4590430 0 -1
2.9628818035125732 6.518946647644043 0.05486978963017464 2666112 5 -1
3.0004241466522217 6.456446647644043 -0.7681770920753479 7589974 5 -1
-5.841948986053467 4.195837497711182 0.11023839563131332 4590430 0 -1
3.0057260990142822 6.467856407165527 -0.9370263814926147 6343264 5 -1
2.99574613571167 6.446380615234375 -1.1023839712142944 6933851 0 -1
3.057175397872925 6.435440540313721 -0.9921455979347229 7589974 5 -1
2.956711530685425 6.50537109375 -0.8267880082130432 12640037 5 -1
3.0025830268859863 6.461092472076416 -0.9921455979347229 13164576 5 -1
-4.649734020233154 5.5287699699401855 -0.16610582172870636 4590430 0 -1
-4.761141300201416 5.434536933898926 -0.11073721200227737 4657508 0 -1
-4.011417388916016 5.9446306228637695 0.885897696018219 4657508 0 -1
2.8600869178771973 6.583694934844971 0.8305290937423706 6933851 5 -1
-5.668872356414795 4.524702548980713 0.27809008955955505 4590430 0 -1
-4.671364784240723 5.554490089416504 -0.11123602837324142 4590430 0 -1
3.101414442062378 6.528565406799316 0.6674162149429321 2199437 5 -1
3.0966360569000244 6.5185065269470215 0.7786521911621094 2070155 5 -1
3.0596914291381836 6.583981037139893 0.670409083366394 2070155 5 -1
2.8350677490234375 6.6779398918151855 0.7262765169143677 4045940 5 -1
3.119377851486206 6.566378593444824 0.5586742162704468 4045940 5 -1
2.7939553260803223 6.736171722412109 0.6734020113945007 6343264 5 -1
2.8580899238586426 6.732168197631836 0.7891273498535156 6343264 5 -1
2.709566116333008 6.688699245452881 1.5852380990982056 6343264 0 -1
-5.934794902801514 4.976766109466553 -1.017585277557373 4456788 0 -1
-4.407458305358887 6.402676105499268 -0.7781534194946289 4456788 0 -1
-5.8937578201293945 5.062421798706055 -1.081932544708252 4456788 0 -1
-4.541799068450928 6.340269088745117 -0.8415030837059021 4456788 0 -1
-2.3162190914154053 7.193358421325684 2.103757619857788 2134668 0 -1
-2.624950408935547 6.969320774078369 2.464401960372925 2006409 0 -1
-5.088324069976807 5.807995319366455 -1.3824692964553833 2072968 0 -1
-5.815807342529297 5.234837055206299 -0.9053515791893005 4456788 0 -1
-4.50424337387085 6.414275646209717 -0.784637987613678 4456788 0 -1
-4.16449499130249 6.685816287994385 -0.06035676971077919 4456788 0 -1
-4.52662467956543 6.446147918701172 -0.06035676971077919 4456788 0 -1
-2.613858461380005 6.939871311187744 2.655697822570801 2006409 0 -1
-5.094554901123047 5.815107345581055 -1.5089192390441895 2072968 0 -1
-4.51013708114624 6.551836967468262 -0.9203160405158997 4456788 0 -1
-4.808205604553223 6.074261665344238 -2.02469539642334 4456788 0 -1
-4.22337532043457 6.780344486236572 -0.5521896481513977 4456788 0 -1
-4.966057777404785 6.273678779602051 -0.30677202343940735 2070155 0 -1
-5.078577041625977 6.949808120727539 -1.1986554861068726 4456788 0 -1
-4.71412992477417 7.270631790161133 -0.6659197211265564 4456788 0 -1
-4.458386421203613 7.452548503875732 -0.3329598605632782 4456788 0 -1
-5.091950416564941 6.968109130859375 -1.2699862718582153 4456788 0 -1
-4.670097827911377 7.348443508148193 -0.5347310304641724 4456788 0 -1
-5.163800239562988 6.926974773406982 -1.203144907951355 4456788 0 -1
-5.0181989669799805 7.436607837677002 -0.8981187343597412 4456788 0 -1
-2.9008476734161377 8.534295082092285 0.2072581648826599 4456788 0 -1
-5.417044162750244 7.869293212890625 -3.2472939491271973 4590430 0 -1
-5.075969696044922 8.314998626708984 -2.6287617683410645 4725613 0 -1
-4.704850196838379 8.714545249938965 -1.932913064956665 4725613 0 -1
-4.414893627166748 9.093234062194824 -0.5429615378379822 4456788 0 -1
-5.565839767456055 7.769811153411865 -3.3353350162506104 4657508 0 -1
-5.301992416381836 8.015496253967285 -3.1802031993865967 4657508 0 -1
-3.2398741245269775 9.284092903137207 -2.404543876647949 4657508 0 -1
-5.1943535804748535 8.173364639282227 -2.947505474090576 4725613 0 -1
-4.650826930999756 8.79643726348877 -1.8615823984146118 4725613 0 -1
-5.565839767456055 7.769811153411865 -3.3353350162506104 4729209 0 -1
8.873373985290527 4.192297458648682 2.482109785079956 3107982 0 -1
8.890817642211914 4.200538635253906 2.404543876647949 2912910 0 -1
8.742765426635742 4.320516109466553 2.7148075103759766 2782862 0 -1
9.025609970092773 4.264222621917725 1.8675681352615356 4600703 0 -1
8.845842361450195 4.179289817810059 2.723536968231201 3107982 0 -1
9.041048049926758 4.271515846252441 1.9516186714172363 4664956 0 -1
9.041048049926758 4.271515846252441 1.9516186714172363 4600703 0 -1
9.05453872680664 4.277889728546143 1.873553991317749 4536450 0 -1
8.818172454833984 4.357780933380127 2.6542015075683594 2134668 0 -1
8.854756355285645 4.375859260559082 2.4980719089508057 2070155 0 -1
9.06993293762207 4.285162925720215 1.95785391330719 4664956 0 -1
9.083466529846191 4.291557312011719 1.8795397281646729 4600703 0 -1
9.06993293762207 4.285162925720215 1.95785391330719 4536450 0 -1
9.06993293762207 4.285162925720215 1.95785391330719 4471684 0 -1
8.846345901489258 4.371703147888184 2.6626813411712646 2134668 0 -1
8.711701393127441 4.4910502433776855 2.8976237773895264 2070155 0 -1
9.149696350097656 4.322847843170166 1.6498348712921143 4600703 0 -1
9.160994529724121 4.32818603515625 1.571271300315857 4536450 0 -1
8.89322566986084 4.394870281219482 2.592597723007202 2977934 0 -1
8.993070602416992 4.444212436676025 2.121216297149658 2912910 0 -1
8.817214965820312 4.545444488525391 2.592597723007202 2134668 0 -1
9.006389617919922 4.450794219970703 2.20676326751709 2912910 0 -1
0.3720732629299164 12.133834838867188 -0.18605847656726837 3651704 6 -1
0.3719421327114105 12.129558563232422 -0.37211695313453674 4045940 6 -1
-1.5628602504730225 11.895666122436523 -2.244673252105713 2328718 0 -1
2.2404520511627197 11.97532844543457 0.7482244372367859 2328718 0 -1
-8.830554008483887 7.405076026916504 -4.0217061042785645 2264205 0 -1
-6.877138137817383 9.600359916687012 -3.08642578125 2264205 0 -1
-2.1480486392974854 11.997716903686523 -0.6546963453292847 2264205 0 -1
0.37401336431503296 12.197104454040527 -0.2805841565132141 2264205 6 -1
0.562069833278656 12.212743759155273 -0.5626647472381592 4456788 6 -1
-0.7458905577659607 12.145106315612793 -1.3128844499588013 4456788 0 -1
0.0937747061252594 12.237893104553223 -0.09377746284008026 4456788 0 -1
0.2813241183757782 12.235018730163574 0.09377746284008026 4456788 6 -1
0.8442271947860718 12.21280288696289 -0.84624183177948 4456788 6 -1
0.750800371170044 12.225050926208496 -0.7522149682044983 4456788 6 -1
