VERSION .7
FIELDS x y z rgb label object
SIZE 4 4 4 4 4 4
TYPE F F F I I I
COUNT 1 1 1 1 1 1
WIDTH 676
HEIGHT 1
POINTS 676
VIEWPOINT 0 0 0 1 0 0 0
DATA ascii
0.19915129244327545 1.612160325050354 -0.09976325929164886 4728182 0 -1
1.5922985076904297 0.3767741322517395 0.27983593940734863 4456788 0 -1
0.25403010845184326 1.638054370880127 -0.08903870731592178 4523353 0 -1
-1.4027600288391113 0.7526288628578186 0.4706331491470337 4590430 0 -1
-0.18831093609333038 1.6275347471237183 -0.26711612939834595 4728182 0 -1
0.21600821614265442 1.6441402435302734 -0.0763188898563385 4728182 0 -1
0.2918592691421509 1.630151629447937 0.11447833478450775 4728182 0 -1
-0.1805213838815689 1.6730964183807373 0.18156912922859192 4456788 0 -1
-1.6125478744506836 0.3207104206085205 0.40204593539237976 4456788 0 -1
0.27170529961586 1.6665409803390503 -0.11672300845384598 4590430 0 -1
0.07479622215032578 1.6251842975616455 -0.4668920338153839 4657508 0 -1
0.276242733001709 1.6943719387054443 0.37710511684417725 4456788 0 -1
0.36770591139793396 1.613393783569336 0.5925937294960022 4456788 0 -1
0.08875659853219986 1.6523829698562622 0.5925937294960022 4456788 0 -1
-1.6194459199905396 0.3831978440284729 0.5656576752662659 4456788 0 -1
0.17257890105247498 1.7239022254943848 -0.2962968647480011 4456788 0 -1
-0.06609310954809189 1.72385573387146 0.33670100569725037 4523353 0 -1
0.30089911818504333 1.6806427240371704 0.4175092279911041 4523353 0 -1
0.393064945936203 1.6074037551879883 0.5925937294960022 4523353 0 -1
0.6621876955032349 1.5965216159820557 0.46639323234558105 4456788 0 -1
0.968706488609314 1.4072314500808716 0.5349804759025574 4456788 0 -1
-0.6408050060272217 1.6201586723327637 0.4115234315395355 4456788 0 -1
0.6844589710235596 1.5401684045791626 -0.6035677194595337 4456788 0 -1
0.041133008897304535 1.78890860080719 0.05486978963017464 4456788 0 -1
0.20225250720977783 1.7480289936065674 0.3292187452316284 4456788 0 -1
0.5026949048042297 1.7003611326217651 0.2469140589237213 4456788 0 -1
-0.06819145381450653 1.7785853147506714 -0.19204427301883698 4523353 0 -1
0.04114751145243645 1.7895392179489136 -0.02743489481508732 4523353 0 -1
0.316445529460907 1.6914173364639282 0.4938281178474426 4523353 0 -1
-1.6554129123687744 0.5432800650596619 0.4115234315395355 4590430 0 -1
0.6692770719528198 1.576467514038086 0.5212630033493042 4590430 0 -1
-0.4294615387916565 1.698023796081543 -0.37037110328674316 4657508 0 -1
0.7284064888954163 1.5674176216125488 0.46639323234558105 4657508 0 -1
0.05578700080513954 1.8192930221557617 0.09776799380779266 4456788 0 -1
-0.3351159691810608 1.791211724281311 -0.04190056771039963 4523353 0 -1
-0.1524764448404312 1.8025842905044556 -0.22346968948841095 4523353 0 -1
-0.08350293338298798 1.814365267753601 -0.1536354124546051 4523353 0 -1
0 1.8227185010910034 -0.013966855593025684 4523353 0 -1
0.5003060698509216 1.7433371543884277 0.18156912922859192 4523353 0 -1
0.2065046727657318 1.7847795486450195 -0.3072708249092102 4590430 0 -1
0.6351097226142883 1.645204782485962 0.4609062373638153 4590430 0 -1
-1.5428744554519653 0.7624605298042297 0.600574791431427 4657508 0 -1
0.12533214688301086 1.8130863904953003 0.1396685540676117 4657508 0 -1
0.23372018337249756 1.7789545059204102 0.3212376832962036 4657508 0 -1
0.731205940246582 1.5734416246414185 0.5586742162704468 4657508 0 -1
1.1172173023223877 1.4399802684783936 -0.02793371118605137 4657508 0 -1
0.7304611206054688 1.6436823606491089 0.4549204409122467 4523353 0 -1
1.0980275869369507 1.4152467250823975 -0.48335298895835876 4523353 0 -1
0.2744521200656891 1.8650681972503662 0.10125970840454102 4523353 0 -1
0.3934461772441864 1.7911343574523926 0.44843584299087524 4523353 0 -1
0.7490953803062439 1.6481631994247437 0.5352298617362976 4523353 0 -1
-1.633182168006897 1.0098836421966553 0.02943016029894352 4523353 0 -1
-1.3242017030715942 1.39055335521698 0.02943016029894352 4523353 0 -1
-0.3670012056827545 1.8803684711456299 -0.13243572413921356 4523353 0 -1
-0.04414394497871399 1.9198566675186157 -0.01471508014947176 4523353 0 -1
-1.5097628831863403 2.149980306625366 -0.22222265601158142 4456788 0 -1
-1.486325740814209 2.159172534942627 -0.28282883763313293 4456788 0 -1
-1.3525441884994507 2.26088547706604 0.10101030021905899 4456788 0 -1
-1.5930360555648804 2.05326247215271 -0.44444531202316284 4456788 0 -1
-1.4726274013519287 2.1823272705078125 -0.14141441881656647 4456788 0 -1
-1.54069185256958 2.1083688735961914 -0.3636370599269867 4456788 0 -1
-1.3131338357925415 2.2862331867218018 0 4456788 0 -1
-1.3521068096160889 2.2601542472839355 -0.12121235579252243 4456788 0 -1
-1.3717625141143799 2.247098445892334 -0.14141441881656647 4456788 0 -1
-0.3230811059474945 2.615391254425049 0.08080823719501495 4456788 0 -1
-1.4990113973617554 2.134669780731201 -0.38383913040161133 4456788 0 -1
-1.3529020547866821 2.261483669281006 -0.08080823719501495 4456788 0 -1
-1.4626092910766602 2.1247198581695557 -0.5454556345939636 4456788 0 -1
-1.413819432258606 2.180542469024658 -0.44444531202316284 4456788 0 -1
-0.28229695558547974 2.616365909576416 0.1616164743900299 4456788 0 -1
-1.4352575540542603 2.1269478797912598 -0.6060617566108704 4523353 0 -1
-1.5864136219024658 2.0041346549987793 -0.6464658975601196 4590430 0 -1
-1.4836750030517578 2.1553215980529785 -0.3232329487800598 4590430 0 -1
-1.3669075965881348 2.239145517349243 -0.2626267671585083 4657508 0 -1
-2.0786945819854736 1.5343791246414185 -0.5252535343170166 4724328 0 -1
-1.986749529838562 1.7065112590789795 -0.3030308783054352 4724328 0 -1
-0.9662482142448425 2.4429826736450195 -0.22222265601158142 4724328 0 -1
-1.3727314472198486 2.248685836791992 -0.10101030021905899 4729209 0 -1
-0.888786256313324 2.481855869293213 0.04040411859750748 4664956 0 -1
-2.141331911087036 1.4526777267456055 -0.6544469594955444 4456788 0 -1
-1.4843419790267944 2.1996874809265137 -0.2863205373287201 4456788 0 -1
-1.9167860746383667 1.846071720123291 -0.20451468229293823 4456788 0 -1
-1.4830631017684937 2.1977922916412354 -0.30677202343940735 4456788 0 -1
-1.5236949920654297 2.1698203086853027 -0.30677202343940735 4456788 0 -1
-1.645963191986084 2.037956476211548 -0.5112866759300232 4456788 0 -1
-1.4295419454574585 2.2493979930877686 -0.14316026866436005 4456788 0 -1
-1.6283165216445923 2.0570712089538574 -0.4908352196216583 4456788 0 -1
-2.0386812686920166 1.668292760848999 -0.42948082089424133 4456788 0 -1
-1.5192008018493652 2.1634204387664795 -0.36812642216682434 4456788 0 -1
-2.064274549484253 1.606207013130188 -0.5317381620407104 4456788 0 -1
-1.5782183408737183 2.1170992851257324 -0.3885778784751892 4456788 0 -1
-1.0899879932403564 2.3981969356536865 -0.42948082089424133 4456788 0 -1
-1.5984519720077515 2.1018645763397217 -0.3885778784751892 4456788 0 -1
-1.389678716659546 2.276447296142578 -0.10225734114646912 4456788 0 -1
-1.5903774499893188 2.091247081756592 -0.47038376331329346 4456788 0 -1
-1.6082139015197754 2.0728254318237305 -0.4908352196216583 4456788 0 -1
-1.4855318069458008 2.2014505863189697 -0.2658690810203552 4456788 0 -1
-1.6147969961166382 2.081310272216797 -0.42948082089424133 4456788 0 -1
-1.4897207021713257 2.1641042232513428 -0.47038376331329346 4456788 0 -1
-1.5925443172454834 2.0940964221954346 -0.4499322772026062 4456788 0 -1
-1.5455995798110962 2.1150848865509033 -0.5112866759300232 4456788 0 -1
-1.5881112813949585 2.0882670879364014 -0.4908352196216583 4523353 0 -1
-1.4989447593688965 2.177504062652588 -0.36812642216682434 4590430 0 -1
-1.6033201217651367 2.0665175914764404 -0.5317381620407104 4657508 0 -1
-1.5069973468780518 2.189201831817627 -0.24541760981082916 4724328 0 -1
-1.5946121215820312 2.096815347671509 -0.42948082089424133 4729209 0 -1
-2.0875630378723145 1.582574486732483 0.5112866759300232 3432845 0 -1
-1.6279799938201904 2.098301887512207 -0.2658690810203552 3432845 0 -1
-1.5453423261642456 2.1572699546813965 -0.2863205373287201 3432845 0 -1
-1.502443790435791 2.226512908935547 -0.28981226682662964 4456788 0 -1
-1.3662177324295044 2.3306026458740234 -0.02070087566971779 4456788 0 -1
-1.8810679912567139 1.9337202310562134 -0.14490613341331482 4456788 0 -1
-1.5203088521957397 2.2085394859313965 -0.3312140107154846 4456788 0 -1
-1.5230251550674438 2.2124853134155273 -0.28981226682662964 4456788 0 -1
-1.6457184553146362 2.079055070877075 -0.5175219178199768 4456788 0 -1
-1.4273117780685425 2.2914528846740723 -0.10350438207387924 4456788 0 -1
-1.611965537071228 2.1196341514587402 -0.45541927218437195 4456788 0 -1
-2.0608673095703125 1.686448097229004 -0.45541927218437195 4456788 0 -1
-1.5408536195755005 2.1942551136016846 -0.3312140107154846 4456788 0 -1
-1.630149245262146 2.101097822189331 -0.47612014412879944 4456788 0 -1
-1.5203088521957397 2.2085394859313965 -0.3312140107154846 4456788 0 -1
-1.4069981575012207 2.3048183917999268 -0.08280350267887115 4456788 0 -1
-1.6140586137771606 2.1223862171173096 -0.43471840023994446 4456788 0 -1
-1.6097723245620728 2.1167502403259277 -0.47612014412879944 4456788 0 -1
-1.6097723245620728 2.1167502403259277 -0.47612014412879944 4456788 0 -1
-1.5377275943756104 2.1898036003112793 -0.3726157546043396 4456788 0 -1
-1.62782621383667 2.0981037616729736 -0.49682101607322693 4456788 0 -1
-1.6097723245620728 2.1167502403259277 -0.47612014412879944 4456788 0 -1
-1.5690186023712158 2.147132635116577 -0.47612014412879944 4456788 0 -1
-1.6050834655761719 2.1105844974517822 -0.5175219178199768 4523353 0 -1
-1.5342262983322144 2.1848175525665283 -0.41401752829551697 4590430 0 -1
-1.6202412843704224 2.088327407836914 -0.5589236617088318 4657508 0 -1
-1.5823009014129639 2.1225759983062744 -0.5382227897644043 4724328 0 -1
-1.597464919090271 2.1429176330566406 -0.3933166265487671 4729209 0 -1
-1.5613982677459717 2.1796836853027344 -0.3312140107154846 4536450 0 -1
-1.6202412843704224 2.088327407836914 -0.5589236617088318 3432845 0 -1
-1.9831947088241577 1.8680070638656616 -0.23045311868190765 4456788 0 -1
-1.5178335905075073 2.249319553375244 -0.335204541683197 4456788 0 -1
-1.843408465385437 2.01883864402771 -0.04190056771039963 4456788 0 -1
-1.5562543869018555 2.216186761856079 -0.37710511684417725 4456788 0 -1
-1.4434887170791626 2.3174238204956055 -0.1466519832611084 4456788 0 -1
-1.2755639553070068 2.412564277648926 0.1676022708415985 4456788 0 -1
-1.537111759185791 2.2329490184783936 -0.35615482926368713 4456788 0 -1
-2.018709897994995 1.8170509338378906 -0.3142542541027069 4456788 0 -1
-1.926520586013794 1.9383280277252197 -0.08380113542079926 4456788 0 -1
-1.6602592468261719 2.0974247455596924 -0.5656576752662659 4456788 0 -1
-1.5386258363723755 2.2351484298706055 -0.335204541683197 4456788 0 -1
-1.2964749336242676 2.4013917446136475 0.1676022708415985 4456788 0 -1
-1.6218950748443604 2.132690906524658 -0.5447073578834534 4456788 0 -1
-1.5594180822372437 2.2206919193267822 -0.335204541683197 4456788 0 -1
-1.4440410137176514 2.3183107376098633 -0.12570171058177948 4456788 0 -1
-1.649789571762085 2.1264121532440186 -0.4818565249443054 4456788 0 -1
-1.42357337474823 2.331970453262329 -0.10475142300128937 4456788 0 -1
-1.6291671991348267 2.1422531604766846 -0.4818565249443054 4456788 0 -1
-1.61073637008667 2.1607205867767334 -0.4609062373638153 4456788 0 -1
-1.6291671991348267 2.1422531604766846 -0.4818565249443054 4456788 0 -1
-1.6268455982208252 2.139200448989868 -0.5028068423271179 4456788 0 -1
-1.647438645362854 2.123382091522217 -0.5028068423271179 4456788 0 -1
-1.58792245388031 2.173001766204834 -0.4818565249443054 4456788 0 -1
-1.6244217157363892 2.1360132694244385 -0.5237571001052856 4523353 0 -1
-1.6244217157363892 2.1360132694244385 -0.5237571001052856 4657508 0 -1
-1.6167114973068237 2.168735980987549 -0.39805540442466736 4729209 0 -1
-1.634119987487793 2.106215715408325 -0.6075582504272461 3432845 0 -1
-1.5338032245635986 2.228142499923706 -0.39805540442466736 2264205 0 -1
-2.349778413772583 1.452993392944336 -0.14839784801006317 4456788 0 -1
-1.9467037916183472 1.9586350917816162 -0.1695975363254547 4456788 0 -1
-2.3107664585113525 1.5215219259262085 0 4456788 0 -1
-1.843885898590088 2.06172513961792 -0.06359907984733582 4456788 0 -1
-1.759522795677185 2.1350176334381104 -0.02119969204068184 4456788 0 -1
-1.759522795677185 2.1350176334381104 -0.02119969204068184 4456788 0 -1
-2.289499521255493 1.5531944036483765 -0.02119969204068184 4456788 0 -1
-1.8229594230651855 2.0807912349700928 -0.04239938408136368 4456788 0 -1
-1.8650798797607422 2.042572498321533 -0.06359907984733582 4456788 0 -1
-1.8646963834762573 2.0421524047851562 -0.08479876816272736 4456788 0 -1
-1.6265676021575928 2.2258858680725098 0.23319661617279053 4456788 0 -1
-1.8655729293823242 2.043112277984619 0 4456788 0 -1
-1.8650798797607422 2.042572498321533 -0.06359907984733582 4456788 0 -1
-1.8653538227081299 2.042872428894043 0.04239938408136368 4456788 0 -1
-1.779937505722046 2.116436243057251 -0.08479876816272736 4456788 0 -1
-1.8655180931091309 2.0430524349212646 -0.02119969204068184 4456788 0 -1
-1.779937505722046 2.116436243057251 -0.08479876816272736 4456788 0 -1
-1.7213693857192993 1.9648326635360718 -0.9115867614746094 4456788 0 -1
-1.585958480834961 2.2139692306518555 -0.4875929057598114 4456788 0 -1
-1.8655180931091309 2.0430524349212646 0.02119969204068184 4523353 0 -1
-1.78072190284729 2.117368698120117 -0.02119969204068184 4590430 0 -1
-1.8628873825073242 2.0401713848114014 -0.14839784801006317 4728182 0 -1
-1.8589344024658203 2.035841941833496 -0.23319661617279053 4471684 0 -1
-1.8655180931091309 2.0430524349212646 -0.02119969204068184 4147337 0 -1
-1.8642032146453857 2.041612386703491 -0.1059984639286995 3692940 0 -1
-1.8445684909820557 2.1054563522338867 0.021449100226163864 4456788 0 -1
-1.4927729368209839 2.3488924503326416 -0.3002873957157135 4456788 0 -1
-2.5202717781066895 1.1907227039337158 -0.2573891878128052 4456788 0 -1
-1.9276401996612549 2.02422833442688 -0.15014369785785675 4456788 0 -1
-1.478422999382019 2.3735084533691406 -0.1286945939064026 4456788 0 -1
-1.3292194604873657 2.462042808532715 0.08579640090465546 4456788 0 -1
-1.1021783351898193 2.537127733230591 0.4289819896221161 4456788 0 -1
-1.8432682752609253 2.1039724349975586 -0.10724549740552902 4456788 0 -1
-1.8872991800308228 2.066906213760376 -0.04289820045232773 4456788 0 -1
-1.8866339921951294 2.0661778450012207 -0.08579640090465546 4456788 0 -1
-1.8870220184326172 2.0666027069091797 -0.0643472969532013 4456788 0 -1
-1.8861349821090698 2.06563138961792 -0.10724549740552902 4456788 0 -1
-1.8872991800308228 2.066906213760376 -0.04289820045232773 4456788 0 -1
-1.8874653577804565 2.0670883655548096 -0.021449100226163864 4456788 0 -1
-1.8004015684127808 2.1407690048217773 -0.10724549740552902 4456788 0 -1
-1.8445684909820557 2.1054563522338867 -0.021449100226163864 4456788 0 -1
-1.8874653577804565 2.0670883655548096 -0.021449100226163864 4523353 0 -1
-1.8874653577804565 2.0670883655548096 0.021449100226163864 4590430 0 -1
-1.80124831199646 2.1417758464813232 -0.0643472969532013 4590430 0 -1
-1.8655786514282227 2.0859806537628174 -0.0643472969532013 4728182 0 -1
-1.8625624179840088 2.082608222961426 -0.1715928018093109 4471684 0 -1
-1.8874653577804565 2.0670883655548096 0.021449100226163864 3692940 0 -1
-1.887548565864563 2.110546112060547 -0.04339701682329178 4456788 0 -1
-1.887548565864563 2.110546112060547 -0.04339701682329178 4456788 0 -1
-1.9092445373535156 2.090939998626709 -0.04339701682329178 4456788 0 -1
-1.8443191051483154 2.148754119873047 -0.02169850841164589 4456788 0 -1
-1.8877148628234863 2.110732078552246 -0.02169850841164589 4523353 0 -1
-1.887548565864563 2.110546112060547 -0.04339701682329178 4590430 0 -1
-1.4001470804214478 2.3404574394226074 0.9766823053359985 4664956 0 -1
-1.8445208072662354 2.1932289600372314 0.7489726543426514 4664956 0 -1
-1.789707064628601 2.3067517280578613 -0.4993151128292084 4664956 0 -1
-1.8340107202529907 2.316926956176758 -0.2042652666568756 4600703 0 -1
-1.94060480594635 2.215075731277466 -0.31774598360061646 4212104 0 -1
-1.8241698741912842 2.304494857788086 0.5736387372016907 4664956 0 -1
-1.8466904163360596 2.2864878177642822 0.5736387372016907 4600703 0 -1
-1.8526448011398315 2.2028887271881104 0.8260397911071777 4341894 0 -1
-1.7385281324386597 2.3321468830108643 0.7113119959831238 4212104 0 -1
-1.746294617652893 2.2962684631347656 0.803094208240509 4147337 0 -1
-1.8770023584365845 2.23185133934021 0.8118234872817993 4341894 0 -1
-1.7652760744094849 2.321227788925171 0.8118234872817993 4341894 0 -1
-1.7613071203231812 2.3160088062286377 0.8350184559822083 4212104 0 -1
-1.8107823133468628 2.3339154720306396 0.7971084117889404 4600703 0 -1
-1.8435590267181396 2.2826106548309326 0.8674415349960327 4536450 0 -1
-1.8210766315460205 2.3005871772766113 0.8674415349960327 4471684 0 -1
-1.7842575311660767 2.3461873531341553 0.8205527663230896 4341894 0 -1
-1.7985942363739014 2.318206310272217 0.8674415349960327 4212104 0 -1
-1.7742236852645874 2.4767839908599854 0.2813323736190796 2264205 0 -1
-1.740112543106079 2.527846336364746 0.37910038232803345 4456788 0 -1
-1.7255276441574097 2.5571072101593018 0.21324396133422852 4590430 0 -1
-1.821959137916565 2.3483214378356934 0.8529758453369141 4600703 0 -1
-1.8606085777282715 2.3505284786224365 0.7582007646560669 4536450 0 -1
-1.7176045179367065 2.350466012954712 1.0425260066986084 4536450 0 -1
-1.8488906621932983 2.3357248306274414 0.8292820453643799 4471684 0 -1
-1.7718086242675781 2.5231471061706543 0.2369377315044403 4147337 0 -1
-1.7580997943878174 2.50362491607666 0.4501816928386688 4017546 0 -1
-1.7943190336227417 2.5048367977142334 0.2606315016746521 3887499 0 -1
-1.7751539945602417 2.5279111862182617 0.14216263592243195 2912910 0 -1
-1.7768243551254272 2.530289649963379 0.04738754779100418 2782862 0 -1
-1.743221640586853 2.532362699508667 0.33171284198760986 2264205 0 -1
-1.743221640586853 2.532362699508667 0.33171284198760986 2199437 0 -1
-1.743221640586853 2.532362699508667 0.33171284198760986 2134668 0 -1
-1.7446187734603882 2.5343925952911377 0.3080190420150757 2070155 0 -1
-1.7459115982055664 2.5362706184387207 0.2843252718448639 2070922 0 -1
-1.7446187734603882 2.5343925952911377 0.3080190420150757 2006409 0 -1
-1.7446187734603882 2.5343925952911377 0.3080190420150757 2072968 0 -1
-1.7491650581359863 2.540996789932251 0.21324396133422852 2139270 0 -1
-1.7508152723312378 2.543394088745117 0.16585642099380493 2271109 0 -1
-1.7938398122787476 2.554520606994629 0.1436590850353241 4456788 0 -1
-1.6967689990997314 2.6169371604919434 0.19154545664787292 4456788 0 -1
-1.8119730949401855 2.5294816493988037 0.2873181700706482 4456788 0 -1
-1.7460041046142578 2.587451696395874 0.1436590850353241 4456788 0 -1
-1.7629832029342651 2.561070442199707 0.3112613558769226 4456788 0 -1
-1.7177746295928955 2.5969133377075195 0.2633749842643738 4456788 0 -1
-1.7377662658691406 2.5752439498901367 0.335204541683197 4590430 0 -1
-1.7914634943008423 2.5511367321014404 0.21548862755298615 4728182 0 -1
-1.6949681043624878 2.61415958404541 0.23943181335926056 4728182 0 -1
-1.6915109157562256 2.608827829360962 0.3112613558769226 4471684 0 -1
-1.7959693670272827 2.507140636444092 0.5028068423271179 4341894 0 -1
-1.7804384231567383 2.5354363918304443 0.40703409910202026 4147337 0 -1
-1.750866413116455 2.543468475341797 0.4788636267185211 3302798 0 -1
-1.7838380336761475 2.5402774810791016 0.35914772748947144 2264205 0 -1
-1.7584295272827148 2.554455280303955 0.38309091329574585 2199437 0 -1
-1.7584295272827148 2.554455280303955 0.38309091329574585 2134668 0 -1
-1.7629832029342651 2.561070442199707 0.3112613558769226 2070155 0 -1
-1.743691086769104 2.58402419090271 0.21548862755298615 2070922 0 -1
-1.7404478788375854 2.5792179107666016 0.2873181700706482 2006409 0 -1
-1.739159107208252 2.577308177947998 0.3112613558769226 2072968 0 -1
-1.7445652484893799 2.5853195190429688 0.19154545664787292 2139270 0 -1
-1.756844162940979 2.4525225162506104 0.8140681982040405 2994813 0 -1
-1.6808091402053833 2.541029453277588 0.6943522691726685 2994813 0 -1
-1.8125256299972534 2.581130266189575 0.14515553414821625 4456788 0 -1
-1.8067576885223389 2.5729165077209473 0.2903110682964325 4456788 0 -1
-1.7799209356307983 2.5856757164001465 0.33869627118110657 4456788 0 -1
-1.7332031726837158 2.6202380657196045 0.31450366973876953 4456788 0 -1
-1.6952906847000122 2.614657402038574 0.5080443620681763 4725613 0 -1
-1.8039740324020386 2.5689523220062256 0.33869627118110657 4728182 0 -1
-1.706290602684021 2.631622552871704 0.3628888428211212 4728182 0 -1
-1.7451977729797363 2.586256980895996 0.4838517904281616 4471684 0 -1
-1.7930114269256592 2.5533409118652344 0.4838517904281616 4341894 0 -1
-1.762230634689331 2.5599770545959473 0.5564295649528503 3302798 0 -1
-1.7187652587890625 2.547085762023926 0.7257776856422424 2977934 0 -1
-1.7219053506851196 2.55173921585083 0.7015851140022278 2782862 0 -1
-1.67428457736969 2.531165599822998 0.8709332346916199 2718350 0 -1
-1.6886926889419556 2.552947521209717 0.7741628885269165 2588302 0 -1
-1.7930114269256592 2.5533409118652344 0.4838517904281616 2199437 0 -1
-1.7951123714447021 2.55633282661438 0.459659218788147 2134668 0 -1
-1.802419662475586 2.5667388439178467 0.3628888428211212 2070155 0 -1
-1.7543550729751587 2.599827527999878 0.3628888428211212 2072968 0 -1
-1.8053064346313477 2.6225528717041016 0.19553598761558533 4456788 0 -1
-1.856227993965149 2.5912606716156006 0.12220998853445053 4456788 0 -1
-1.7410739660263062 2.6321370601654053 0.46439796686172485 4590430 0 -1
-1.7778608798980713 2.5826830863952637 0.5866079330444336 4725613 0 -1
-1.7245466709136963 2.6071512699127197 0.6354919672012329 4726897 0 -1
-1.789437174797058 2.5994997024536133 0.46439796686172485 4471684 0 -1
-1.706954836845398 2.52958345413208 0.9287959337234497 4147337 0 -1
-1.7695767879486084 2.570648670196533 0.6599339246749878 3692940 0 -1
-1.7659969329833984 2.5148708820343018 0.8554699420928955 2977934 0 -1
-1.6824060678482056 2.594785213470459 0.7821439504623413 2977934 0 -1
-1.7534936666488647 2.5472848415374756 0.7821439504623413 2782862 0 -1
-1.7226511240005493 2.552844524383545 0.8310279250144958 2718350 0 -1
-1.7262823581695557 2.558225631713867 0.8065859079360962 2588302 0 -1
-1.74245023727417 2.5312423706054688 0.8554699420928955 2468738 0 -1
-1.8631263971328735 2.5496060848236084 0.641976535320282 4590430 0 -1
-1.756272792816162 2.5513222217559814 0.8888906240463257 4725613 0 -1
-1.7640680074691772 2.5626461505889893 0.8395078182220459 4726897 0 -1
-1.7748686075210571 2.578336238861084 0.7654336094856262 4212104 0 -1
-1.756272792816162 2.5513222217559814 0.8888906240463257 4147337 0 -1
-1.7846157550811768 2.5924956798553467 0.6913593411445618 3692940 0 -1
-1.7800061702728271 2.534820795059204 0.8888906240463257 2977934 0 -1
-1.7640680074691772 2.5626461505889893 0.8395078182220459 2782862 0 -1
-1.7364435195922852 2.5732836723327637 0.8641992211341858 2718350 0 -1
-1.7474488019943237 2.589592695236206 0.7901250123977661 2588302 0 -1
-1.9022846221923828 2.501385450363159 0.847987711429596 4456788 0 -1
-1.8447531461715698 2.679856777191162 -0.09976325929164886 4456788 0 -1
-1.8618175983428955 2.5478150844573975 0.7981060743331909 4456788 0 -1
-1.7612844705581665 2.5586025714874268 0.9726917743682861 4725613 0 -1
-1.7780104875564575 2.582900285720825 0.8729285001754761 4726897 0 -1
-1.8447415828704834 2.575225830078125 0.7482244372367859 4212104 0 -1
-1.7539832592010498 2.599276304244995 0.8729285001754761 4147337 0 -1
-1.7508429288864136 2.6469056606292725 0.723283588886261 3562893 0 -1
-1.8020375967025757 2.566194772720337 0.8729285001754761 2977934 0 -1
-1.8699054718017578 2.508382797241211 0.8978692889213562 2782862 0 -1
-1.7892792224884033 2.5992703437805176 0.7981060743331909 2782862 0 -1
-1.8928602933883667 2.539175510406494 0.8816577792167664 4456788 0 -1
-2.141106128692627 2.49453067779541 -0.02519022300839424 4212104 0 -1
-1.9620089530944824 2.631934881210327 -0.1763315498828888 4147337 0 -1
-1.8574432134628296 2.698291540145874 -0.27709245681762695 4147337 0 -1
-1.8574432134628296 2.698291540145874 -0.27709245681762695 4147337 0 -1
2.895514488220215 1.5535428524017334 0.10076089203357697 4147337 0 -1
-1.97501540184021 2.59702205657959 0.40304356813430786 3757452 0 -1
-2.0803897380828857 2.524359941482544 0.32747289538383484 2977934 0 -1
-1.896962285041809 2.7013723850250244 -0.35615482926368713 4456788 0 -1
-1.9254438877105713 2.634884834289551 -0.610551118850708 4456788 0 -1
-1.215029001235962 3.071979284286499 -0.33071520924568176 4456788 0 -1
-1.8984827995300293 2.703537702560425 -0.33071520924568176 4456788 0 -1
-1.937981128692627 2.6520416736602783 -0.48335298895835876 4456788 0 -1
-1.8504846096038818 2.7422845363616943 -0.27983593940734863 4456788 0 -1
-1.8754323720932007 2.67071270942688 0.610551118850708 4456788 0 -1
-1.8854347467422485 2.6849565505981445 -0.5087926387786865 4456788 0 -1
-2.6468329429626465 1.7956089973449707 -0.8903870582580566 4456788 0 -1
-1.9504497051239014 2.6164286136627197 -0.610551118850708 4456788 0 -1
-1.8953279256820679 2.699044942855835 -0.3815944492816925 4456788 0 -1
-1.8666468858718872 2.6058051586151123 -0.8649474382400513 4456788 0 -1
-1.8806674480438232 2.6781678199768066 -0.5596718788146973 4657508 0 -1
-1.8883894681930542 2.636157274246216 -0.7123096585273743 4724328 0 -1
2.9975552558898926 1.4162191152572632 -0.17807741463184357 4600703 0 -1
-1.7621855735778809 2.7728159427642822 -0.6679149866104126 4456788 0 -1
-1.9139095544815063 2.725506067276001 -0.3853355646133423 4456788 0 -1
-2.6727821826934814 1.8132131099700928 -0.8991163372993469 4456788 0 -1
-1.915560007095337 2.727856397628784 -0.3596465289592743 4456788 0 -1
-1.6440985202789307 2.92179012298584 0 4456788 0 -1
-1.2278501987457275 3.1043953895568848 -0.3082684576511383 4456788 0 -1
-1.915560007095337 2.727856397628784 -0.3596465289592743 4456788 0 -1
-1.8915340900421143 2.7478151321411133 -0.3339574933052063 4456788 0 -1
-1.7892889976501465 2.8154633045196533 -0.3339574933052063 4456788 0 -1
-2.695009469985962 1.8282920122146606 -0.796360194683075 4456788 0 -1
-1.7929459810256958 2.8212175369262695 -0.2568903863430023 4456788 0 -1
-1.917095422744751 2.7300429344177246 -0.3339574933052063 4456788 0 -1
-1.915560007095337 2.727856397628784 -0.3596465289592743 4456788 0 -1
-1.890019178390503 2.745614528656006 -0.3596465289592743 4456788 0 -1
-1.908264398574829 2.7174670696258545 -0.46240270137786865 4456788 0 -1
-1.901571273803711 2.7079358100891113 -0.539469838142395 4456788 0 -1
-2.6786093711853027 1.8171662092208862 -0.8734273314476013 4456788 0 -1
-1.7662361860275269 2.835573196411133 -0.2825794219970703 4456788 0 -1
-1.890019178390503 2.745614528656006 -0.3596465289592743 4456788 0 -1
-1.9257726669311523 2.7423999309539795 -0.10275615751743317 4456788 0 -1
-1.7892889976501465 2.8154633045196533 -0.3339574933052063 4456788 0 -1
-1.8461323976516724 2.7909634113311768 -0.20551231503486633 4456788 0 -1
-1.895400047302246 2.7534310817718506 -0.2568903863430023 4523353 0 -1
-1.9101277589797974 2.666503667831421 -0.693604052066803 4657508 0 -1
-2.684255599975586 1.8209965229034424 -0.8477382659912109 4724328 0 -1
-1.7892889976501465 2.8154633045196533 -0.3339574933052063 4724328 0 -1
-1.8640663623809814 2.654526948928833 0.8477382659912109 4471684 0 -1
-1.917095422744751 2.7300429344177246 -0.3339574933052063 3432845 0 -1
-1.895400047302246 2.7534310817718506 -0.2568903863430023 2264205 0 -1
-1.7734100818634033 2.790477752685547 -0.7262765169143677 4456788 0 -1
-2.659520387649536 1.8042162656784058 -1.063476324081421 4456788 0 -1
-2.686410903930664 1.8224587440490723 -0.9597225189208984 4456788 0 -1
-1.9307081699371338 2.7494282722473145 -0.41501516103744507 4456788 0 -1
-1.935707926750183 2.7565481662750244 -0.3371998071670532 4456788 0 -1
-1.783384084701538 2.863103151321411 -0.285322904586792 4456788 0 -1
-1.6339302062988281 2.9642550945281982 0.051876895129680634 4456788 0 -1
-1.9324911832809448 2.751967430114746 -0.38907670974731445 4456788 0 -1
-1.9083689451217651 2.772270917892456 -0.36313825845718384 4456788 0 -1
-1.8259384632110596 2.8161561489105225 -0.4409535825252533 4456788 0 -1
-1.8079994916915894 2.8449044227600098 -0.3112613558769226 4456788 0 -1
-1.935707926750183 2.7565481662750244 -0.3371998071670532 4456788 0 -1
-2.0198123455047607 2.6559271812438965 -0.570645809173584 4456788 0 -1
-1.9067245721817017 2.7698822021484375 -0.38907670974731445 4456788 0 -1
-1.9267911911010742 2.7438502311706543 -0.4668920338153839 4456788 0 -1
-1.9030908346176147 2.76460337638855 -0.4409535825252533 4456788 0 -1
-2.704615354537964 1.834808588027954 -0.8819071650505066 4456788 0 -1
-1.806660771369934 2.8427979946136475 -0.3371998071670532 4456788 0 -1
-1.9083689451217651 2.772270917892456 -0.36313825845718384 4456788 0 -1
-1.9425830841064453 2.76633882522583 -0.18156912922859192 4456788 0 -1
-1.8052138090133667 2.8405210971832275 -0.36313825845718384 4456788 0 -1
-1.8620775938034058 2.8150689601898193 -0.2593844532966614 4456788 0 -1
-1.9148753881454468 2.7817227840423584 -0.23344601690769196 4523353 0 -1
-1.9629708528518677 2.74027156829834 -0.3112613558769226 4590430 0 -1
-1.8220082521438599 2.8100945949554443 -0.4928304851055145 4590430 0 -1
-1.9000822305679321 2.705815315246582 -0.7262765169143677 4657508 0 -1
-2.77150559425354 1.8801867961883545 0.4928304851055145 4724328 0 -1
-1.8310025930404663 2.8239665031433105 -0.36313825845718384 4724328 0 -1
-1.8809682130813599 2.732465982437134 -0.6743996143341064 4600703 0 -1
-1.9324911832809448 2.751967430114746 -0.38907670974731445 2264205 0 -1
-2.677824020385742 1.8166334629058838 -1.099889874458313 4456788 0 -1
-2.705740451812744 1.8355718851089478 -0.9951384663581848 4456788 0 -1
-2.0530316829681396 2.646150588989258 -0.6808842420578003 4456788 0 -1
-1.9282629489898682 2.801170825958252 -0.34044212102890015 4456788 0 -1
-2.7122418880462646 1.8399823904037476 -0.968950629234314 4456788 0 -1
-1.9543205499649048 2.783053398132324 -0.34044212102890015 4456788 0 -1
-1.799307107925415 2.8886666297912598 -0.3142542541027069 4456788 0 -1
-1.952755331993103 2.780824661254883 -0.366629958152771 4456788 0 -1
-1.9267185926437378 2.7989273071289062 -0.366629958152771 4456788 0 -1
-1.9612618684768677 2.792938232421875 -0.1833149790763855 4456788 0 -1
-1.8240325450897217 2.8701324462890625 -0.34044212102890015 4456788 0 -1
-1.9543205499649048 2.783053398132324 -0.34044212102890015 4456788 0 -1
-2.033557176589966 2.6740005016326904 -0.6285085082054138 4456788 0 -1
-2.033557176589966 2.6740005016326904 -0.6285085082054138 4456788 0 -1
-2.033557176589966 2.6740005016326904 -0.6285085082054138 4456788 0 -1
-1.9250584840774536 2.796515703201294 -0.39281782507896423 4456788 0 -1
-1.9250584840774536 2.796515703201294 -0.39281782507896423 4456788 0 -1
-1.9364784955978394 2.813105344772339 -0.1309392750263214 4456788 0 -1
-1.90361487865448 2.821019411087036 -0.3142542541027069 4456788 0 -1
-1.9594131708145142 2.7903056144714355 -0.23569069802761078 4456788 0 -1
-1.8799822330474854 2.842137098312378 -0.2618785500526428 4456788 0 -1
-1.9002618789672852 2.706071138381958 -0.8641992211341858 4657508 0 -1
-1.9635701179504395 2.7962253093719482 -0.07856356352567673 4724328 0 -1
-1.8287856578826904 2.8776116371154785 -0.23569069802761078 4724328 0 -1
-2.950437068939209 1.76481032371521 0.29080989956855774 4456788 0 -1
-2.005453586578369 2.7995765209198 -0.21149811148643494 4456788 0 -1
-1.8999032974243164 2.872253656387329 -0.21149811148643494 4456788 0 -1
-2.995499849319458 2.3307909965515137 -0.5886031985282898 4456788 0 -1
-2.9506802558898926 2.355133056640625 -0.7063238620758057 4456788 0 -1
-2.969893217086792 2.3704681396484375 -0.559173047542572 4456788 0 -1
-3.0004661083221436 2.3948705196380615 0.11772064119577408 4590430 0 -1
-3.0223946571350098 2.351717948913574 -0.2943015992641449 4657508 0 -1
-2.970541477203369 2.311371088027954 0.7651841640472412 4725613 0 -1
-3.056905746459961 2.378571033477783 0.029679568484425545 4456788 0 -1
-3.0537631511688232 2.3761255741119385 0.17807741463184357 4456788 0 -1
-3.056905746459961 2.378571033477783 0.029679568484425545 4456788 0 -1
-3.049717903137207 2.3729779720306396 0.26711612939834595 4456788 0 -1
-2.956820249557495 2.3600339889526367 -0.8310279250144958 4456788 0 -1
-3.020108938217163 2.410548686981201 0.26711612939834595 4456788 0 -1
-2.9044108390808105 2.554288387298584 0.20775698125362396 4456788 0 -1
-3.0277795791625977 2.355907678604126 0.5342322587966919 4456788 0 -1
-2.8962759971618652 2.5471341609954834 0.35615482926368713 4456788 0 -1
-2.955383777618408 2.478308916091919 0.35615482926368713 4456788 0 -1
-2.9950616359710693 2.390557050704956 0.5639117956161499 4523353 0 -1
-3.05475115776062 2.376894474029541 0.14839784801006317 4590430 0 -1
-2.8962759971618652 2.5471341609954834 0.35615482926368713 4657508 0 -1
-2.907231330871582 2.5567686557769775 0.11871827393770218 4724328 0 -1
-3.004859447479248 2.33807373046875 0.7123096585273743 4725613 0 -1
-3.0171597003936768 2.347644567489624 0.6232709288597107 13164576 0 -1
-2.916111946105957 2.5047836303710938 0.4748730957508087 13164576 0 -1
-3.0826845169067383 2.3986294269561768 0 4456788 0 -1
-3.231475353240967 2.192229986190796 -0.08978693187236786 4456788 0 -1
-3.0505144596099854 2.434817314147949 0.1496448814868927 4456788 0 -1
-3.076887369155884 2.394118547439575 0.23943181335926056 4456788 0 -1
-2.929938316345215 2.5767385959625244 0.17957386374473572 4456788 0 -1
-3.075345754623413 2.392918825149536 0.2693607807159424 4456788 0 -1
-2.9275238513946533 2.574615240097046 0.23943181335926056 4456788 0 -1
-3.0717151165008545 2.390094041824341 0.3292187452316284 4456788 0 -1
-3.0622551441192627 2.3827333450317383 0.4489346444606781 4456788 0 -1
-2.9275238513946533 2.574615240097046 0.23943181335926056 4456788 0 -1
-3.0498404502868652 2.3730733394622803 0.5686505436897278 4456788 0 -1
-2.9482321739196777 2.5323731899261475 0.38907670974731445 4456788 0 -1
-2.9756271839141846 2.4952845573425293 0.41900569200515747 4456788 0 -1
-3.026745319366455 2.4158456325531006 0.5087926387786865 4523353 0 -1
-2.922602653503418 2.5702872276306152 0.3292187452316284 4523353 0 -1
-3.076887369155884 2.394118547439575 0.23943181335926056 4590430 0 -1
-2.922602653503418 2.5702872276306152 0.3292187452316284 4657508 0 -1
-2.916114568710327 2.5645811557769775 0.41900569200515747 4724328 0 -1
-3.0385687351226807 2.36430287361145 0.6584374904632568 4725613 0 -1
-2.918452024459839 2.566636800765991 0.38907670974731445 4725613 0 -1
-2.952425241470337 2.5359747409820557 0.3292187452316284 2458766 0 -1
-2.8544275760650635 2.4518001079559326 1.0475142002105713 2134668 0 -1
-3.076749086380005 2.4557571411132812 0.12071353942155838 4456788 0 -1
-2.9805474281311035 2.5601303577423096 0.2716054618358612 4456788 0 -1
-3.1025280952453613 2.414069652557373 0.24142707884311676 4456788 0 -1
-2.9519200325012207 2.5960702896118164 0.24142707884311676 4456788 0 -1
-3.1038992404937744 2.4151363372802734 0.21124869585037231 4456788 0 -1
-2.955310344696045 2.5990519523620605 0.15089192986488342 4456788 0 -1
-3.095205783843994 2.408371925354004 0.36214062571525574 4456788 0 -1
-2.946957588195801 2.5917062759399414 0.3319622278213501 4456788 0 -1
-3.095205783843994 2.408371925354004 0.36214062571525574 4456788 0 -1
-3.092913866043091 2.4065887928009033 0.392318993806839 4456788 0 -1
-2.9728007316589355 2.553476333618164 0.392318993806839 4456788 0 -1
-3.0849251747131348 2.4003727436065674 0.4828541576862335 4456788 0 -1
-2.9378821849823 2.5837247371673584 0.45267578959465027 4456788 0 -1
-2.9978389739990234 2.5139105319976807 0.45267578959465027 4456788 0 -1
-3.057795524597168 2.440629005432129 0.45267578959465027 4523353 0 -1
-3.092913866043091 2.4065887928009033 0.392318993806839 4590430 0 -1
-3.0877740383148193 2.4025893211364746 0.45267578959465027 4657508 0 -1
-2.9704198837280273 2.551431179046631 0.42249739170074463 4657508 0 -1
-3.0877740383148193 2.4025893211364746 0.45267578959465027 4724328 0 -1
-2.952368974685669 2.535926580429077 0.6035677194595337 4724328 0 -1
-2.9263484477996826 2.6340208053588867 0.5172724723815918 4456788 0 -1
-3.122910261154175 2.429928779602051 0.33470574021339417 4456788 0 -1
-2.923288106918335 2.6312661170959473 0.5477002859115601 4456788 0 -1
-2.799635171890259 2.756258726119995 0.5781280994415283 4456788 0 -1
-3.12078595161438 2.4282758235931396 0.36513352394104004 4456788 0 -1
-2.913034677505493 2.622037172317505 0.6389836668968201 4456788 0 -1
-2.9200494289398193 2.6283512115478516 0.5781280994415283 4456788 0 -1
-2.773059368133545 2.7300946712493896 0.7911226153373718 4456788 0 -1
-2.905299186706543 2.6150741577148438 0.6998392343521118 4456788 0 -1
-2.78928804397583 2.7460720539093018 0.6694114804267883 4456788 0 -1
-2.841341257095337 2.6763110160827637 0.7302670478820801 4456788 0 -1
-2.879265069961548 2.6515791416168213 0.6694114804267883 4523353 0 -1
-2.775505542755127 2.7925164699554443 0.5172724723815918 4523353 0 -1
-3.113292932510376 2.42244553565979 0.45641690492630005 4590430 0 -1
-2.9267008304595947 2.5738914012908936 0.7606948614120483 4590430 0 -1
-2.953425168991089 2.5973939895629883 0.5477002859115601 4657508 0 -1
-2.777379274368286 2.7343478202819824 0.7606948614120483 4657508 0 -1
-2.87534761428833 2.6479713916778564 0.6998392343521118 4724328 0 -1
-2.811432361602783 2.7077126502990723 0.7302670478820801 4725613 0 -1
-2.5198116302490234 2.8175058364868164 1.2171117067337036 4725613 0 -1
-2.976768732070923 2.556884527206421 0.6085558533668518 4471684 0 -1
-2.8326950073242188 2.6681668758392334 0.7911226153373718 4471684 0 -1
-2.5754058361053467 3.000518798828125 -0.36513352394104004 4471684 0 -1
-3.5423455238342285 1.7505627870559692 0.3955613076686859 4505456 0 -1
-3.2850723266601562 2.097330093383789 0.7606948614120483 4505456 0 -1
-2.598193645477295 2.9051477909088135 0.7606948614120483 4505456 0 -1
-2.894784927368164 2.6658718585968018 -0.7362528443336487 4456788 0 -1
-3.004953384399414 2.6427104473114014 -0.12270880490541458 4456788 0 -1
-3.1564366817474365 2.3928840160369873 0.5828668475151062 4456788 0 -1
-2.901292562484741 2.6114680767059326 0.8896388411521912 4456788 0 -1
-3.036878824234009 2.3022475242614746 -1.2270880937576294 4456788 0 -1
-2.9113099575042725 2.6204845905303955 0.8282844424247742 4456788 0 -1
-2.7301907539367676 2.9281117916107178 0.030677201226353645 4456788 0 -1
-3.026235818862915 2.5993740558624268 -0.33744922280311584 4456788 0 -1
-2.8499629497528076 2.805806875228882 -0.18406321108341217 4456788 0 -1
-3.126474142074585 2.3701694011688232 0.7976072430610657 4456788 0 -1
-2.872931480407715 2.585939884185791 1.0430248975753784 4456788 0 -1
-2.786543607711792 2.743370294570923 0.8589616417884827 4456788 0 -1
-3.2422232627868652 2.3286478519439697 -0.30677202343940735 4456788 0 -1
-2.825368642807007 2.6612658500671387 0.9816704392433167 4456788 0 -1
-2.770035743713379 2.787013053894043 0.7669300436973572 4523353 0 -1
-2.435042381286621 3.0762171745300293 0.7976072430610657 4523353 0 -1
-3.0326712131500244 2.6049017906188965 -0.21474041044712067 4590430 0 -1
-3.1488542556762695 2.3871357440948486 -0.6442212462425232 4657508 0 -1
-2.843313455581665 2.6184706687927246 1.0430248975753784 4657508 0 -1
-2.8423893451690674 2.737527370452881 0.6748984456062317 4725613 0 -1
-2.8859760761260986 2.657759428024292 0.7976072430610657 4471684 0 -1
-2.9936299324035645 2.6327521800994873 -0.36812642216682434 4341894 0 -1
-2.426013708114624 2.8846535682678223 1.3497968912124634 4341894 0 -1
-2.1617462635040283 3.4015285968780518 -0.21648626029491425 4456788 0 -1
-2.275362968444824 3.3053998947143555 -0.4329725205898285 4456788 0 -1
-2.404961109161377 3.1623737812042236 -0.7113119959831238 4456788 0 -1
-3.1359541416168213 2.3773562908172607 -0.8968716859817505 4456788 0 -1
-3.0138120651245117 2.588702917098999 -0.7113119959831238 4456788 0 -1
-2.397955894470215 3.1531622409820557 -0.773165225982666 4456788 0 -1
-2.2818408012390137 3.314810276031494 -0.3092660903930664 4456788 0 -1
-3.2781243324279785 2.3544328212738037 -0.03092660941183567 4456788 0 -1
-2.4530484676361084 3.161731719970703 0.5257523655891418 4523353 0 -1
-3.161513090133667 2.3967323303222656 -0.7422386407852173 4657508 0 -1
-2.401534080505371 3.157867431640625 -0.7422386407852173 4657508 0 -1
-2.9067249298095703 2.7378969192504883 0.5876055955886841 4729209 0 -1
-2.3205626010894775 3.3046011924743652 -0.49881628155708313 4456788 0 -1
-2.1194090843200684 3.4718260765075684 0.09352805465459824 4456788 0 -1
-3.1279103755950928 2.5596303939819336 -0.4676402509212494 4456788 0 -1
-2.45566463470459 3.2290456295013428 -0.31176018714904785 4456788 0 -1
-2.374976873397827 3.2500510215759277 0.592344343662262 4456788 0 -1
-2.2380740642547607 3.3834965229034424 0.31176018714904785 4456788 0 -1
-3.2307682037353516 2.4492344856262207 -0.3429361879825592 4456788 0 -1
-2.5205085277557373 3.184187650680542 0.24940814077854156 4523353 0 -1
-2.287557601928711 3.1933887004852295 1.059984564781189 4729209 0 -1
-2.3828680515289307 3.1333227157592773 1.02880859375 4664956 0 -1
-2.2797434329986572 3.2464723587036133 0.9041045308113098 4664956 0 -1
-3.0122592449188232 2.7113494873046875 0.6285085082054138 4456788 0 -1
-2.331115961074829 3.1900291442871094 1.099889874458313 4456788 0 -1
-2.4370386600494385 3.269162893295288 -0.4399559497833252 4456788 0 -1
-3.3309974670410156 2.3924076557159424 -0.03142542764544487 4456788 0 -1
-3.390357255935669 2.3000152111053467 0.18855255842208862 4523353 0 -1
-2.3286211490631104 3.2507126331329346 0.9113373756408691 4729209 0 -1
-2.3261938095092773 3.3126204013824463 0.6599339246749878 4664956 0 -1
-2.349616765975952 3.2153468132019043 1.108619213104248 4456788 0 -1
-3.3140225410461426 2.446230888366699 -0.34842318296432495 4456788 0 -1
-2.3072502613067627 3.351722478866577 0.7285211682319641 4664956 0 -1
-2.353987455368042 3.419616937637329 0.35116666555404663 4600703 0 -1
-3.154714345932007 2.6454622745513916 0.6384848356246948 4536450 0 -1
-2.348761796951294 3.4120256900787354 0.4469393789768219 4536450 0 -1
-3.0719964504241943 2.7651195526123047 0.7399939298629761 4600703 0 -1
-2.401022434234619 3.419179916381836 0.4182574450969696 4600703 0 -1
3.6787331104278564 1.8964579105377197 -0.7078202962875366 4600703 0 -1
-2.587898015975952 3.140174388885498 -1.274226188659668 4456788 0 -1
-2.587898015975952 3.140174388885498 -1.274226188659668 4456788 0 -1
-3.381868839263916 4.021214008331299 -0.44444531202316284 4456788 0 -1
-4.367838382720947 2.5237669944763184 -1.5353565216064453 4456788 0 -1
-3.3890604972839355 4.0297651290893555 -0.28282883763313293 4523353 0 -1
-3.4139938354492188 4.059412479400635 0.1219605803489685 4456788 0 -1
-3.2420008182525635 3.8549036979675293 1.6667946577072144 4456788 0 -1
-3.4048566818237305 4.048547744750977 -0.406535267829895 4456788 0 -1
-4.593848705291748 2.6543571949005127 0 4456788 0 -1
-3.406766414642334 4.05081844329834 -0.3658817410469055 4523353 0 -1
-4.99521541595459 1.1819818019866943 1.3415664434432983 4600703 0 -1
-4.756229400634766 1.806870460510254 1.5041805505752563 4471684 0 -1
-4.114744663238525 3.1193740367889404 1.219605803489685 4471684 0 -1
-3.435443162918091 4.084916591644287 -0.08180586993694305 4456788 0 -1
-3.4236202239990234 4.070858478546143 -0.4499322772026062 4456788 0 -1
-3.5993525981903076 3.9418892860412598 -0.04090293496847153 4456788 0 -1
-3.4257452487945557 4.073385238647461 -0.40902936458587646 4456788 0 -1
-3.4276669025421143 4.07567024230957 -0.36812642216682434 4456788 0 -1
-3.429385185241699 4.077713489532471 -0.3272234797477722 4456788 0 -1
-4.621895790100098 2.670563220977783 -0.04090293496847153 4456788 0 -1
-3.5175492763519287 4.015056610107422 0.04090293496847153 4456788 0 -1
-3.5990355014801025 3.941542148590088 -0.08180586993694305 4523353 0 -1
-3.3828628063201904 4.104790210723877 -0.4499322772026062 4523353 0 -1
-3.454258918762207 4.1072893142700195 -0.20576171576976776 4456788 0 -1
-3.442152738571167 4.092894554138184 -0.4938281178474426 4456788 0 -1
-3.577625274658203 4.000290870666504 -0.20576171576976776 4456788 0 -1
-3.45029616355896 4.102577209472656 -0.3292187452316284 4456788 0 -1
-3.45029616355896 4.102577209472656 -0.3292187452316284 4456788 0 -1
-3.4485671520233154 4.100521564483643 -0.37037110328674316 4456788 0 -1
-4.650214672088623 2.6869261264801025 0 4456788 0 -1
-3.4953811168670654 4.072350978851318 -0.20576171576976776 4456788 0 -1
-3.577625274658203 4.000290870666504 -0.20576171576976776 4523353 0 -1
-3.401174783706665 4.127010345458984 -0.4938281178474426 4523353 0 -1
-3.4551727771759033 4.1083760261535645 -0.1646093726158142 4590430 0 -1
-3.6197047233581543 3.9641783237457275 -0.1646093726158142 4657508 0 -1
-3.453141689300537 4.105960845947266 -0.2469140589237213 4657508 0 -1
-3.4978466033935547 4.075223445892334 -0.04115234315395355 4724328 0 -1
-3.45767879486084 4.111355781555176 -0.5796245336532593 4456788 0 -1
-3.6124095916748047 3.7934162616729736 -1.3248560428619385 4456788 0 -1
-3.407066822052002 4.134159564971924 -0.7038297653198242 4456788 0 -1
-3.391566038131714 4.115350723266602 -0.8694368004798889 4456788 0 -1
-4.6778483390808105 2.702893018722534 0.08280350267887115 4456788 0 -1
-3.474069833755493 4.130845546722412 -0.24841050803661346 4590430 0 -1
-3.8926162719726562 3.749009370803833 -0.5831162333488464 4456788 0 -1
-3.6635799407958984 4.012228965759277 -0.1666046380996704 4456788 0 -1
-4.032564640045166 3.6297316551208496 0.3332092761993408 4456788 0 -1
-3.737583637237549 3.9248623847961426 -0.416511595249176 4456788 0 -1
-3.744640588760376 3.9322729110717773 -0.24990695714950562 4456788 0 -1
-4.7053375244140625 2.718776226043701 0.12495347857475281 4456788 0 -1
-4.529168128967285 2.9822263717651367 0.3748604357242584 4456788 0 -1
-4.285703659057617 3.163473129272461 -1.0829302072525024 4456788 0 -1
-3.9052979946136475 3.678471088409424 -0.874674379825592 4456788 0 -1
-3.8305041790008545 3.6891887187957764 1.1245813369750977 4657508 0 -1
-3.716665267944336 3.90289568901062 0.7080697417259216 4657508 0 -1
-3.9460811614990234 3.551887273788452 1.1662324666976929 4724328 0 -1
-3.4862475395202637 4.145325660705566 0.45816275477409363 4724328 0 -1
-4.063281059265137 3.657379627227783 -0.12570171058177948 4456788 0 -1
-4.062445640563965 3.656627655029297 -0.1676022708415985 4456788 0 -1
-4.460808277130127 2.9372150897979736 -1.1732158660888672 4456788 0 -1
-4.020564556121826 3.702627182006836 -0.1676022708415985 4523353 0 -1
-4.003189563751221 3.770676851272583 0.12644992768764496 4456788 0 -1
-4.71220064163208 2.7227420806884766 -0.8008495569229126 4456788 0 -1
-4.046278953552246 3.7263081073760986 -0.04214997589588165 4456788 0 -1
-4.487360954284668 2.954698324203491 -1.180199384689331 4456788 0 -1
-4.62616491317749 2.76715087890625 -1.0958993434906006 4523353 0 -1
-4.7129082679748535 2.8190362453460693 -0.6783901453018188 4456788 0 -1
-3.5613765716552734 4.149240493774414 0.847987711429596 4456788 0 -1
-3.447126626968384 4.268074989318848 0.7207895517349243 4456788 0 -1
-4.62156343460083 2.7643983364105225 1.2719814777374268 4456788 0 -1
-4.717260360717773 2.8216397762298584 -0.6359907388687134 4456788 0 -1
-4.530445575714111 2.8924293518066406 -1.3143808841705322 4456788 0 -1
-4.7129082679748535 2.8190362453460693 -0.6783901453018188 4523353 0 -1
4.6572184562683105 2.9733667373657227 0.29679569602012634 4523353 0 -1
-3.51408314704895 4.264013767242432 0.29679569602012634 4471684 0 -1
-3.6890857219696045 4.040162086486816 1.0235710144042969 4456788 0 -1
-3.5823259353637695 4.173647403717041 0.8529758453369141 4456788 0 -1
-3.694350242614746 4.04592752456665 0.9809222221374512 4456788 0 -1
2.8269221782684326 4.921815872192383 0.48011067509651184 4456788 5 -1
2.772298812866211 4.9267578125 0.6983428001403809 4456788 5 -1
2.8886075019836426 4.927616596221924 0.4389583170413971 4456788 5 -1
2.7993364334106445 4.974807262420654 0.4828541576862335 4456788 5 -1
2.839038372039795 4.942910671234131 0.570645809173584 4456788 5 -1
