VERSION .7
FIELDS x y z rgb label object
SIZE 4 4 4 4 4 4
TYPE F F F I I I
COUNT 1 1 1 1 1 1
WIDTH 691
HEIGHT 1
POINTS 691
VIEWPOINT 0 0 0 1 0 0 0
DATA ascii
-2.8515074253082275 2.62601637840271 0.4788636267185211 4456788 0 -1
-3.002794027328491 2.457245111465454 0.4489346444606781 4456788 0 -1
-2.6514475345611572 2.7843034267425537 0.6883664727210999 4456788 0 -1
-2.9970712661743164 2.452562093734741 0.5087926387786865 4456788 0 -1
-3.0120701789855957 2.4648358821868896 0.3292187452316284 4456788 0 -1
-3.0171420574188232 2.4689862728118896 0.23943181335926056 4456788 0 -1
-3.000023365020752 2.4549779891967773 0.4788636267185211 4456788 0 -1
-3.0171420574188232 2.4689862728118896 0.23943181335926056 4456788 0 -1
-3.0053834915161133 2.459364175796509 0.41900569200515747 4456788 0 -1
-3.0053834915161133 2.459364175796509 0.41900569200515747 4456788 0 -1
-3.010021209716797 2.4631590843200684 0.35914772748947144 4523353 0 -1
-3.6460790634155273 1.3851292133331299 0.20950284600257874 4657508 0 -1
-2.975513219833374 2.4349207878112793 0.6883664727210999 4657508 0 -1
-2.8541407585144043 2.628441572189331 0.4489346444606781 4657508 0 -1
-3.0053834915161133 2.459364175796509 0.41900569200515747 4726897 0 -1
-2.975513219833374 2.4349207878112793 0.6883664727210999 4728182 0 -1
-3.0156302452087402 2.4677493572235107 0.2693607807159424 4212104 0 -1
-3.030428409576416 2.479858875274658 0.42249739170074463 4456788 0 -1
-3.037170648574829 2.4853761196136475 0.3319622278213501 4456788 0 -1
-3.0407605171203613 2.488313913345337 0.2716054618358612 4456788 0 -1
-3.0120127201080322 2.4647889137268066 0.6035677194595337 4456788 0 -1
-3.030428409576416 2.479858875274658 0.42249739170074463 4456788 0 -1
-3.037170648574829 2.4853761196136475 0.3319622278213501 4456788 0 -1
-3.0328571796417236 2.481846570968628 0.392318993806839 4456788 0 -1
-3.030428409576416 2.479858875274658 0.42249739170074463 4456788 0 -1
-3.030428409576416 2.479858875274658 0.42249739170074463 4523353 0 -1
-3.0155420303344727 2.467677116394043 0.5733892917633057 4657508 0 -1
-3.0155420303344727 2.467677116394043 0.5733892917633057 4725613 0 -1
-3.0278172492980957 2.47772216796875 0.45267578959465027 4726897 0 -1
-3.00439715385437 2.458556890487671 0.6639244556427002 4728182 0 -1
-3.0962460041046143 2.4713189601898193 0.27385014295578003 4456788 0 -1
-3.126601457595825 2.4328010082244873 0.27385014295578003 4456788 0 -1
-2.717650890350342 2.793719530105591 0.7606948614120483 4456788 0 -1
3.80246901512146 1.1410726308822632 -0.09128338098526001 4456788 0 -1
-3.0977983474731445 2.472557783126831 0.24342234432697296 4456788 0 -1
-2.8326950073242188 2.6681668758392334 0.7911226153373718 4456788 0 -1
-2.9973692893981934 2.5745794773101807 0.3955613076686859 4456788 0 -1
-3.0554730892181396 2.5003535747528076 0.4259890913963318 4456788 0 -1
-2.8371078968048096 2.67232346534729 0.7606948614120483 4456788 0 -1
-3.0528404712677 2.498199224472046 0.45641690492630005 4456788 0 -1
-3.0226144790649414 2.534686803817749 0.45641690492630005 4523353 0 -1
-2.8326950073242188 2.6681668758392334 0.7911226153373718 4523353 0 -1
-2.9973692893981934 2.5745794773101807 0.3955613076686859 4590430 0 -1
-2.743241548538208 2.760054588317871 0.7911226153373718 4590430 0 -1
-3.083066701889038 2.4607994556427 0.45641690492630005 4657508 0 -1
-3.0739729404449463 2.4535412788391113 0.5477002859115601 4725613 0 -1
-2.7967028617858887 2.634265184402466 1.0041171312332153 4725613 0 -1
-2.588827610015869 2.8351964950561523 1.135056495666504 4456788 0 -1
-2.9436278343200684 2.7108521461486816 -0.12270880490541458 4456788 0 -1
-2.871382474899292 2.644319772720337 0.8896388411521912 4456788 0 -1
-3.1054697036743164 2.4786808490753174 0.4908352196216583 4456788 0 -1
-2.2192575931549072 3.098043203353882 1.2270880937576294 4456788 0 -1
-3.254492998123169 2.2726681232452393 0.5215124487876892 4523353 0 -1
-2.843313455581665 2.6184706687927246 1.0430248975753784 4523353 0 -1
-2.401080369949341 3.094750165939331 0.8282844424247742 4523353 0 -1
-2.2391765117645264 3.1887030601501465 0.9203160405158997 4523353 0 -1
-2.57623553276062 2.821406126022339 1.196410894393921 4657508 0 -1
-3.0631039142608643 2.5686402320861816 -0.5566789507865906 4456788 0 -1
-2.1617462635040283 3.4015285968780518 -0.21648626029491425 4456788 0 -1
-2.3096697330474854 3.2890889644622803 -0.37111932039260864 4456788 0 -1
-2.276540517807007 3.2419114112854004 -0.773165225982666 4456788 0 -1
-2.3501462936401367 3.280761480331421 -0.06185321882367134 4456788 0 -1
-2.319427728652954 3.3029849529266357 0.03092660941183567 4456788 0 -1
-2.196099042892456 3.1273586750030518 -1.2989176511764526 4523353 0 -1
-3.2205305099487305 2.2489516735076904 -0.9277982711791992 4590430 0 -1
-3.127636671066284 2.4963738918304443 -0.5257523655891418 4590430 0 -1
-2.1941771507263184 3.3840930461883545 -0.1546330451965332 4590430 0 -1
-3.175285577774048 2.2173562049865723 -1.2470407485961914 4456788 0 -1
-2.4783935546875 3.068633794784546 -0.9976325631141663 4456788 0 -1
-3.2064085006713867 2.2390899658203125 -1.1223366260528564 4456788 0 -1
-2.4360029697418213 3.1397616863250732 -0.8729285001754761 4456788 0 -1
-2.3609459400177 3.295837879180908 -0.3429361879825592 4456788 0 -1
-2.283752679824829 3.2521820068359375 -0.8729285001754761 4456788 0 -1
-2.337583541870117 3.3288397789001465 -0.09352805465459824 4456788 0 -1
-3.3349523544311523 2.3288543224334717 -0.09352805465459824 4456788 0 -1
-2.337583541870117 3.3288397789001465 -0.09352805465459824 4456788 0 -1
-2.3348355293273926 3.3249263763427734 0.21823212504386902 4523353 0 -1
-3.2581539154052734 2.2752246856689453 -0.8729285001754761 4590430 0 -1
-3.0526554584503174 2.4980475902557373 0.9976325631141663 4590430 0 -1
-3.3616321086883545 2.347485303878784 0.09427627921104431 4456788 0 -1
-3.3295302391052246 2.3913538455963135 -0.12570171058177948 4456788 0 -1
-3.259873390197754 2.276425361633301 1.0056136846542358 4523353 0 -1
-3.305173635482788 2.3080594539642334 0.7542102336883545 4590430 0 -1
-3.150726318359375 2.514803171157837 0.7542102336883545 4590430 0 -1
-3.355954885482788 2.4103329181671143 -0.12669934332370758 4456788 0 -1
-3.2826693058013916 2.8869481086730957 1.0325497388839722 4456788 0 -1
-3.270028591156006 2.875831365585327 1.101386308670044 4523353 0 -1
-3.293724536895752 2.8966708183288574 1.1093673706054688 4456788 0 -1
-3.293724536895752 2.8966708183288574 1.1093673706054688 4523353 0 -1
-2.738907814025879 3.674104928970337 0.602071225643158 4456788 0 -1
-2.7465038299560547 3.6842947006225586 0.49582338333129883 4523353 0 -1
-2.7522590160369873 3.692014694213867 0.6776419281959534 4456788 0 -1
-2.7609126567840576 3.7036232948303223 0.570645809173584 4523353 0 -1
-3.1277472972869873 4.195713043212891 -0.6464658975601196 4456788 0 -1
-3.2940192222595215 4.07850456237793 -0.5656576752662659 4456788 0 -1
-4.35703706741333 2.5175259113311768 -1.5757606029510498 4456788 0 -1
-3.4815635681152344 3.892880439758301 -0.7272741198539734 4523353 0 -1
-4.915118217468262 1.326340913772583 1.3737400770187378 4657508 0 -1
-3.961322784423828 3.1617939472198486 1.4545482397079468 4657508 0 -1
-2.8308424949645996 4.112340450286865 1.6969729661941528 4657508 0 -1
4.776226043701172 2.1506001949310303 0.6060617566108704 4657508 0 -1
-4.121009349822998 3.0419046878814697 1.2525277137756348 4724328 0 -1
-3.776651620864868 3.243941068649292 1.7373771667480469 4724328 0 -1
-2.9515738487243652 4.1203436851501465 1.4545482397079468 4724328 0 -1
4.9049458503723145 1.739627718925476 0.8484864830970764 4724328 0 -1
-3.1648104190826416 3.9185237884521484 -1.6667946577072144 4456788 0 -1
-3.3733510971069336 4.0932488441467285 0.1219605803489685 4456788 0 -1
-3.5317654609680176 3.9490134716033936 0.2845746874809265 4456788 0 -1
-3.5317654609680176 3.9490134716033936 0.2845746874809265 4456788 0 -1
-3.3143527507781982 4.10368013381958 -0.569149374961853 4456788 0 -1
-4.593848705291748 2.6543571949005127 0 4456788 0 -1
-3.526458740234375 3.9430794715881348 0.406535267829895 4523353 0 -1
-3.374143600463867 4.094210624694824 0.0406535267829895 4523353 0 -1
-3.057058095932007 4.019840717315674 1.62614107131958 4471684 0 -1
-3.554792642593384 3.9747607707977295 -0.24541760981082916 4456788 0 -1
-3.331812858581543 4.125298976898193 0.6135440468788147 4456788 0 -1
-3.353154420852661 4.1517229080200195 0.12270880490541458 4456788 0 -1
-3.5581374168395996 3.9785008430480957 0.08180586993694305 4456788 0 -1
-3.3524649143218994 4.150868892669678 -0.1636117398738861 4456788 0 -1
-3.558450937271118 3.978851318359375 0.04090293496847153 4456788 0 -1
-3.3515782356262207 4.149771213531494 -0.20451468229293823 4456788 0 -1
-3.557615041732788 3.977916717529297 -0.12270880490541458 4456788 0 -1
-3.339832067489624 4.135227680206299 -0.4908352196216583 4456788 0 -1
-4.6220316886901855 2.6706416606903076 0 4456788 0 -1
-3.5581374168395996 3.9785008430480957 0.08180586993694305 4523353 0 -1
-3.353646755218506 4.152332305908203 -0.08180586993694305 4523353 0 -1
-3.3540406227111816 4.152820110321045 0 4590430 0 -1
-3.229813814163208 4.247003555297852 0.1636117398738861 4471684 0 -1
-3.7842369079589844 3.8074302673339844 -0.1646093726158142 4456788 0 -1
-3.501394510269165 3.996617078781128 -0.7818945050239563 4456788 0 -1
-3.5386860370635986 4.039182662963867 -0.0823046863079071 4456788 0 -1
-3.5324459075927734 4.032060146331787 -0.3292187452316284 4456788 0 -1
-3.5785717964172363 4.001349449157715 -0.1646093726158142 4456788 0 -1
-4.650078296661377 2.68684720993042 0.04115234315395355 4456788 0 -1
-3.577625274658203 4.000290870666504 -0.20576171576976776 4523353 0 -1
-3.52410888671875 4.022543907165527 -0.4938281178474426 4590430 0 -1
-3.5340070724487305 4.033842086791992 -0.28806641697883606 4657508 0 -1
-3.8431220054626465 3.783578395843506 -0.3312140107154846 4456788 0 -1
-3.841196298599243 3.7816824913024902 -0.3726157546043396 4456788 0 -1
-3.8001885414123535 3.7413101196289062 0.8694368004798889 4456788 0 -1
-3.850249767303467 3.790595769882202 -0.04140175133943558 4456788 0 -1
-3.8499107360839844 3.790261745452881 -0.08280350267887115 4456788 0 -1
-4.676199913024902 2.7019405364990234 0.1656070053577423 4456788 0 -1
-3.850249767303467 3.790595769882202 -0.04140175133943558 4523353 0 -1
-3.8493454456329346 3.789705276489258 -0.12420525401830673 4590430 0 -1
-3.533690929412842 4.033481121063232 -0.6624280214309692 4590430 0 -1
-3.740161418914795 3.6822128295898438 1.2834542989730835 4657508 0 -1
-3.9959959983825684 3.596816062927246 0.5382227897644043 4728182 0 -1
-3.8462915420532227 3.786698818206787 0.24841050803661346 4728182 0 -1
-3.99275541305542 3.6770172119140625 -0.2915581166744232 4456788 0 -1
-3.8643360137939453 3.8044636249542236 -0.3748604357242584 4456788 0 -1
-3.912004232406616 3.602651596069336 1.1245813369750977 4456788 0 -1
-3.7959091663360596 3.7370970249176025 1.0829302072525024 4456788 0 -1
-3.9955756664276123 3.679614305496216 -0.208255797624588 4456788 0 -1
-3.9955756664276123 3.679614305496216 -0.208255797624588 4456788 0 -1
-4.704370021820068 2.718217134475708 0.1666046380996704 4456788 0 -1
-4.5266289710998535 2.9805545806884766 0.416511595249176 4456788 0 -1
-3.9889919757843018 3.673551321029663 -0.3748604357242584 4456788 0 -1
-3.9955756664276123 3.679614305496216 -0.208255797624588 4523353 0 -1
-3.9955756664276123 3.679614305496216 -0.208255797624588 4523353 0 -1
-3.8717379570007324 3.811750888824463 -0.1666046380996704 4590430 0 -1
-3.86043381690979 3.555159330368042 1.4161394834518433 4657508 0 -1
-3.755310297012329 3.697127103805542 1.3328371047973633 4657508 0 -1
-3.955909490585327 3.64308500289917 0.7913720607757568 4726897 0 -1
-3.986755847930908 3.671491861343384 0.416511595249176 4728182 0 -1
-3.928785562515259 3.61810564994812 1.1732158660888672 4456788 0 -1
-3.7650861740112305 3.7881619930267334 1.1732158660888672 4456788 0 -1
-3.6855175495147705 4.036254405975342 0.1676022708415985 4456788 0 -1
-4.1889495849609375 3.5127453804016113 -0.12570171058177948 4456788 0 -1
-4.021982192993164 3.703932523727417 -0.08380113542079926 4456788 0 -1
-4.019501209259033 3.701647996902466 -0.20950284600257874 4456788 0 -1
-3.9786837100982666 3.7475945949554443 -0.1676022708415985 4456788 0 -1
-4.1889495849609375 3.5127453804016113 -0.12570171058177948 4523353 0 -1
-4.021982192993164 3.703932523727417 -0.08380113542079926 4523353 0 -1
-4.1895647048950195 3.513261318206787 -0.08380113542079926 4590430 0 -1
-4.02139139175415 3.7033886909484863 -0.12570171058177948 4590430 0 -1
-3.6862757205963135 4.037084579467773 -0.12570171058177948 4590430 0 -1
-3.9560883045196533 3.317473888397217 1.8017244338989258 4657508 0 -1
-3.866389036178589 3.5606436729431152 1.508420467376709 4657508 0 -1
-4.095569610595703 3.5178747177124023 1.053749442100525 4456788 0 -1
-3.660151720046997 4.092567443847656 0.3371998071670532 4456788 0 -1
-4.168435096740723 3.5804622173309326 -0.2528998553752899 4456788 0 -1
-3.656266927719116 4.088223457336426 0.42149975895881653 4456788 0 -1
-4.170886993408203 3.582568407058716 -0.1685999035835266 4456788 0 -1
-3.5138888359069824 4.178192615509033 0.6743996143341064 4456788 0 -1
-4.528598308563232 2.981851100921631 -0.9272994995117188 4456788 0 -1
-4.1650004386901855 3.577511787414551 -0.3371998071670532 4523353 0 -1
-3.9682183265686035 3.327645778656006 1.8545989990234375 4590430 0 -1
-3.7110002040863037 3.814873456954956 1.3909492492675781 4590430 0 -1
-3.656266927719116 4.088223457336426 0.42149975895881653 4590430 0 -1
-3.656266927719116 4.088223457336426 0.42149975895881653 4590430 0 -1
-3.649445056915283 4.08059549331665 0.8055883049964905 4456788 0 -1
-3.4891645908355713 4.2337775230407715 0.7207895517349243 4456788 0 -1
-3.559875011444092 4.232872486114502 0.1695975363254547 4456788 0 -1
-4.112257480621338 3.701463222503662 -0.08479876816272736 4456788 0 -1
-3.5346810817718506 4.202915668487549 0.6783901453018188 4456788 0 -1
-4.555394649505615 2.999495029449463 -0.9327864646911621 4456788 0 -1
-3.5530693531036377 4.224780082702637 0.3815944492816925 4523353 0 -1
-3.53794527053833 4.206796646118164 0.6359907388687134 4590430 0 -1
-3.7041869163513184 4.056700229644775 0.8956246376037598 4456788 0 -1
-3.4731359481811523 4.129735469818115 1.3647613525390625 4456788 0 -1
-3.790278434753418 4.065048694610596 -0.2985415458679199 4456788 0 -1
-3.54826021194458 4.219061851501465 -0.7676782608032227 4456788 0 -1
-3.6890857219696045 4.040162086486816 1.0235710144042969 4523353 0 -1
-3.479963541030884 4.137853622436523 1.3221125602722168 4523353 0 -1
-3.6656970977783203 4.014547824859619 1.1941661834716797 4590430 0 -1
-3.516153573989868 4.180885314941406 1.0662198066711426 4590430 0 -1
-3.624117374420166 4.397530555725098 1.7343841791152954 4456788 0 -1
-3.4993362426757812 4.694180965423584 -1.0954005718231201 4456788 0 -1
-3.700044870376587 4.48966121673584 1.2779673337936401 4456788 0 -1
-3.7792415618896484 4.585759162902832 -0.41077521443367004 4456788 0 -1
-3.7559831142425537 4.557537078857422 -0.7759087085723877 4456788 0 -1
-3.73987078666687 4.630537509918213 -0.22820845246315002 4456788 0 -1
-3.774779796600342 4.580345153808594 -0.5020585656166077 4523353 0 -1
-3.6574432849884033 4.4379682540893555 1.5518174171447754 4590430 0 -1
-3.6037049293518066 4.552602291107178 -1.468515157699585 4456788 0 -1
-3.648195266723633 4.51702880859375 -1.468515157699585 4456788 0 -1
-3.5689821243286133 4.787607192993164 -0.4589109718799591 4456788 0 -1
-3.7613019943237305 4.6570725440979 0.18356439471244812 4456788 0 -1
-3.7629594802856445 4.659124851226807 -0.04589109867811203 4456788 0 -1
-3.7629594802856445 4.659124851226807 -0.04589109867811203 4456788 0 -1
-3.7496793270111084 4.64268159866333 -0.5048021078109741 4456788 0 -1
-3.7161967754364014 4.694714546203613 -0.1376732885837555 4456788 0 -1
-3.7132484912872314 4.690989971160889 -0.275346577167511 4456788 0 -1
-3.7118279933929443 4.68919563293457 -0.3212376832962036 4523353 0 -1
-3.542750120162964 4.386471748352051 2.0192084312438965 4590430 0 -1
-3.7630701065063477 4.659261703491211 0 4657508 0 -1
-3.544360876083374 4.850301265716553 -0.4152645468711853 4456788 0 -1
-3.7369420528411865 4.720922470092773 -0.09228101372718811 4456788 0 -1
-3.7373809814453125 4.7214765548706055 0 4456788 0 -1
-3.575108766555786 4.795825958251953 -0.692107617855072 4456788 0 -1
-3.7240817546844482 4.704675674438477 -0.5075455904006958 4456788 0 -1
-3.7303526401519775 4.712597846984863 -0.36912405490875244 4456788 0 -1
-3.721548318862915 4.701475143432617 -0.5536860823631287 4456788 0 -1
-3.4942002296447754 4.877840042114258 -0.5075455904006958 4456788 0 -1
-3.726393222808838 4.7075958251953125 -0.46140506863594055 4523353 0 -1
-3.7284834384918213 4.710236072540283 -0.4152645468711853 4590430 0 -1
-3.736393451690674 4.720229148864746 -0.13842152059078217 4657508 0 -1
-3.544360876083374 4.850301265716553 -0.4152645468711853 4657508 0 -1
-3.5514111518859863 4.859949111938477 -0.6494588255882263 4456788 0 -1
-3.7292370796203613 4.711188316345215 -0.7422386407852173 4456788 0 -1
-3.5080983638763428 4.897241592407227 -0.6030688881874084 4456788 0 -1
-3.6897776126861572 4.75575065612793 -0.6494588255882263 4456788 0 -1
-3.5080983638763428 4.897241592407227 -0.6030688881874084 4456788 0 -1
-3.679572582244873 4.742597579956055 -0.7886285185813904 4456788 0 -1
-3.456186056137085 4.921787738800049 -0.6958487033843994 4456788 0 -1
-3.6897776126861572 4.75575065612793 -0.6494588255882263 4523353 0 -1
-3.902867317199707 5.23549747467041 -0.40104830265045166 4456788 0 -1
-3.918156623840332 5.1521315574646 0.9524896740913391 4456788 0 -1
-3.930476188659668 5.168330669403076 0.8020966053009033 4456788 0 -1
-3.9435746669769287 5.185554504394531 0.6015724539756775 4456788 0 -1
-3.940654754638672 5.18171501159668 0.6517034769058228 4456788 0 -1
-3.930476188659668 5.168330669403076 0.8020966053009033 4523353 0 -1
-3.940654754638672 5.18171501159668 0.6517034769058228 4590430 0 -1
-3.9135708808898926 5.146101474761963 1.0026206970214844 4657508 0 -1
-3.9705798625946045 5.221064567565918 -0.45342400670051575 4456788 0 -1
-3.97713303565979 5.229681491851807 0.2519022226333618 4456788 0 -1
-3.9658923149108887 5.214900493621826 0.5541849136352539 4456788 0 -1
-3.942017078399658 5.183506488800049 0.9068480134010315 4456788 0 -1
-3.9570882320404053 5.203323841094971 0.7053261995315552 4456788 0 -1
-3.953678607940674 5.198840618133545 0.7557066679000854 4456788 0 -1
-3.9602599143981934 5.207494735717773 0.6549457907676697 4456788 0 -1
-3.95003080368042 5.19404411315918 0.8060871362686157 4523353 0 -1
-3.95003080368042 5.19404411315918 0.8060871362686157 4590430 0 -1
-3.946143865585327 5.1889328956604 0.8564675450325012 4657508 0 -1
-3.987999200820923 5.243969917297363 0.5062985420227051 4456788 0 -1
-3.979865074157715 5.233273983001709 0.6581881046295166 4456788 0 -1
-3.965679168701172 5.214620590209961 0.8607075214385986 4456788 0 -1
-3.976677656173706 5.229083061218262 0.7088179588317871 4456788 0 -1
-3.969585418701172 5.219757080078125 0.8100776672363281 4456788 0 -1
-3.976677656173706 5.229083061218262 0.7088179588317871 4456788 0 -1
-3.969585418701172 5.219757080078125 0.8100776672363281 4523353 0 -1
-3.969585418701172 5.219757080078125 0.8100776672363281 4590430 0 -1
-3.965679168701172 5.214620590209961 0.8607075214385986 4657508 0 -1
-3.9488441944122314 5.297173023223877 0.6614304184913635 4456788 0 -1
-3.94228196144104 5.288370132446289 0.763188898563385 4456788 0 -1
-3.945681571960449 5.292930603027344 0.7123096585273743 4456788 0 -1
-3.9386446475982666 5.2834906578063965 0.8140681982040405 4456788 0 -1
-3.94228196144104 5.288370132446289 0.763188898563385 4456788 0 -1
-3.9386446475982666 5.2834906578063965 0.8140681982040405 4523353 0 -1
-3.9386446475982666 5.2834906578063965 0.8140681982040405 4590430 0 -1
-3.9810471534729004 5.234828472137451 0.915826678276062 4657508 0 -1
-3.7834105491638184 5.496127605438232 0.05112867057323456 4456788 0 -1
-3.7780752182006836 5.488376617431641 0.3579006791114807 4456788 0 -1
-3.7795207500457764 5.490477085113525 0.30677202343940735 4456788 0 -1
-3.7830772399902344 5.495643138885498 0.10225734114646912 4456788 0 -1
-3.7795207500457764 5.490477085113525 -0.30677202343940735 4456788 0 -1
-3.7253737449645996 5.5207343101501465 -0.40902936458587646 4456788 0 -1
-3.7830772399902344 5.495643138885498 -0.10225734114646912 4523353 0 -1
-3.9759438037872314 5.228117942810059 1.1759593486785889 4590430 0 -1
-3.7512848377227783 5.449458599090576 0.8691873550415039 4590430 0 -1
-3.7795207500457764 5.490477085113525 0.30677202343940735 4657508 0 -1
-3.746633768081665 5.552240371704102 -0.3082684576511383 4456788 0 -1
-3.7965047359466553 5.5151495933532715 -0.3596465289592743 4456788 0 -1
-3.7991864681243896 5.519044876098633 -0.2568903863430023 4456788 0 -1
-3.7478461265563965 5.554036617279053 -0.2568903863430023 4456788 0 -1
-4.571440696716309 4.9028401374816895 0.15413422882556915 4456788 0 -1
-3.741670608520508 5.544885158538818 -0.46240270137786865 4456788 0 -1
-3.746633768081665 5.552240371704102 -0.3082684576511383 4523353 0 -1
-3.7965047359466553 5.5151495933532715 -0.3596465289592743 4590430 0 -1
-3.8009731769561768 5.521640300750732 -0.15413422882556915 4657508 0 -1
-3.763381242752075 5.577058792114258 -0.36139240860939026 4456788 0 -1
-3.7648212909698486 5.579193115234375 -0.30976492166519165 4456788 0 -1
-3.7660393714904785 5.580997943878174 -0.25813743472099304 4456788 0 -1
-3.763381242752075 5.577058792114258 -0.36139240860939026 4456788 0 -1
-3.7660393714904785 5.580997943878174 -0.25813743472099304 4523353 0 -1
-3.813249349594116 5.539474010467529 -0.41301989555358887 4590430 0 -1
-4.147271633148193 5.239295959472656 -1.0894147157669067 4456788 0 -1
-3.7865684032440186 5.611420631408691 -0.10375379025936127 4456788 0 -1
-4.506793022155762 5.039231777191162 -0.36313825845718384 4456788 0 -1
-4.042119026184082 5.422296524047852 -0.3112613558769226 4523353 0 -1
-3.8378756046295166 5.575248718261719 -0.1556306779384613 4523353 0 -1
-4.534854888916016 5.0706095695495605 -0.05212630331516266 4456788 0 -1
-4.509166717529297 5.81186056137085 0.05636623874306679 4456788 0 -1
-4.527123928070068 5.835005760192871 0.22646258771419525 4456788 0 -1
-4.476353645324707 5.886125564575195 0.6255156397819519 4456788 0 -1
-4.5035576820373535 5.921896934509277 0.4569157063961029 4456788 0 -1
-4.529616832733154 5.95616340637207 0.22945548593997955 4456788 0 -1
-4.63026762008667 6.593740463256836 -0.4948257505893707 4456788 0 -1
-4.453431606292725 6.7326507568359375 0 4456788 0 -1
-4.533358573913574 6.718109607696533 0.062102627009153366 4456788 0 -1
-4.550545692443848 6.743579864501953 -0.7512173056602478 4456788 0 -1
-4.5240654945373535 6.8394341468811035 -0.18855255842208862 4456788 0 -1
-4.4865922927856445 8.310276985168457 -0.7257776856422424 4456788 0 -1
-4.431881427764893 8.382330894470215 -0.6554446220397949 4456788 0 -1
-2.662119150161743 9.562801361083984 -0.15213896334171295 2070922 4 -1
-2.6611809730529785 9.559431076049805 -0.3042779266834259 2006409 4 -1
-2.5860586166381836 9.583649635314941 -0.15213896334171295 2468738 4 -1
-2.5860586166381836 9.583649635314941 -0.15213896334171295 2666112 4 -1
-2.5862865447998047 9.584494590759277 0.07606948167085648 2994813 4 -1
-2.586362361907959 9.584775924682617 0 4899181 4 -1
-2.5851473808288574 9.580272674560547 -0.3042779266834259 5424489 4 -1
-2.662119150161743 9.562801361083984 -0.15213896334171295 5949540 4 -1
-2.6708474159240723 9.594154357910156 -0.152637779712677 2070922 4 -1
-2.6710827350616455 9.594999313354492 -0.0763188898563385 2006409 4 -1
-2.5178580284118652 9.63392448425293 -0.2289566695690155 2468738 4 -1
-2.5945374965667725 9.615071296691895 0.152637779712677 2994813 4 -1
-2.5185234546661377 9.636470794677734 0 6343264 4 -1
-2.5182275772094727 9.63533878326416 0.152637779712677 6933851 4 -1
-2.441917657852173 9.654960632324219 0.152637779712677 7589974 4 -1
-2.6710827350616455 9.594999313354492 -0.0763188898563385 8180304 4 -1
-2.5945374965667725 9.615071296691895 -0.152637779712677 8705099 4 -1
-2.6798903942108154 9.626638412475586 0 2264205 4 -1
-2.6026341915130615 9.645076751708984 0.22970490157604218 2072968 4 -1
-2.603245735168457 9.647343635559082 -0.07656829804182053 2468738 4 -1
-2.6033222675323486 9.647626876831055 0 4505456 4 -1
-2.5267539024353027 9.667962074279785 0 4899181 4 -1
-2.5264570713043213 9.666827201843262 0.15313659608364105 6343264 4 -1
-2.5260860919952393 9.66540813446045 0.22970490157604218 6933851 4 -1
-2.5240821838378906 9.657739639282227 0.45940980315208435 7589974 4 -1
-2.5264570713043213 9.666827201843262 -0.15313659608364105 8180304 4 -1
-2.450185537338257 9.687650680541992 0 8705099 4 -1
-2.372502088546753 9.702134132385254 0.3062731921672821 12640037 4 -1
-2.4475948810577393 9.677407264709473 0.45940980315208435 13164576 4 -1
-2.7653563022613525 9.635997772216797 -0.07681770622730255 3887499 4 -1
-2.7653563022613525 9.635997772216797 0.07681770622730255 3692940 4 -1
-2.7653563022613525 9.635997772216797 0.07681770622730255 3432845 4 -1
-2.611725330352783 9.678768157958984 0.07681770622730255 2588302 4 -1
-2.68735671043396 9.653458595275879 0.3072708249092102 2328718 4 -1
-2.6883039474487305 9.656861305236816 0.1536354124546051 2199437 4 -1
-2.610574960708618 9.674504280090332 0.3072708249092102 2072968 4 -1
-2.5343143939971924 9.696890830993652 0.23045311868190765 2139270 4 -1
-2.610574960708618 9.674504280090332 0.3072708249092102 2271109 4 -1
-2.61149525642395 9.677915573120117 0.1536354124546051 2468738 4 -1
-2.5343143939971924 9.696890830993652 0.23045311868190765 6343264 4 -1
-2.5337934494018555 9.694897651672363 0.3072708249092102 6933851 4 -1
-2.534909963607788 9.699169158935547 0.07681770622730255 8180304 4 -1
-2.3810691833496094 9.73716926574707 0.1536354124546051 11197490 4 -1
-2.380230188369751 9.73373794555664 0.3072708249092102 12640037 4 -1
-2.774334669113159 9.66728401184082 0.07706711441278458 4017546 4 -1
-2.774416208267212 9.667567253112793 0 3887499 4 -1
-2.77409029006958 9.66643238067627 0.15413422882556915 3692940 4 -1
-2.6944968700408936 9.679107666015625 0.46240270137786865 2328718 4 -1
-2.696636199951172 9.686792373657227 0.23120135068893433 2199437 4 -1
-2.619050979614258 9.705915451049805 0.3082684576511383 2072968 4 -1
-2.542020082473755 9.726374626159668 0.3082684576511383 2139270 4 -1
-2.6195895671844482 9.707911491394043 0.23120135068893433 2271109 4 -1
-2.543140172958374 9.730660438537598 0.07706711441278458 2468738 4 -1
-2.5413477420806885 9.723801612854004 0.3853355646133423 3257723 4 -1
-2.465496063232422 9.748186111450195 0.23120135068893433 5949540 4 -1
-2.5425426959991455 9.728374481201172 0.23120135068893433 6933851 4 -1
-2.5425426959991455 9.728374481201172 0.23120135068893433 8180304 4 -1
-2.388449192047119 9.767349243164062 0.23120135068893433 11197490 4 -1
-2.7830679416656494 9.697715759277344 0.1546330451965332 4017546 4 -1
-2.783313035964966 9.698569297790527 0.0773165225982666 3887499 4 -1
-2.7833948135375977 9.698854446411133 0 3692940 4 -1
-2.7833948135375977 9.698854446411133 0 3302798 4 -1
-2.703217029571533 9.710431098937988 0.4638991355895996 2328718 4 -1
-2.7053632736206055 9.718141555786133 0.2319495677947998 2199437 4 -1
-2.6280672550201416 9.739328384399414 0.2319495677947998 2271109 4 -1
-2.551445245742798 9.76243782043457 0 3651704 4 -1
-2.472966432571411 9.777722358703613 0.3092660903930664 5424489 4 -1
-2.4741287231445312 9.782318115234375 0 5949540 4 -1
-2.3967418670654297 9.801260948181152 0.0773165225982666 13164576 4 -1
-4.420738697052002 9.105273246765137 -0.15513186156749725 4456788 0 -1
-4.4180121421813965 9.09965705871582 -0.38782966136932373 4456788 0 -1
-5.274213790893555 8.299025535583496 -2.404543876647949 4523353 0 -1
-4.4923481941223145 9.055219650268555 -0.5429615378379822 4523353 0 -1
-2.7920455932617188 9.728998184204102 0.15513186156749725 3757452 4 -1
-2.7922916412353516 9.72985553741455 -0.07756593078374863 3692940 4 -1
-2.7871222496032715 9.71184253692627 -0.620527446269989 3432845 4 -1
-2.7922916412353516 9.72985553741455 0.07756593078374863 3302798 4 -1
-2.7920455932617188 9.728998184204102 0.15513186156749725 3107982 4 -1
-2.7148075103759766 9.752067565917969 0 2458766 4 -1
-2.710899591445923 9.738029479980469 0.5429615378379822 2328718 4 -1
-2.480287551879883 9.806669235229492 -0.38782966136932373 2006409 4 -1
-2.636931896209717 9.772180557250977 -0.15513186156749725 2072968 4 -1
3.7221808433532715 9.410856246948242 0.23269779980182648 2072968 5 -1
-2.5559911727905273 9.779830932617188 0.5429615378379822 2271109 4 -1
-2.48203706741333 9.813586235046387 0.07756593078374863 3651704 4 -1
-2.404261589050293 9.832011222839355 0.15513186156749725 5424489 4 -1
-2.482109785079956 9.813874244689941 0 5949540 4 -1
-2.404543876647949 9.833166122436523 0 8705099 4 -1
-2.404543876647949 9.833166122436523 0 10016830 4 -1
-2.4827702045440674 9.816484451293945 -0.7781534194946289 4536450 4 -1
-2.4827702045440674 9.816484451293945 -0.7781534194946289 4471684 4 -1
-2.800611972808838 9.758848190307617 0.23344601690769196 3107982 4 -1
-2.7215373516082764 9.776241302490234 0.38907670974731445 2134668 4 -1
-2.4897985458374023 9.844273567199707 -0.1556306779384613 2070155 4 -1
3.8128397464752197 9.412185668945312 0.07781533896923065 2070922 5 -1
-2.566699743270874 9.820804595947266 0.3112613558769226 2271109 4 -1
-2.4894328117370605 9.842828750610352 0.23344601690769196 3651704 4 -1
-2.4894328117370605 9.842828750610352 0.23344601690769196 4045940 4 -1
-2.411142110824585 9.860149383544922 0.3112613558769226 5424489 4 -1
-2.411142110824585 9.860149383544922 0.3112613558769226 8705099 4 -1
-2.4122047424316406 9.864494323730469 0.07781533896923065 10016830 4 -1
-2.489182710647583 9.841838836669922 -0.8587122559547424 4657508 4 -1
-2.485647439956665 9.827861785888672 -1.0148416757583618 4724328 4 -1
-2.489182710647583 9.841838836669922 -0.8587122559547424 4536450 4 -1
-2.489182710647583 9.841838836669922 -0.8587122559547424 4471684 4 -1
-2.62015962600708 9.412074089050293 -2.8883957862854004 2134668 0 -1
3.903122901916504 9.410353660583496 -0.07806474715471268 2134668 5 -1
-2.5760610103607178 9.856623649597168 -0.07806474715471268 2070155 4 -1
-2.4589719772338867 9.722391128540039 -1.7954891920089722 2070922 0 -1
-2.4974119663238525 9.87437629699707 -0.23419424891471863 2006409 4 -1
3.8250603675842285 9.442353248596191 0.07806474715471268 2006409 5 -1
-2.5322015285491943 9.688806533813477 -1.873553991317749 2139270 0 -1
-2.4968984127044678 9.872345924377441 0.3122589886188507 3651704 4 -1
-2.5734126567840576 9.846489906311035 0.46838849782943726 4045940 4 -1
-2.4182305335998535 9.88913631439209 -0.3903237283229828 4899181 4 -1
-2.578214645385742 9.864863395690918 -0.7048274278640747 4523353 4 -1
-2.4971354007720947 9.873282432556152 -0.8614557385444641 4657508 4 -1
-2.4915919303894043 9.851364135742188 -1.0963982343673706 4724328 4 -1
-2.4871480464935303 9.833794593811035 -1.2530264854431152 4725613 4 -1
-2.4915919303894043 9.851364135742188 -1.0963982343673706 4728182 4 -1
-2.4871480464935303 9.833794593811035 -1.2530264854431152 4664956 4 -1
-2.5751707553863525 9.853217124938965 -0.8614557385444641 4212104 4 -1
-2.5715136528015137 9.839223861694336 -1.0180840492248535 4017546 4 -1
-2.6626813411712646 9.867605209350586 0 2070155 4 -1
3.8372809886932373 9.472519874572754 -0.0783141553401947 2070155 5 -1
-2.5824697017669678 9.881144523620605 0.3915707767009735 2072968 4 -1
3.7586381435394287 9.503031730651855 0.1566283106803894 2139270 5 -1
-2.583153009414673 9.883758544921875 0.3132566213607788 4505456 4 -1
-2.4274537563323975 9.926854133605957 -0.1566283106803894 8180304 4 -1
-2.5066428184509277 9.910874366760254 -0.7856356501579285 4657508 4 -1
-2.4995267391204834 9.88273811340332 -1.099889874458313 4724328 4 -1
-2.4926137924194336 9.8554048538208 -1.335580587387085 4725613 0 -1
-2.501530170440674 9.89065933227539 -1.0213263034820557 4728182 4 -1
-2.555495262145996 9.777934074401855 -1.7283984422683716 4341894 0 -1
-2.512852907180786 9.93542766571045 -0.3142542541027069 4212104 4 -1
4.006742000579834 9.437792778015137 0 2264205 5 -1
3.770054578781128 9.531896591186523 -0.23569069802761078 2070155 5 -1
3.7709403038024902 9.534135818481445 -0.07856356352567673 2070922 5 -1
3.7709403038024902 9.534135818481445 -0.07856356352567673 2139270 5 -1
-2.5426025390625 9.422606468200684 -3.142542600631714 4505456 0 -1
-2.433682441711426 9.952325820922852 -0.39281782507896423 4899181 4 -1
-2.4979119300842285 9.87635326385498 -1.4186334609985352 4726897 0 -1
3.781245470046997 9.560190200805664 -0.315251886844635 2134668 5 -1
3.781245470046997 9.560190200805664 -0.315251886844635 2070155 5 -1
3.7820229530334473 9.562155723571777 -0.23643891513347626 2070922 5 -1
3.780245304107666 9.557661056518555 -0.39406487345695496 2072968 5 -1
3.7820229530334473 9.562155723571777 -0.23643891513347626 2139270 5 -1
-2.4345080852508545 9.955702781677246 -0.8669427037239075 2666112 4 -1
-2.587892532348633 9.901893615722656 -1.0245686769485474 8705099 4 -1
-4.427363395690918 9.319725036621094 0.07906237989664078 4456788 0 -1
-4.111123085021973 9.463481903076172 -0.07906237989664078 4456788 0 -1
-4.422811985015869 9.310144424438477 -0.47437429428100586 4456788 0 -1
-5.232269763946533 8.571035385131836 -2.3718714714050293 4523353 0 -1
-4.703324794769287 9.085004806518555 -1.3440604209899902 4523353 0 -1
-3.4559788703918457 9.408199310302734 -2.4509336948394775 4523353 0 -1
-2.5296990871429443 10.002034187316895 0.15812475979328156 4523353 4 -1
-2.436790704727173 9.965036392211914 -1.1068732738494873 3757452 4 -1
3.7909815311431885 9.584805488586426 -0.47437429428100586 2134668 5 -1
3.7909815311431885 9.584805488586426 -0.47437429428100586 2070155 5 -1
3.7932114601135254 9.59044361114502 -0.3162495195865631 2070922 5 -1
3.7939915657043457 9.592415809631348 -0.23718714714050293 2072968 5 -1
3.794548511505127 9.59382438659668 -0.15812475979328156 2139270 5 -1
-4.4350666999816895 9.335941314697266 -0.5551825165748596 4456788 0 -1
-5.707024097442627 7.966901779174805 -3.3310952186584473 4523353 0 -1
-5.325963497161865 8.550475120544434 -2.3793537616729736 4523353 0 -1
-4.6483845710754395 9.171424865722656 -1.1896768808364868 4523353 0 -1
-3.453047275543213 9.40021800994873 -2.6172890663146973 4523353 0 -1
-3.056622266769409 9.761083602905273 -1.586235761642456 4523353 0 -1
-2.6145215034484863 10.003782272338867 -0.4758707284927368 4523353 4 -1
3.6396567821502686 9.663395881652832 0.7138060927391052 4523353 5 -1
3.7143893241882324 9.621850967407227 -0.8724296689033508 4664956 5 -1
3.7166948318481445 9.627822875976562 -0.793117880821228 4600703 5 -1
3.7187795639038086 9.633223533630371 -0.7138060927391052 4536450 5 -1
3.8852508068084717 9.590935707092285 0.2379353642463684 2070922 5 -1
3.795773506164551 9.596921920776367 -0.793117880821228 2006409 5 -1
3.806518793106079 9.624089241027832 -0.1586235761642456 2072968 5 -1
3.8069658279418945 9.625219345092773 0 2139270 5 -1
3.8861634731292725 9.593189239501953 -0.0793117880821228 2271109 5 -1
3.7177982330322266 9.630681037902832 -1.1138567924499512 4724328 5 -1
3.726069927215576 9.652108192443848 -0.8751731514930725 4726897 5 -1
3.726069927215576 9.652108192443848 -0.8751731514930725 4664956 5 -1
3.7283825874328613 9.658099174499512 -0.7956119775772095 4600703 5 -1
3.7283825874328613 9.658099174499512 -0.7956119775772095 4536450 5 -1
3.7339935302734375 9.67263412475586 -0.5569283962249756 4212104 5 -1
3.8928868770599365 9.609786033630371 -0.5569283962249756 2006409 5 -1
3.816133737564087 9.648398399353027 0.39780598878860474 2072968 5 -1
3.726069927215576 9.652108192443848 -0.8751731514930725 2139270 5 -1
3.5764682292938232 9.736207008361816 0.47736719250679016 2468738 5 -1
3.978059768676758 9.591025352478027 0 2468738 5 -1
3.7294528484344482 9.660871505737305 -1.1173484325408936 4724328 5 -1
3.7421681880950928 9.693809509277344 -0.7182954549789429 4726897 5 -1
3.737750291824341 9.682365417480469 -0.8779166340827942 4728182 5 -1
3.7324419021606445 9.668615341186523 -1.0375378131866455 4664956 5 -1
3.7456986904144287 9.70295524597168 -0.5586742162704468 4212104 5 -1
3.7456986904144287 9.70295524597168 -0.5586742162704468 4017546 5 -1
3.744044303894043 9.69866943359375 -0.6384848356246948 3887499 5 -1
3.910604953765869 9.653523445129395 -0.07981060445308685 2006409 5 -1
3.6923491954803467 9.11474895477295 -3.4318559169769287 3257723 0 -1
1.3220664262771606 10.062870025634766 -2.481860399246216 4456788 0 -1
2.133791923522949 9.71392822265625 3.2024004459381104 4456788 0 -1
3.933487892150879 9.265244483947754 2.802100419998169 4456788 0 -1
3.755744457244873 9.728978157043457 -0.640480101108551 4726897 5 -1
3.7494308948516846 9.712623596191406 -0.8806601762771606 4728182 5 -1
3.7538623809814453 9.724102973937988 -0.7205401062965393 4729209 5 -1
3.744105815887451 9.698829650878906 -1.0407801866531372 4664956 5 -1
3.7600581645965576 9.740152359008789 -0.4003000557422638 4212104 5 -1
3.918792486190796 9.673735618591309 0.48036009073257446 2782862 5 -1
3.682328224182129 9.776689529418945 0.16012002527713776 2271109 5 -1
-4.406502723693848 9.482109069824219 -0.7227848172187805 4456788 0 -1
3.7717716693878174 9.770495414733887 -0.4015471041202545 4726897 5 -1
3.6810877323150635 9.773396492004395 -0.8834036588668823 4664956 5 -1
3.7744319438934326 9.777386665344238 -0.0803094208240509 4212104 5 -1
3.6734631061553955 9.51583480834961 -2.409282684326172 3887499 0 -1
3.6138179302215576 9.837883949279785 0.0803094208240509 2199437 5 -1
3.613924026489258 9.83817195892334 0 2070922 5 -1
3.6138179302215576 9.837883949279785 -0.0803094208240509 2006409 5 -1
3.613924026489258 9.83817195892334 0 2468738 5 -1
3.6662240028381348 9.733933448791504 -1.5306177139282227 4147337 0 -1
3.6247215270996094 9.86756706237793 0.16111765801906586 2199437 5 -1
3.6247215270996094 9.86756706237793 -0.16111765801906586 2134668 5 -1
3.6247215270996094 9.86756706237793 0.16111765801906586 2070155 5 -1
3.6250410079956055 9.868435859680176 0.08055882900953293 2070922 5 -1
3.6251473426818848 9.868725776672363 0 2006409 5 -1
3.705597400665283 9.838470458984375 0.08055882900953293 2139270 5 -1
3.6241893768310547 9.866118431091309 0.24167649447917938 2271109 5 -1
3.6354098320007324 9.896663665771484 -0.24242471158504486 2134668 5 -1
3.6337008476257324 9.892011642456055 -0.40404120087623596 2070155 5 -1
3.635943651199341 9.898116111755371 0.1616164743900299 2070922 5 -1
3.6363706588745117 9.89927864074707 0 2006409 5 -1
3.636263847351074 9.898988723754883 0.08080823719501495 2139270 5 -1
3.635943651199341 9.898116111755371 0.1616164743900299 2271109 5 -1
3.6363706588745117 9.89927864074707 0 2468738 5 -1
3.636263847351074 9.898988723754883 -0.08080823719501495 2666112 5 -1
3.6354098320007324 9.896663665771484 -0.24242471158504486 2994813 5 -1
3.6354098320007324 9.896663665771484 -0.24242471158504486 3257723 5 -1
-5.816391944885254 8.119577407836914 -3.4854788780212402 4523353 0 -1
-5.330286979675293 8.90999984741211 -2.0264410972595215 4523353 0 -1
-3.415609359741211 9.787674903869629 -2.10749888420105 4523353 0 -1
-2.4316580295562744 10.294998168945312 -0.08105764538049698 4523353 0 -1
3.64491605758667 9.922542572021484 -0.4052882194519043 2070155 5 -1
3.647486925125122 9.929540634155273 0.08105764538049698 2006409 5 -1
3.647486925125122 9.929540634155273 0.08105764538049698 2139270 5 -1
3.6471657752990723 9.928666114807129 0.16211529076099396 2271109 5 -1
3.647486925125122 9.929540634155273 -0.08105764538049698 2468738 5 -1
3.6471657752990723 9.928666114807129 -0.16211529076099396 3257723 5 -1
3.809709310531616 9.868770599365234 0 3651704 5 -1
2.1882688999176025 9.961930274963379 -2.927053928375244 4456788 0 -1
3.5597171783447266 9.940191268920898 -1.056991696357727 4456788 5 -1
3.972332715988159 9.805902481079102 -0.81307053565979 4456788 5 -1
-5.3466877937316895 8.93741512298584 -2.0326764583587646 4523353 0 -1
-4.769434452056885 9.410260200500488 -1.138298749923706 4523353 0 -1
-4.308071136474609 9.27030086517334 -2.8457469940185547 4523353 0 -1
-3.4205634593963623 9.801871299743652 -2.1952905654907227 4523353 0 -1
3.65871000289917 9.96009349822998 0.081307053565979 2271109 5 -1
3.9829928874969482 9.8322172164917 0.243921160697937 2271109 5 -1
3.819636106491089 9.894485473632812 -0.325228214263916 3651704 5 -1
3.6561312675476074 9.953072547912598 -0.406535267829895 4045940 5 -1
3.6561312675476074 9.953072547912598 -0.406535267829895 4045940 5 -1
3.740124464035034 9.930140495300293 0 4505456 5 -1
3.5002832412719727 9.52880859375 -3.089668035507202 5424489 0 -1
3.5002832412719727 9.52880859375 -3.089668035507202 5424489 0 -1
2.173675775527954 9.89549732208252 -3.262258529663086 4456788 0 -1
5.351665496826172 9.12929630279541 -1.141790509223938 4456788 0 -1
0.948801577091217 10.275054931640625 -2.609806776046753 4456788 0 -1
3.300241470336914 9.973122596740723 -1.7126857042312622 4456788 0 -1
4.996771812438965 9.255255699157715 -1.631129264831543 4456788 0 -1
5.942425727844238 8.806244850158691 -0.6524516940116882 4456788 0 -1
-7.546314239501953 7.267914772033691 1.8757985830307007 4456788 0 -1
1.1883333921432495 10.27053451538086 -2.528250217437744 4456788 0 -1
3.1118881702423096 9.937570571899414 -2.202024459838867 4456788 0 -1
5.070222854614258 9.010485649108887 -2.528250217437744 4456788 0 -1
5.532636642456055 9.063069343566895 -0.7340081334114075 4456788 0 -1
2.6092042922973633 9.983437538146973 -2.609806776046753 4456788 0 -1
9.600751876831055 4.535952568054199 0.7340081334114075 4456788 0 -1
5.537856101989746 9.071619987487793 -0.570895254611969 4456788 0 -1
2.717334270477295 10.07014274597168 -2.1204681396484375 4456788 0 -1
3.2237236499786377 10.011747360229492 -1.631129264831543 4456788 0 -1
5.5138373374938965 9.03227424621582 -1.141790509223938 4456788 0 -1
3.746196746826172 9.946263313293457 0.570895254611969 2072968 5 -1
3.824028253555298 9.905861854553223 0.7340081334114075 2271109 5 -1
3.9105708599090576 9.887166023254395 0.48933878540992737 2468738 5 -1
3.667346239089966 9.983603477478027 0.40778231620788574 2666112 5 -1
3.5710389614105225 9.481213569641113 -3.262258529663086 5424489 0 -1
3.842053174972534 9.952554702758789 0.40902936458587646 2072968 5 -1
3.9256441593170166 9.925275802612305 0.24541760981082916 2271109 5 -1
3.843069553375244 9.955187797546387 0.3272234797477722 2468738 5 -1
3.6811561584472656 10.021198272705078 0.08180586993694305 2666112 5 -1
3.7952370643615723 9.368732452392578 -3.4358465671539307 2666112 0 -1
3.9357616901397705 9.95085620880127 0.4102763831615448 2072968 5 -1
3.9357616901397705 9.95085620880127 0.4102763831615448 2271109 5 -1
3.5637762546539307 9.461931228637695 3.528377056121826 4505456 0 -1
3.785304546356201 9.34421443939209 -3.6104321479797363 4899181 0 -1
3.9464476108551025 9.977873802185059 0.4938281178474426 2070922 5 -1
3.9412198066711426 9.964655876159668 0.7407422065734863 2006409 5 -1
3.700991630554199 10.075196266174316 0.4115234315395355 3651704 5 -1
3.9607348442077637 10.013996124267578 0.3302163779735565 2070922 5 -1
3.956892490386963 10.004281044006348 0.5778786540031433 2006409 5 -1
3.7957043647766113 10.077706336975098 0.3302163779735565 3257723 5 -1
3.7122068405151367 10.105727195739746 0.41277047991752625 3651704 5 -1
3.8299496173858643 9.454421997070312 -3.4672720432281494 4899181 0 -1
3.9651057720184326 10.025047302246094 0.7452315092086792 2072968 5 -1
3.891650438308716 10.081032752990723 0.08280350267887115 2139270 5 -1
3.723422050476074 10.136258125305176 0.41401752829551697 3651704 5 -1
-7.881839275360107 7.094482898712158 -2.2424285411834717 2328718 0 -1
-5.465376853942871 9.323274612426758 -0.8305290937423706 2328718 0 -1
-3.0707015991210938 10.386621475219727 -0.4152645468711853 2328718 0 -1
-7.583529472351074 7.303757190704346 -2.5746402740478516 2264205 0 -1
-5.48084831237793 9.349666595458984 -0.16610582172870636 2264205 0 -1
-2.9898171424865723 10.41814136505127 0.08305291086435318 2264205 0 -1
-7.729686260223389 7.118439674377441 -2.6576931476593018 2134668 0 -1
-5.48084831237793 9.349666595458984 -0.16610582172870636 2134668 0 -1
-3.0728673934936523 10.39394760131836 0.08305291086435318 2134668 0 -1
-0.6400837898254395 10.422286987304688 2.9068520069122314 2134668 0 -1
-5.487613677978516 9.361207962036133 -0.6664185523986816 2328718 0 -1
-3.082185745239258 10.425466537475586 0 2328718 0 -1
-2.9985313415527344 10.448506355285645 0.1666046380996704 2264205 0 -1
-8.009201049804688 7.043703079223633 -2.697598457336426 4725613 0 -1
-7.580845355987549 7.301171779632568 -3.2033982276916504 4725613 0 -1
-4.371170997619629 11.051709175109863 -0.8215504288673401 4456788 0 -1
-4.378385543823242 11.06994915008545 -0.45641690492630005 4523353 0 -1
0.7252639532089233 11.809249877929688 -1.647590160369873 4456788 0 -1
1.5553263425827026 11.838321685791016 -0.36613115668296814 4456788 0 -1
0.6323801279067993 11.773030281066895 -1.9221885204315186 4456788 0 -1
1.2784082889556885 11.848459243774414 -0.8237950801849365 4456788 0 -1
1.8306020498275757 11.804213523864746 0.09153278917074203 4456788 0 -1
0.9114502668380737 11.860090255737305 -1.098393440246582 4456788 6 -1
1.5553263425827026 11.838321685791016 -0.36613115668296814 4456788 0 -1
2.0134849548339844 11.773330688476562 0.18306557834148407 4456788 0 -1
9.602606773376465 6.514399528503418 2.8375165462493896 4456788 0 -1
-1.2803783416748047 11.866717338562012 -1.0096042156219482 4456788 0 -1
3.9695425033569336 11.08459186553955 2.202772617340088 4456788 0 -1
0.8131105899810791 11.762662887573242 -2.110990524291992 4456788 0 -1
0.9139338135719299 11.892406463623047 -1.101386308670044 4456788 6 -1
0.5465388894081116 11.875286102294922 -1.468515157699585 4456788 0 -1
0.7306056618690491 11.89622688293457 -1.1931685209274292 4456788 6 -1
1.008059024810791 11.917325973510742 -1.1043792963027954 4456788 6 -1
1.0015616416931152 11.840513229370117 -1.7486004829406738 4456788 0 -1
1.0065058469772339 11.898963928222656 -1.2884424924850464 4456788 6 -1
1.1017500162124634 11.931411743164062 -0.8282844424247742 4456788 6 -1
1.1836638450622559 11.823698043823242 1.7486004829406738 4456788 0 -1
-1.8908507823944092 11.597787857055664 -2.4848532676696777 4456788 0 -1
-1.279903769493103 11.862319946289062 -1.3804740905761719 4456788 0 -1
1.470386028289795 11.903000831604004 -0.6442212462425232 4456788 0 -1
-3.3033971786499023 11.510824203491211 -0.9203160405158997 4456788 0 -1
0.908323347568512 11.819401741027832 -1.9326636791229248 4456788 0 -1
-1.9461400508880615 11.379549026489258 -3.3131377696990967 4456788 0 -1
-1.2716526985168457 11.785847663879395 -1.9326636791229248 4456788 0 -1
0.8305047154426575 12.014290809631348 -0.09228101372718811 4456788 6 -1
0.7382264137268066 12.02031421661377 -0.09228101372718811 4456788 6 -1
1.0148229598999023 11.997288703918457 0.27684304118156433 4456788 6 -1
1.1057780981063843 11.975032806396484 -0.6459670662879944 4456788 6 -1
1.10733962059021 11.991944313049316 0.09228101372718811 4456788 6 -1
1.1052896976470947 11.969743728637695 0.7382481098175049 4456788 0 -1
1.1973971128463745 11.960880279541016 -0.7382481098175049 4456788 6 -1
0.9243258237838745 12.027630805969238 0.5551825165748596 4456788 0 -1
0.923564076423645 12.017719268798828 -0.7402433753013611 4456788 6 -1
1.0167583227157593 12.020169258117676 0.5551825165748596 4456788 0 -1
1.2028601169586182 12.015451431274414 -0.09253042191267014 4456788 6 -1
1.2028955221176147 12.015804290771484 0 4456788 6 -1
1.2025775909423828 12.012628555297852 -0.2775912582874298 4456788 6 -1
1.2916173934936523 11.9708833694458 -0.9253042340278625 4456788 0 -1
0.7414537668228149 12.072863578796387 -0.5566789507865906 4456788 6 -1
0.8346261382102966 12.073912620544434 -0.37111932039260864 4456788 6 -1
0.8349204063415527 12.078168869018555 -0.18555966019630432 4456788 6 -1
0.8350184559822083 12.079587936401367 0 4456788 6 -1
0.983191728591919 11.623343467712402 -3.2472939491271973 4456788 0 -1
