VERSION .7
FIELDS x y z rgb label object
SIZE 4 4 4 4 4 4
TYPE F F F I I I
COUNT 1 1 1 1 1 1
WIDTH 688
HEIGHT 1
POINTS 688
VIEWPOINT 0 0 0 1 0 0 0
DATA ascii
-2.367637872695923 3.3051793575286865 -0.15588009357452393 4523353 0 -1
-3.0151829719543457 2.7139813899993896 -0.31176018714904785 4657508 0 -1
-2.3348355293273926 3.3249263763427734 -0.21823212504386902 4657508 0 -1
-3.004060745239258 2.7665061950683594 0.37710511684417725 4456788 0 -1
-2.478055953979492 3.1939640045166016 0.6913593411445618 4456788 0 -1
-3.022658348083496 2.658281087875366 0.7856356501579285 4456788 0 -1
-3.0130631923675537 2.6498427391052246 0.8484864830970764 4456788 0 -1
-3.323164701461792 2.386781930923462 -0.28282883763313293 4456788 0 -1
-2.9798011779785156 2.8067288398742676 0.25140342116355896 4523353 0 -1
-3.2052993774414062 2.558361530303955 0.03142542764544487 4590430 0 -1
-3.056459426879883 2.6880078315734863 -0.5028068423271179 4657508 0 -1
-2.8976635932922363 2.8527684211730957 -0.5342322587966919 4657508 0 -1
-3.4881198406219482 2.156890630722046 0.03142542764544487 4725613 0 -1
-3.2124013900756836 2.4995615482330322 -0.5028068423271179 4725613 0 -1
-2.9422640800476074 2.8337175846099854 0.6334967017173767 4456788 0 -1
-2.329057455062866 3.251321792602539 -1.04526948928833 4456788 0 -1
-3.142993927001953 2.4455559253692627 1.108619213104248 4456788 0 -1
-3.3723506927490234 2.3549702167510986 -0.41177284717559814 4456788 0 -1
-3.3539822101593018 2.4089159965515137 -0.19004900753498077 4456788 0 -1
-3.066680908203125 2.7603347301483154 0.25339868664741516 4523353 0 -1
-2.9370992183685303 2.8915929794311523 0.31674835085868835 4523353 0 -1
-3.198782444000244 2.617626428604126 0.06334967166185379 4590430 0 -1
-2.770982027053833 2.971859931945801 0.7601960301399231 4590430 0 -1
-1.987559199333191 4.373037338256836 -0.6689126491546631 4726897 4 -1
-1.9853572845458984 4.368192672729492 -0.7060744762420654 4536450 4 -1
-1.987559199333191 4.373037338256836 -0.6689126491546631 3757452 4 -1
-2.002993106842041 4.4069952964782715 -0.6359907388687134 4726897 4 -1
-2.0439810752868652 4.398329734802246 -0.5611683130264282 4600703 4 -1
-2.002993106842041 4.4069952964782715 -0.6359907388687134 4536450 4 -1
-2.0049662590026855 4.411336421966553 -0.5985795259475708 3887499 4 -1
-2.000898599624634 4.402386665344238 -0.6734020113945007 2977934 4 -1
-2.0187227725982666 4.441603660583496 -0.18705610930919647 2271109 4 -1
-2.0101583003997803 4.422760009765625 -0.48634588718414307 2468738 4 -1
-1.9885855913162231 4.375295639038086 -0.8604580760002136 2666112 4 -1
-1.9790067672729492 4.453157424926758 -0.6402307152748108 3692940 4 -1
-1.9922597408294678 4.4829792976379395 -0.3012850284576416 2072968 4 -1
-1.9875576496124268 4.47239875793457 -0.4519275426864624 2139270 4 -1
-2.0183324813842773 4.4407453536987305 -0.6025700569152832 2468738 4 -1
-1.989675760269165 4.377694129943848 -1.0168370008468628 2666112 4 -1
-2.0443429946899414 4.399108409881592 -0.7908732295036316 4899181 4 -1
-2.0443429946899414 4.399108409881592 -0.7908732295036316 4899181 4 -1
-1.9569149017333984 4.504664421081543 -0.188303142786026 5424489 4 -1
-2.0820505619049072 4.480249881744385 -0.26537024974823 2264205 4 -1
-1.9599463939666748 4.5116424560546875 -0.53074049949646 2264205 4 -1
-2.0033249855041504 4.507878303527832 -0.37910038232803345 2199437 4 -1
-1.8259111642837524 4.50735330581665 -0.9098408818244934 2072968 4 -1
-1.7895435094833374 4.417577743530273 -1.3268513679504395 2139270 0 -1
-1.9554260969161987 4.400096416473389 -1.1373010873794556 2468738 4 -1
-2.0092320442199707 4.521170139312744 0 2666112 4 -1
-2.005453586578369 4.512667655944824 -0.3032802939414978 5424489 4 -1
-1.856227993965149 4.5821919441223145 0.18955019116401672 6343264 4 -1
-1.6788184642791748 4.687950134277344 0.0763188898563385 2718350 4 -1
-1.6790156364440918 4.688500881195068 0 2588302 4 -1
-1.7147032022476196 4.667930603027344 0.26711612939834595 2199437 4 -1
-1.7520334720611572 4.651700496673584 0.305275559425354 2070155 4 -1
-1.7501739263534546 4.646763324737549 0.3815944492816925 2072968 4 -1
-1.7511556148529053 4.649369716644287 0.34343501925468445 2139270 4 -1
-2.021916151046753 4.549712181091309 0.11447833478450775 4505456 4 -1
-2.0195393562316895 4.544363975524902 -0.26711612939834595 5424489 4 -1
-1.8671212196350098 4.609082221984863 0.26711612939834595 6343264 4 -1
-1.983766794204712 4.5664753913879395 0.11447833478450775 10016830 4 -1
-1.8311693668365479 4.629777908325195 0.11447833478450775 10672695 4 -1
-2.0224506855010986 4.550914764404297 0 11197490 4 -1
-1.8678357601165771 4.610846042633057 0.2289566695690155 11918891 4 -1
-1.869757890701294 4.615591049194336 0.03815944492816925 12640037 4 -1
-1.7281954288482666 4.704660415649414 0.07681770622730255 2718350 4 -1
-1.7279417514801025 4.703969478607178 0.11522655934095383 2588302 4 -1
-1.6899399757385254 4.719006061553955 0.038408853113651276 2523534 4 -1
-1.8775532245635986 4.634834289550781 0.3456796705722809 2070155 4 -1
-1.7265708446502686 4.70023775100708 0.23045311868190765 2070155 4 -1
-1.72514808177948 4.696364402770996 0.3072708249092102 2139270 4 -1
-1.9587939977645874 4.613896369934082 0.038408853113651276 3257723 4 -1
-1.9158706665039062 4.619126796722412 0.3456796705722809 5949540 4 -1
-1.8401578664779663 4.652503967285156 0.3072708249092102 8705099 4 -1
-1.9202171564102173 4.629606246948242 0.07681770622730255 11197490 4 -1
-1.8784945011138916 4.637157917022705 0.3072708249092102 11918891 4 -1
-1.8806520700454712 4.642483711242676 0.19204427301883698 12640037 4 -1
-2.1156294345855713 4.552506446838379 -0.5025573968887329 4664956 4 -1
-2.2405331134796143 4.516239166259766 0.1932913064956665 3757452 4 -1
-1.77744460105896 4.719167709350586 -0.1546330451965332 2718350 4 -1
-1.7391620874404907 4.7345147132873535 0.1159747838973999 2588302 4 -1
-1.7001644372940063 4.747556686401367 0.1546330451965332 2523534 4 -1
-1.8915280103683472 4.6693315505981445 0.2706078290939331 2070155 4 -1
-1.7383445501327515 4.7322893142700195 0.1932913064956665 2070155 4 -1
-2.001713752746582 4.607787609100342 0.4638991355895996 2072968 4 -1
-1.9910175800323486 4.583165645599365 -0.6958487033843994 2139270 4 -1
-2.048346519470215 4.609185695648193 -0.1159747838973999 2271109 4 -1
-1.9326860904693604 4.659668445587158 0.0773165225982666 3257723 4 -1
-1.930869221687317 4.655288219451904 0.2319495677947998 4045940 4 -1
-1.9283114671707153 4.649121284484863 0.3479243516921997 5949540 4 -1
-1.9668775796890259 4.632936954498291 0.3479243516921997 6933851 4 -1
-1.926034927368164 4.643632888793945 0.4252408742904663 8180304 4 -1
-1.852925419807434 4.684784412384033 0.2706078290939331 8705099 4 -1
-1.9326860904693604 4.659668445587158 0.0773165225982666 11197490 4 -1
-1.9668775796890259 4.632936954498291 0.3479243516921997 12640037 4 -1
-2.2145447731018066 4.561236381530762 0.2723536789417267 4728182 4 -1
-2.254258632659912 4.543905735015869 0.23344601690769196 4729209 4 -1
-2.254258632659912 4.543905735015869 0.23344601690769196 4664956 4 -1
-2.255584716796875 4.546578884124756 0.1556306779384613 4600703 4 -1
-2.2560486793518066 4.547513961791992 0.11672300845384598 4536450 4 -1
-2.217151165008545 4.5666046142578125 0.11672300845384598 3757452 4 -1
-2.1782538890838623 4.5852861404418945 0.11672300845384598 3692940 4 -1
-2.1782538890838623 4.5852861404418945 0.11672300845384598 3562893 4 -1
-2.176525592803955 4.581648349761963 0.23344601690769196 2912910 4 -1
-2.174731969833374 4.5778727531433105 0.3112613558769226 2782862 4 -1
-2.209845542907715 4.5515570640563965 0.427984356880188 2718350 4 -1
-2.0994715690612793 4.61926794052124 0.19453835487365723 2523534 4 -1
-2.097989797592163 4.616007328033447 0.2723536789417267 2070922 4 -1
-2.085164785385132 4.587789535522461 0.6225227117538452 2072968 4 -1
-1.9008709192276 4.692394733428955 0.38907670974731445 2072968 4 -1
-1.9055801630020142 4.704020023345947 0.1556306779384613 3257723 4 -1
-1.9425830841064453 4.683530330657959 0.2723536789417267 4045940 4 -1
-1.9758851528167725 4.654154300689697 0.4668920338153839 6933851 4 -1
-1.8221533298492432 4.720153331756592 0.427984356880188 8705099 4 -1
-1.7745035886764526 4.71135950088501 0.6614304184913635 9360965 4 -1
-1.9608521461486816 4.618743896484375 0.7781534194946289 12640037 4 -1
-1.78786039352417 4.746821880340576 0.23344601690769196 13164576 4 -1
-1.9104818105697632 4.50009822845459 -1.487968921661377 4456788 0 -1
-2.226639747619629 4.586148262023926 0.35241371393203735 4728182 4 -1
-2.267841339111328 4.571284294128418 0.27409955859184265 4729209 4 -1
-2.2694430351257324 4.574512958526611 0.19578538835048676 4664956 4 -1
-2.27051043510437 4.576664447784424 0.11747123301029205 4600703 4 -1
-2.270843744277954 4.57733678817749 0.0783141553401947 4536450 4 -1
-2.3091821670532227 4.556097030639648 0.1566283106803894 4471684 4 -1
-2.1012773513793945 4.327942371368408 -1.7229114770889282 3757452 0 -1
-2.1505391597747803 4.627626419067383 0.27409955859184265 3692940 4 -1
-2.152627468109131 4.632120132446289 0.1566283106803894 3562893 4 -1
-2.1886725425720215 4.607217788696289 0.3132566213607788 2912910 4 -1
-2.151362180709839 4.629397392272949 0.2349424660205841 2782862 4 -1
-2.0714223384857178 4.661110877990723 0.3132566213607788 2070922 4 -1
-1.9550355672836304 4.713552951812744 0.27409955859184265 4899181 4 -1
-1.9508869647979736 4.703550815582275 0.43072786927223206 5424489 4 -1
-1.7969374656677246 4.77092170715332 0.35241371393203735 8705099 4 -1
-1.8670837879180908 4.7205810546875 0.5873561501502991 9360965 4 -1
-1.7969374656677246 4.77092170715332 0.35241371393203735 11197490 4 -1
-1.717846155166626 4.796931266784668 0.3915707767009735 12640037 4 -1
-1.837733507156372 4.760512351989746 0.27409955859184265 13164576 4 -1
-1.837733507156372 4.760512351989746 0.27409955859184265 13164576 4 -1
-1.8981462717056274 4.576394081115723 -1.3792270421981812 4456788 0 -1
-1.889511227607727 4.777285099029541 0.23643891513347626 4456788 4 -1
-1.890122652053833 4.778830528259277 0.19703243672847748 4456788 4 -1
-1.8910114765167236 4.781077861785889 0.11821945756673813 4456788 4 -1
-2.241945743560791 4.617672920227051 0.315251886844635 3562893 4 -1
-2.1263880729675293 4.6784892082214355 0.19703243672847748 3562893 4 -1
-2.2704293727874756 4.57650089263916 0.5910972952842712 2912910 4 -1
-1.8910114765167236 4.781077861785889 0.11821945756673813 2718350 4 -1
-2.1257002353668213 4.676975727081299 0.23643891513347626 2458766 4 -1
-1.9702664613723755 4.750274181365967 0.039406485855579376 2458766 4 -1
-2.083571672439575 4.688448905944824 0.3546583652496338 2070922 4 -1
-1.9703242778778076 4.75041389465332 0 2271109 4 -1
-2.083571672439575 4.688448905944824 0.3546583652496338 2468738 4 -1
-1.8178666830062866 4.487494945526123 -1.733885407447815 2468738 0 -1
-1.8859503269195557 4.768281936645508 0.39406487345695496 4899181 4 -1
-1.7699570655822754 4.818347930908203 0.315251886844635 8705099 4 -1
-1.880596399307251 4.7547454833984375 0.5516908168792725 9360965 4 -1
-1.8476955890655518 4.786318778991699 0.3546583652496338 11197490 4 -1
-1.72975754737854 4.830193042755127 0.3546583652496338 11918891 4 -1
-1.9757390022277832 4.763468265533447 0.4362148344516754 4456788 4 -1
-1.9426254034042358 4.795467853546143 0.1189676821231842 2718350 4 -1
-2.101762294769287 4.729382038116455 0 2458766 4 -1
-1.9429106712341309 4.796172142028809 0.0793117880821228 2458766 4 -1
-1.8852910995483398 4.76661491394043 0.7138060927391052 2199437 4 -1
-1.8940157890319824 4.7886738777160645 0.5155266523361206 2134668 4 -1
-2.091583251953125 4.500762462615967 -1.4672681093215942 2070922 0 -1
-2.0995399951934814 4.724381446838379 0.2379353642463684 9360965 4 -1
-1.9134291410446167 4.837757110595703 0.23943181335926056 3302798 4 -1
-1.9134291410446167 4.837757110595703 0.23943181335926056 3302798 4 -1
-1.7683995962142944 4.69515323638916 -1.3966856002807617 2588302 0 -1
-2.1651294231414795 4.459456443786621 -1.5962121486663818 2523534 0 -1
-2.1149189472198486 4.758986949920654 0.039905302226543427 2523534 4 -1
-1.7904592752456665 4.8741607666015625 0.39905303716659546 2523534 4 -1
-1.904401421546936 4.814931869506836 0.5586742162704468 2264205 4 -1
-1.9086384773254395 4.825644493103027 0.4389583170413971 2199437 4 -1
-1.9456346035003662 4.802896499633789 0.5187689065933228 2134668 4 -1
-1.9853414297103882 4.786619663238525 0.5187689065933228 2070155 4 -1
-1.8392918109893799 4.883373737335205 -0.4818565249443054 4456788 4 -1
-1.8468997478485107 4.903573513031006 0.0803094208240509 4456788 4 -1
-1.9192609786987305 4.85250186920166 -0.4818565249443054 4456788 4 -1
-1.7626010179519653 4.921905517578125 -0.36139240860939026 4456788 4 -1
-1.9178398847579956 4.848908424377441 -0.5220112204551697 4456788 4 -1
-1.8805556297302246 4.871440410614014 -0.44170182943344116 4523353 4 -1
-1.844457745552063 4.897089958190918 -0.28108298778533936 4728182 4 -1
-1.964748501777649 4.8500800132751465 -0.28108298778533936 4729209 4 -1
-1.8069089651107788 4.918941974639893 -0.04015471041202545 4729209 4 -1
-1.8837223052978516 4.879642963409424 -0.3212376832962036 3562893 4 -1
-1.8837223052978516 4.879642963409424 -0.3212376832962036 3432845 4 -1
-1.8064844608306885 4.917786598205566 -0.12046413123607635 3302798 4 -1
-1.8041037321090698 4.789948463439941 1.1243319511413574 2718350 0 -1
-2.0067923069000244 4.838337421417236 -0.1606188416481018 2523534 4 -1
-1.8462488651275635 4.901845455169678 0.1606188416481018 2523534 4 -1
-1.9562269449234009 4.829043865203857 0.5621659755706787 2264205 4 -1
-1.920567512512207 4.855804920196533 0.44170182943344116 2199437 4 -1
-1.997749924659729 4.816535949707031 0.5220112204551697 2134668 4 -1
-1.999230146408081 4.820105075836182 0.4818565249443054 2070155 4 -1
-2.1652331352233887 4.763956069946289 0.28108298778533936 10016830 4 -1
-1.8331825733184814 4.867154121398926 0.6424753665924072 10672695 4 -1
-1.8547725677490234 4.804651260375977 -1.1313153505325317 4456788 4 -1
-1.7393192052841187 4.856893062591553 -1.0909112691879272 4456788 4 -1
-1.8026938438415527 4.907467365264893 -0.6868700385093689 4456788 4 -1
-1.8445688486099243 4.8973846435546875 -0.6464658975601196 4456788 4 -1
-1.894472599029541 4.907491207122803 -0.3636370599269867 4456788 4 -1
-4.408002853393555 2.5469744205474854 -1.3737400770187378 4456788 0 -1
-1.9265450239181519 4.870918273925781 -0.6060617566108704 4523353 4 -1
-1.813856840133667 4.9378557205200195 -0.3636370599269867 4657508 4 -1
-1.933695912361145 4.888998031616211 -0.40404120087623596 4726897 4 -1
-1.854164719581604 4.9228620529174805 -0.3636370599269867 4728182 4 -1
-1.8173311948776245 4.947314262390137 -0.1616164743900299 4729209 4 -1
-1.895422339439392 4.909951686859131 -0.3232329487800598 3562893 4 -1
-1.894472599029541 4.907491207122803 -0.3636370599269867 3432845 4 -1
-1.9727567434310913 4.869848728179932 -0.44444531202316284 3238030 4 -1
-1.7714550495147705 4.946629524230957 -0.44444531202316284 3238030 4 -1
-1.8922361135482788 4.901697635650635 -0.44444531202316284 2718350 4 -1
-1.9648668766021729 4.850372314453125 0.6464658975601196 2458766 4 -1
-2.1323466300964355 4.7982025146484375 0.4848494231700897 2264205 4 -1
-1.9699550867080688 4.8629326820373535 0.5252535343170166 2264205 4 -1
-2.0935378074645996 4.819159507751465 0.44444531202316284 2199437 4 -1
-1.9311819076538086 4.882641315460205 0.4848494231700897 2199437 4 -1
-2.013017177581787 4.8533453941345215 0.44444531202316284 2070155 4 -1
-2.180220603942871 4.796931743621826 0.20202060043811798 10016830 4 -1
-1.9635151624679565 4.8470354080200195 -0.894377589225769 4456788 4 -1
-1.8188520669937134 4.9514546394348145 -0.569149374961853 4456788 4 -1
-1.9707989692687988 4.865015983581543 -0.7724170088768005 4456788 4 -1
-1.9499366283416748 4.930059432983398 -0.2032676339149475 4456788 4 -1
-4.593308925628662 2.654045581817627 0.081307053565979 4456788 0 -1
-1.9283190965652466 4.87540340423584 -0.81307053565979 4523353 4 -1
-1.9283190965652466 4.87540340423584 -0.81307053565979 4523353 4 -1
-1.9861663579940796 4.902951240539551 -0.406535267829895 4657508 4 -1
-1.906166911125183 4.937784671783447 -0.3658817410469055 4726897 4 -1
-1.8634077310562134 4.947402477264404 -0.4471887946128845 4728182 4 -1
-2.022566556930542 4.876368999481201 -0.5284958481788635 3562893 4 -1
-1.8673702478408813 4.957923412322998 -0.2845746874809265 3562893 4 -1
-2.171900987625122 4.778626918792725 0.7724170088768005 2328718 4 -1
-2.0192055702209473 4.868265151977539 0.6098029017448425 2328718 4 -1
-2.1523585319519043 4.843233585357666 0.243921160697937 2199437 4 -1
-2.0672342777252197 4.869325160980225 0.406535267829895 2134668 4 -1
-2.0192055702209473 4.868265151977539 0.6098029017448425 2271109 4 -1
-1.8808091878890991 4.872097015380859 0.9350311160087585 2468738 0 -1
-1.8662217855453491 4.8343095779418945 1.138298749923706 2666112 0 -1
-3.170881986618042 4.253576278686523 0.0406535267829895 6343264 0 -1
-2.1523585319519043 4.843233585357666 0.243921160697937 6343264 4 -1
-2.1505849361419678 4.839242458343506 0.325228214263916 10016830 4 -1
-1.8371706008911133 5.001323223114014 -0.3272234797477722 4456788 4 -1
-1.9871671199798584 4.905421257019043 -0.6953498721122742 4456788 4 -1
-3.384962558746338 4.107337951660156 -0.40902936458587646 4456788 0 -1
-4.621895790100098 2.670563220977783 0.04090293496847153 4456788 0 -1
-1.9401493072509766 4.905313968658447 -0.8180587291717529 4523353 4 -1
-2.0051140785217285 4.723001956939697 -1.4725056886672974 4657508 0 -1
-2.004243850708008 4.94757604598999 0 4725613 4 -1
-2.1826679706573486 4.802316665649414 0.8180587291717529 2328718 4 -1
-2.95064377784729 4.372640609741211 -0.8180587291717529 2264205 0 -1
-2.0810835361480713 4.901946544647217 0.36812642216682434 2199437 4 -1
-3.107801675796509 4.33843469619751 -0.12270880490541458 2134668 0 -1
-1.8520852327346802 4.9173407554626465 0.9407675266265869 2468738 0 -1
-1.8839011192321777 4.880106449127197 1.063476324081421 2666112 0 -1
-3.149156093597412 4.309481143951416 -0.08180586993694305 8180304 0 -1
-3.5391016006469727 4.039657115936279 0 4456788 0 -1
-3.039546489715576 4.415522575378418 -0.3292187452316284 4456788 0 -1
-1.803032398223877 5.034806728363037 -0.4938281178474426 4456788 4 -1
-1.7933980226516724 5.007903099060059 -0.7407422065734863 4456788 4 -1
-2.0527186393737793 4.9490647315979 -0.37037110328674316 4456788 4 -1
-3.5785717964172363 4.001349449157715 -0.1646093726158142 4456788 0 -1
-3.4034900665283203 4.129819393157959 -0.45267578959465027 4456788 0 -1
-4.650214672088623 2.6869261264801025 0 4456788 0 -1
-3.6187474727630615 3.963129758834839 0.20576171576976776 4456788 0 -1
-3.6608378887176514 3.92622447013855 -0.1646093726158142 4523353 0 -1
-1.8787275552749634 4.988077163696289 -0.6584374904632568 4523353 4 -1
-1.8768788576126099 4.983168601989746 -0.6995898485183716 2718350 4 -1
-3.0452733039855957 4.423841953277588 0 2588302 0 -1
-1.8483729362487793 5.031818866729736 -0.3292187452316284 2264205 4 -1
-3.209505796432495 4.305388450622559 0.0823046863079071 2199437 0 -1
-2.0957484245300293 4.936489105224609 0.28806641697883606 2199437 4 -1
-3.127210855484009 4.365529537200928 -0.0823046863079071 2134668 0 -1
-2.0957484245300293 4.936489105224609 0.28806641697883606 2134668 4 -1
-3.127210855484009 4.365529537200928 0.0823046863079071 2070922 0 -1
-3.127486228942871 4.3659138679504395 0.04115234315395355 2006409 0 -1
-2.0570733547210693 4.959564208984375 0.12345702946186066 2006409 4 -1
-1.9495720863342285 4.929137706756592 0.8641992211341858 2666112 4 -1
-1.9519795179367065 4.935224533081055 0.823046863079071 2994813 4 -1
-2.220595121383667 4.885764122009277 0.20576171576976776 3257723 4 -1
-2.0993049144744873 4.94486665725708 -0.5796245336532593 4456788 4 -1
-1.9376389980316162 5.019310474395752 -0.49682101607322693 4456788 4 -1
-4.677161693572998 2.702496290206909 0.12420525401830673 4456788 0 -1
-1.978865385055542 5.003200531005859 -0.49682101607322693 4471684 4 -1
-3.1464407444000244 4.392374038696289 0.04140175133943558 2070922 0 -1
-2.8896021842956543 4.546816825866699 0.41401752829551697 2070922 0 -1
-2.1488423347473145 4.946465969085693 0.3312140107154846 2070922 4 -1
-3.1465330123901367 4.392503261566162 0 2006409 0 -1
-2.067107677459717 4.9837565422058105 0.28981226682662964 2006409 4 -1
-1.963809609413147 4.965134620666504 0.8280350565910339 2994813 4 -1
-1.9661107063293457 4.97095251083374 0.7866332530975342 3257723 4 -1
-3.269874095916748 4.299680233001709 -0.12420525401830673 10672695 0 -1
-3.187560558319092 4.362035751342773 0.08280350267887115 11918891 0 -1
-4.704370021820068 2.718217134475708 0.1666046380996704 4456788 0 -1
-3.9558145999908447 3.726053476333618 -0.12495347857475281 4523353 0 -1
-1.9954959154129028 5.045247554779053 -0.3332092761993408 4590430 4 -1
-1.9983164072036743 5.0523786544799805 -0.1666046380996704 2264205 4 -1
-1.8313055038452148 5.1137566566467285 -0.208255797624588 2264205 4 -1
-3.038076877593994 4.413387775421143 -0.9163255095481873 2199437 0 -1
-1.8742471933364868 5.1022562980651855 0.0416511595249176 2199437 4 -1
-1.8775379657745361 5.111214637756348 -0.5028068423271179 4456788 4 -1
-4.1889495849609375 3.5127453804016113 -0.12570171058177948 4456788 0 -1
-3.9795022010803223 3.7483651638031006 -0.12570171058177948 4456788 0 -1
-4.64335298538208 2.8712329864501953 -0.6743996143341064 4456788 0 -1
-4.213883876800537 3.5336546897888184 -0.12644992768764496 4456788 0 -1
-5.114889621734619 2.303090810775757 -0.7811462879180908 5424489 0 -1
-4.968454837799072 2.5613343715667725 -0.9113373756408691 5949540 0 -1
-4.925623416900635 2.642765998840332 -0.9113373756408691 8180304 0 -1
-5.132572174072266 2.3110527992248535 -0.8729285001754761 5424489 0 -1
-4.883546352386475 2.721508741378784 -1.0911606550216675 5424489 0 -1
-4.990529537200928 2.57271409034729 -0.9602213501930237 5949540 0 -1
-4.960048675537109 2.66123628616333 -0.8729285001754761 7589974 0 -1
-5.003179550170898 2.579235553741455 -0.8729285001754761 8180304 0 -1
-4.976637363433838 2.5655527114868164 -1.0475142002105713 8705099 0 -1
-4.99700927734375 2.576054573059082 -0.9165748953819275 10016830 0 -1
-4.961928367614746 2.6622447967529297 -1.0534999370574951 5424489 0 -1
-4.956299781799316 2.7620527744293213 -0.7901250123977661 7589974 0 -1
-5.005075454711914 2.5802128314971924 -1.0534999370574951 8705099 0 -1
-5.012217998504639 2.583894968032837 -1.0096042156219482 10016830 0 -1
-5.062314510345459 2.5017037391662598 -0.965708315372467 10672695 0 -1
-5.115630626678467 2.5280516147613525 -0.794614315032959 2468738 0 -1
-5.0910773277282715 2.515918016433716 -0.9711952805519104 2666112 0 -1
-4.9826860427856445 2.673382043838501 -1.1036310195922852 8705099 0 -1
-4.974936008453369 2.6692237854003906 -1.1477762460708618 9360965 0 -1
-1.8712358474731445 5.225258827209473 1.5450834035873413 9360965 0 -1
-5.192863941192627 2.338200569152832 -1.0654715299606323 2070922 0 -1
-4.792769432067871 3.155794382095337 0.7991036772727966 2070922 0 -1
-2.2151429653167725 5.217720985412598 1.1986554861068726 2070922 0 -1
-5.2002739906311035 2.3415372371673584 -1.0210769176483154 2006409 0 -1
-4.959538459777832 2.76385760307312 -1.1542608737945557 9360965 0 -1
-1.940581202507019 5.282837390899658 1.3762341737747192 9360965 0 -1
-5.183951377868652 2.561814546585083 -0.7143049240112305 2134668 0 -1
-5.170439720153809 2.4428157806396484 -1.1161013841629028 2070922 0 -1
-4.814355850219727 3.1700077056884766 -0.8482370972633362 2006409 0 -1
-5.217726230621338 2.578505516052246 -0.6734020113945007 2134668 0 -1
-5.09547233581543 2.733895778656006 -0.9427627921104431 2070155 0 -1
-5.034692764282227 2.9090800285339355 -0.7182954549789429 3257723 0 -1
-5.007680892944336 2.9953553676605225 -0.8125717043876648 2070155 0 -1
-2.009089469909668 5.334191799163818 1.4897148609161377 2070155 0 -1
-5.046794891357422 2.9160728454589844 -0.8577145934104919 2070922 0 -1
-5.138879299163818 2.8638010025024414 -0.3160001039505005 2994813 0 -1
-4.7424845695495605 3.500643730163574 -0.5900996923446655 2994813 0 -1
-4.860596656799316 3.297424554824829 -0.7716687917709351 11197490 0 -1
-4.35631799697876 4.0118303298950195 -0.6389836668968201 4456788 0 -1
-3.2310328483581543 4.983242034912109 -0.45641690492630005 4456788 0 -1
-2.825711250305176 5.233915328979492 0.31949183344841003 4456788 0 -1
-4.5205488204956055 3.790815830230713 -0.8215504288673401 4456788 0 -1
-3.2268319129943848 4.976762771606445 -0.5477002859115601 4456788 0 -1
-3.5423455238342285 4.751875877380371 -0.5933419466018677 4456788 0 -1
-3.464115858078003 4.740489482879639 -1.0041171312332153 4456788 0 -1
-3.529719114303589 4.734938144683838 -0.7759087085723877 4456788 0 -1
-3.925185441970825 4.480347156524658 0 4523353 0 -1
-3.5631020069122314 4.685256481170654 -0.9128338098526001 4523353 0 -1
-3.970710515975952 4.439815998077393 0.045641690492630005 4590430 0 -1
-3.925185441970825 4.480347156524658 0 4657508 0 -1
-5.304688453674316 2.6214804649353027 -0.6846253275871277 2994813 0 -1
-4.6245198249816895 3.59832763671875 -1.2390596866607666 4456788 0 -1
-3.4465253353118896 4.811286926269531 -0.9178219437599182 4456788 0 -1
-3.433133602142334 4.7925920486450195 -1.055495262145996 4456788 0 -1
-3.5689821243286133 4.787607192993164 -0.4589109718799591 4456788 0 -1
-3.618748426437378 4.664201259613037 1.0096042156219482 4456788 0 -1
-3.7161967754364014 4.694714546203613 -0.1376732885837555 4456788 0 -1
-3.513223886489868 4.80769157409668 -0.6424753665924072 4456788 0 -1
-3.558850049972534 4.7740159034729 -0.6424753665924072 4456788 0 -1
-3.6013708114624023 4.735577583312988 -0.6883664727210999 4523353 0 -1
-3.5686519145965576 4.692554473876953 -1.055495262145996 4590430 0 -1
-3.5452957153320312 4.755833148956299 -0.8260397911071777 4657508 0 -1
-3.4564948081970215 4.825203895568848 -1.0150911808013916 4456788 0 -1
-3.682201385498047 4.559133529663086 -1.384215235710144 4456788 0 -1
-3.6889288425445557 4.567463397979736 -1.3380746841430664 4456788 0 -1
-3.7284834384918213 4.710236072540283 0.4152645468711853 4456788 0 -1
-3.5490622520446777 4.856734752655029 -0.27684304118156433 4456788 0 -1
-3.620943307876587 4.761314392089844 -0.692107617855072 4456788 0 -1
-3.7346370220184326 4.718010425567627 -0.23070253431797028 4456788 0 -1
-3.4892375469207764 4.870912551879883 -0.5998265743255615 4456788 0 -1
-3.7303526401519775 4.712597846984863 -0.36912405490875244 4456788 0 -1
-3.5401763916015625 4.844574928283691 -0.5075455904006958 4456788 0 -1
-3.581059694290161 4.803808689117432 -0.5998265743255615 4523353 0 -1
-3.63985276222229 4.786179065704346 -0.3229835331439972 4590430 0 -1
-3.6343834400177 4.778987407684326 0.46140506863594055 4728182 0 -1
-3.679572582244873 4.742597579956055 -0.7886285185813904 4456788 0 -1
-3.50528883934021 4.893319606781006 -0.6494588255882263 4456788 0 -1
-3.830970525741577 5.242513656616211 0.8020966053009033 4456788 0 -1
-4.046403408050537 5.010072231292725 1.153013825416565 4456788 0 -1
-3.830970525741577 5.242513656616211 0.8020966053009033 4456788 0 -1
-3.9631097316741943 5.108048439025879 1.0026206970214844 4456788 0 -1
-3.8345084190368652 5.2473554611206055 0.7519655227661133 4523353 0 -1
-3.8345084190368652 5.2473554611206055 0.7519655227661133 4590430 0 -1
-3.8408913612365723 5.25609016418457 0.6517034769058228 4657508 0 -1
-3.900911808013916 5.232873916625977 0.4511793255805969 4728182 0 -1
-3.9828267097473145 5.1334614753723145 1.0076088905334473 4456788 0 -1
-3.762526273727417 5.3580322265625 0.6045653223991394 4456788 0 -1
-3.8462414741516113 5.263411521911621 0.8564675450325012 4523353 0 -1
-3.8462414741516113 5.263411521911621 0.8564675450325012 4590430 0 -1
-4.0823974609375 5.054638385772705 1.0076088905334473 4657508 0 -1
-3.8462414741516113 5.263411521911621 0.8564675450325012 4657508 0 -1
-4.077362537384033 5.048404216766357 1.0579893589019775 4724328 0 -1
-3.850029945373535 5.268596172332764 0.8060871362686157 4724328 0 -1
-3.842707633972168 5.258575916290283 1.1138567924499512 4590430 0 -1
-4.011678218841553 5.170648097991943 0.9113373756408691 4657508 0 -1
-3.8150837421417236 5.325787544250488 0.8607075214385986 4657508 0 -1
-3.8338773250579834 5.352023124694824 0.8649474382400513 4456788 0 -1
-3.7433390617370605 5.437915802001953 0.7123096585273743 4456788 0 -1
-3.802365779876709 5.414765357971191 0.5596718788146973 4456788 0 -1
-3.844510316848755 5.366866588592529 0.7123096585273743 4523353 0 -1
-3.891739845275879 5.325674057006836 0.763188898563385 4590430 0 -1
-4.090130805969238 5.167109966278076 0.8140681982040405 4657508 0 -1
-3.8530638217926025 5.378807067871094 0.5596718788146973 4657508 0 -1
-3.7830772399902344 5.495643138885498 -0.10225734114646912 4456788 0 -1
-3.829130172729492 5.452879428863525 -0.3579006791114807 4456788 0 -1
-3.914189577102661 5.356395721435547 0.7158013582229614 4456788 0 -1
-3.7807438373565674 5.492253303527832 -0.2556433379650116 4456788 0 -1
-3.7825217247009277 5.494836330413818 -0.15338601171970367 4456788 0 -1
-3.885664701461792 5.424317359924316 0.05112867057323456 4523353 0 -1
-3.8784713745117188 5.414275646209717 0.40902936458587646 4590430 0 -1
-3.829130172729492 5.452879428863525 0.3579006791114807 4657508 0 -1
-3.7991864681243896 5.519044876098633 -0.2568903863430023 4456788 0 -1
-3.84610915184021 5.477058410644531 -0.41102463006973267 4456788 0 -1
-3.863131284713745 5.3928608894348145 -0.9761834740638733 4456788 0 -1
-3.7478461265563965 5.554036617279053 -0.2568903863430023 4456788 0 -1
-3.746633768081665 5.552240371704102 -0.3082684576511383 4456788 0 -1
-3.7965047359466553 5.5151495933532715 -0.3596465289592743 4590430 0 -1
-3.7965047359466553 5.5151495933532715 -0.3596465289592743 4657508 0 -1
-3.866487503051758 5.506078243255615 -0.36139240860939026 4456788 0 -1
-3.7161967754364014 5.618106365203857 -0.15488246083259583 4456788 0 -1
-3.763381242752075 5.577058792114258 -0.36139240860939026 4456788 0 -1
-3.814934492111206 5.541922092437744 -0.36139240860939026 4590430 0 -1
-3.816394329071045 5.544042587280273 -0.30976492166519165 4657508 0 -1
-2.439507484436035 6.167850017547607 1.9034829139709473 2070155 0 -1
-6.013514518737793 2.9717695713043213 -1.7530897855758667 2523534 0 -1
-5.925105094909668 3.3019497394561768 -1.4343461990356445 2468738 0 -1
-6.065951824188232 2.997683048248291 -1.6545735597610474 2523534 0 -1
-4.489214897155762 5.786144733428955 0.05611683055758476 4456788 0 -1
-5.966220855712891 4.285092353820801 0.3945636749267578 4456788 0 -1
-5.279572486877441 5.0847978591918945 -0.6200286149978638 4456788 0 -1
-3.719188928604126 6.344488143920898 0.16909871995449066 4456788 0 -1
-5.328160285949707 5.018690586090088 -0.7327611446380615 4456788 0 -1
-4.790567874908447 5.581329345703125 0.11273247748613358 4456788 0 -1
-4.377941608428955 5.8727850914001465 0.6763948798179626 4456788 0 -1
-3.5494048595428467 6.439283847808838 0.22546495497226715 4456788 0 -1
-5.016448020935059 5.380107879638672 -0.05636623874306679 4456788 0 -1
-4.549418926239014 5.747333526611328 0.6200286149978638 4456788 0 -1
-4.549418926239014 5.747333526611328 0.6200286149978638 4456788 0 -1
-4.509166717529297 5.81186056137085 0.05636623874306679 4456788 0 -1
-4.9578986167907715 5.429723262786865 -0.22546495497226715 4523353 0 -1
-4.66726016998291 5.663287162780762 0.5072961449623108 4523353 0 -1
-4.847496509552002 5.533106327056885 0 4590430 0 -1
-4.4398417472839355 5.838114261627197 0.5636624097824097 4590430 0 -1
-6.256468772888184 3.868708610534668 0.05636623874306679 4657508 0 -1
-2.7549760341644287 6.642193794250488 1.6984694004058838 4456788 0 -1
-4.453688621520996 5.856322765350342 0.6793878078460693 4456788 0 -1
-5.095258712768555 5.350566387176514 -0.05661564692854881 4456788 0 -1
-4.572385311126709 5.7763471603393555 0.5661565065383911 4456788 0 -1
-4.52911901473999 5.837576866149902 -0.05661564692854881 4456788 0 -1
-4.687911510467529 5.688345909118652 0.509540855884552 4523353 0 -1
-4.386754989624023 5.884607791900635 0.8492347002029419 4590430 0 -1
-7.018485069274902 2.3033547401428223 0.16984695196151733 4657508 0 -1
-6.284152507781982 3.885826826095581 0.05661564692854881 4657508 0 -1
-4.168720722198486 6.055864334106445 0.7360033988952637 4657508 0 -1
-4.473308563232422 5.882121562957764 0.6823806762695312 4456788 0 -1
-4.703004360198975 5.70665979385376 0.6255156397819519 4456788 0 -1
-4.115779876708984 6.099288463592529 0.9667059779167175 4456788 0 -1
-4.548670291900635 5.862776756286621 -0.11373011022806168 4456788 0 -1
-4.654165744781494 5.762575626373291 0.4549204409122467 4523353 0 -1
-4.123661041259766 5.990406513214111 1.4784914255142212 4523353 0 -1
-4.705923557281494 5.710201740264893 0.5686505436897278 4590430 0 -1
-4.476353645324707 5.886125564575195 0.6255156397819519 4590430 0 -1
-5.739153861999512 4.696462154388428 0.2843252718448639 4657508 0 -1
-4.187085151672363 6.0825419425964355 0.7392457127571106 4657508 0 -1
-6.447110176086426 3.725184679031372 -0.3426867723464966 4456788 0 -1
-4.546432018280029 5.859891891479492 0.7424880266189575 4456788 0 -1
-4.709084510803223 5.7140374183654785 0.8567169904708862 4456788 0 -1
-4.4327712059021 5.946336269378662 0.7424880266189575 4456788 0 -1
-3.9916560649871826 6.156355857849121 1.3136327266693115 4456788 0 -1
-4.510850429534912 5.9314866065979 -0.1713433861732483 4456788 0 -1
-4.609809398651123 5.823625564575195 0.6282591223716736 4523353 0 -1
-6.36439847946167 3.9354472160339355 0.22945548593997955 4456788 0 -1
-4.663759708404541 5.774454116821289 0.9751858115196228 4456788 0 -1
-3.984719753265381 6.145658016204834 1.5488245487213135 4456788 0 -1
-4.473199844360352 6.000568866729736 -0.17209161818027496 4456788 0 -1
-5.228794097900391 5.846531391143799 -0.7242812514305115 2271109 0 -1
-3.005053997039795 7.245127201080322 0.7242812514305115 2271109 0 -1
-6.819071292877197 3.800140380859375 -1.272729754447937 2271109 0 -1
-4.520537376403809 5.9442243576049805 2.6060657501220703 2271109 0 -1
-3.025946855545044 7.295498847961426 0.4242432415485382 2271109 0 -1
-4.844770908355713 6.370571136474609 -1.0515047311782837 4456788 0 -1
-4.504535675048828 6.675395965576172 -0.5566789507865906 4456788 0 -1
-3.372941732406616 7.258046627044678 -1.0515047311782837 4456788 0 -1
-2.8451645374298096 7.553995609283447 -0.06185321882367134 4456788 0 -1
-4.453300952911377 6.732452869415283 0.06185321882367134 4456788 0 -1
-4.469288349151611 6.756622791290283 0.24841050803661346 4456788 0 -1
-4.569368839263916 6.7714738845825195 -0.12520289421081543 4456788 0 -1
-5.076923370361328 6.160375118255615 -1.8855255842208862 4456788 0 -1
-4.807443618774414 6.5787739753723145 -0.9427627921104431 4456788 0 -1
-4.5240654945373535 6.8394341468811035 -0.18855255842208862 4456788 0 -1
-4.935509204864502 6.235085964202881 2.0112273693084717 4523353 0 -1
-4.456944465637207 7.450138092041016 -0.3995518386363983 4456788 0 -1
3.174598217010498 8.428651809692383 0.4145163297653198 4456788 5 -1
3.240938186645508 8.395410537719727 0.5526884198188782 4456788 5 -1
3.187089681625366 8.461816787719727 0.346677303314209 4456788 5 -1
3.2510085105895996 8.421497344970703 0.6240191459655762 4456788 5 -1
3.2510085105895996 8.421497344970703 0.6240191459655762 4456788 5 -1
3.1800544261932373 8.443138122558594 0.693354606628418 4456788 5 -1
3.2000582218170166 8.496249198913574 0.20875461399555206 4456788 5 -1
3.2689523696899414 8.467979431152344 0.2783394753932953 4456788 5 -1
3.196296453475952 8.486261367797852 0.48709410429000854 4456788 5 -1
3.2657811641693115 8.45976448059082 0.48709410429000854 4456788 5 -1
3.3337926864624023 8.428887367248535 0.5566789507865906 4456788 5 -1
3.1392197608947754 8.545886993408203 0.41900569200515747 4456788 5 -1
3.2100183963775635 8.522693634033203 0.34917140007019043 4456788 5 -1
3.208980083465576 8.519936561584473 0.41900569200515747 4456788 5 -1
3.350470542907715 8.471054077148438 0.2793371081352234 4456788 5 -1
3.0596914291381836 8.543913841247559 0.8380113840103149 4456788 0 -1
3.3472201824188232 8.462836265563965 0.4888399541378021 4456788 5 -1
3.0113861560821533 8.629343032836914 0.35041844844818115 4456788 5 -1
3.0804216861724854 8.601801872253418 0.4205021262168884 4456788 5 -1
3.362436532974243 8.50130844116211 0.2803347408771515 4456788 5 -1
3.1522843837738037 8.581452369689941 0.2803347408771515 4456788 5 -1
3.1522843837738037 8.581452369689941 0.2803347408771515 4456788 5 -1
3.060626745223999 8.126054763793945 -2.8734312057495117 4456788 0 -1
3.2923858165740967 8.528681755065918 0.2803347408771515 4456788 5 -1
3.363621950149536 8.504304885864258 0.14016737043857574 4456788 5 -1
3.1648964881896973 8.6157865524292 0.0703330934047699 4456788 5 -1
3.233802318572998 8.585841178894043 0.2813323736190796 4456788 5 -1
2.950866460800171 8.681450843811035 0.4219985902309418 4456788 5 -1
3.305267333984375 8.562050819396973 0.1406661868095398 4456788 5 -1
3.092384099960327 8.63520622253418 0.3516654670238495 4456788 5 -1
3.1648964881896973 8.6157865524292 -0.0703330934047699 4456788 5 -1
2.948434829711914 8.674297332763672 -0.5626647472381592 4456788 5 -1
3.443791389465332 8.501172065734863 0.3516654670238495 4456788 5 -1
3.0242342948913574 8.66616153717041 -0.0703330934047699 4456788 5 -1
3.17583966255188 8.645577430725098 0.14116500318050385 4456788 5 -1
3.034245729446411 8.694849014282227 0.21174751222133636 4456788 5 -1
2.8290035724639893 8.322930335998535 -2.7527177333831787 4456788 0 -1
3.246699810028076 8.620083808898926 0.07058250159025192 4456788 5 -1
3.0293400287628174 8.680791854858398 0.5646600127220154 4456788 5 -1
3.034958600997925 8.696891784667969 -0.07058250159025192 4456788 5 -1
2.963681936264038 8.71915340423584 -0.21174751222133636 4456788 5 -1
2.9630725383758545 8.717360496520996 -0.2823300063610077 4456788 5 -1
3.10551381111145 8.671869277954102 -0.7791510224342346 4456788 5 -1
2.971794605255127 8.743021965026855 -0.4249914586544037 4456788 5 -1
3.045682907104492 8.727622985839844 0.07083190977573395 4456788 5 -1
3.182847738265991 8.664654731750488 0.49582338333129883 4456788 5 -1
2.9040231704711914 8.775775909423828 -0.07083190977573395 4456788 5 -1
2.9661941528320312 8.726544380187988 0.7083191275596619 4456788 5 -1
3.2548227310180664 8.641650199890137 0.4249914586544037 4456788 5 -1
3.246673583984375 8.620014190673828 0.7791510224342346 4456788 0 -1
2.974853038787842 8.752018928527832 -0.07083190977573395 4456788 5 -1
3.1157805919647217 8.700538635253906 -0.21249572932720184 4456788 5 -1
2.9735426902770996 8.748164176940918 -0.2833276391029358 4456788 5 -1
2.971794605255127 8.743021965026855 -0.4249914586544037 4456788 5 -1
2.7623634338378906 8.821391105651855 0.07083190977573395 4456788 5 -1
3.1162381172180176 8.701815605163574 -0.1416638195514679 4456788 5 -1
3.1162381172180176 8.701815605163574 -0.1416638195514679 4456788 5 -1
3.112022876739502 8.690044403076172 -0.9240571856498718 4456788 5 -1
3.1851089000701904 8.67081069946289 -0.8529758453369141 4456788 5 -1
3.1143288612365723 8.696483612060547 -0.8529758453369141 4456788 5 -1
3.2662832736968994 8.672079086303711 0.42648792266845703 4456788 5 -1
2.984626531600952 8.780773162841797 -0.21324396133422852 4456788 5 -1
3.2696447372436523 8.68100357055664 0.07108131796121597 4456788 5 -1
3.0556890964508057 8.75629711151123 0.21324396133422852 4456788 5 -1
3.127578020095825 8.733481407165527 0 4456788 5 -1
3.3289339542388916 8.623356819152832 0.7818945050239563 4456788 0 -1
3.268204689025879 8.677179336547852 0.2843252718448639 4456788 5 -1
3.0259406566619873 8.449668884277344 -2.3456835746765137 4456788 0 -1
2.9822587966918945 8.77380657196045 -0.42648792266845703 4456788 5 -1
3.1261086463928223 8.729378700256348 -0.2843252718448639 4456788 5 -1
2.9143340587615967 8.80693531036377 0 4456788 5 -1
2.9690165519714355 8.507930755615234 -2.2035210132598877 4456788 0 -1
2.8431694507598877 8.829879760742188 0.07108131796121597 4456788 5 -1
3.054252862930298 8.752181053161621 -0.35540661215782166 4456788 5 -1
3.409398317337036 8.62004280090332 0.35540661215782166 4456788 5 -1
3.1851089000701904 8.67081069946289 -0.8529758453369141 4456788 5 -1
3.191044330596924 8.686968803405762 -0.6397318840026855 4456788 5 -1
3.1293249130249023 8.738359451293945 -0.71330726146698 4456788 5 -1
3.12044095993042 8.713552474975586 -0.9986302256584167 4456788 5 -1
3.13818359375 8.76309585571289 -0.142661452293396 4456788 5 -1
3.209505796432495 8.737226486206055 -0.142661452293396 4456788 5 -1
3.066861152648926 8.788311004638672 0.142661452293396 4456788 5 -1
3.3521504402160645 8.68349838256836 0.142661452293396 4456788 5 -1
3.066861152648926 8.788311004638672 0.142661452293396 4456788 5 -1
2.9231858253479004 8.833683967590332 0.285322904586792 4456788 5 -1
3.2808282375335693 8.710695266723633 0.142661452293396 4456788 5 -1
2.778956890106201 8.874381065368652 0.427984356880188 4456788 5 -1
2.99053692817688 8.569599151611328 -2.0685911178588867 4456788 0 -1
3.0495219230651855 8.738624572753906 -0.9986302256584167 4456788 5 -1
3.1352334022521973 8.754858016967773 -0.427984356880188 4456788 5 -1
3.2022409439086914 8.717449188232422 -0.641976535320282 4456788 5 -1
3.273401975631714 8.69097900390625 -0.641976535320282 4456788 5 -1
3.3462395668029785 8.66818618774414 -0.570645809173584 4456788 5 -1
3.267313241958618 8.674813270568848 -0.855968713760376 4456788 5 -1
2.819525957107544 8.756451606750488 -1.42661452293396 10016830 0 -1
3.072157621383667 8.803488731384277 -0.5726410746574402 4456788 5 -1
3.148693799972534 8.792445182800293 -0.21474041044712067 4456788 5 -1
3.1494336128234863 8.794510841369629 -0.07158013433218002 4456788 5 -1
3.149156093597412 8.793736457824707 -0.14316026866436005 4456788 5 -1
3.149156093597412 8.793736457824707 -0.14316026866436005 4456788 5 -1
3.0764997005462646 8.81593132019043 0.2863205373287201 4456788 5 -1
3.1494336128234863 8.794510841369629 -0.07158013433218002 4456788 5 -1
3.0775845050811768 8.819039344787598 0.14316026866436005 4456788 5 -1
2.859083890914917 8.879304885864258 0.501060962677002 4456788 5 -1
3.217700242996216 8.759533882141113 0.42948082089424133 4456788 5 -1
2.9651927947998047 8.496973991394043 -2.5053048133850098 4456788 0 -1
3.2892045974731445 8.732934951782227 0.42948082089424133 4456788 5 -1
3.5048515796661377 8.651901245117188 0.3579006791114807 4456788 5 -1
3.2892045974731445 8.732934951782227 -0.42948082089424133 4456788 5 -1
3.1383185386657715 8.763473510742188 -0.7873815298080444 4456788 5 -1
3.4212913513183594 8.650111198425293 -0.8589616417884827 4456788 5 -1
3.352294921875 8.68387222290039 -0.7873815298080444 4456788 5 -1
3.207460641860962 8.731658935546875 -0.8589616417884827 4456788 5 -1
3.2809693813323975 8.711071014404297 -0.7873815298080444 4456788 5 -1
3.231708288192749 8.580281257629395 -1.7895034551620483 4456788 0 -1
3.2678472995758057 8.676231384277344 -1.1452821493148804 4456788 0 -1
3.273685932159424 8.691732406616211 -1.002121925354004 4456788 5 -1
3.2763097286224365 8.698698997497559 -0.9305417537689209 4456788 5 -1
3.2924013137817383 8.741422653198242 -0.7901250123977661 4456788 5 -1
3.0864028930664062 8.844308853149414 -0.35914772748947144 4456788 5 -1
3.371128797531128 8.732660293579102 -0.5028068423271179 4456788 5 -1
3.1601288318634033 8.824377059936523 0.1436590850353241 4456788 5 -1
3.1601288318634033 8.824377059936523 -0.1436590850353241 4456788 5 -1
3.1559505462646484 8.812708854675293 0.5028068423271179 4456788 5 -1
3.15901517868042 8.821267127990723 0.2873181700706482 4456788 5 -1
3.447413206100464 8.716156005859375 0.1436590850353241 4456788 5 -1
3.160407304763794 8.825154304504395 0.07182954251766205 4456788 5 -1
3.5196475982666016 8.688426971435547 0 4456788 5 -1
3.296292781829834 8.751754760742188 -0.6464658975601196 4456788 5 -1
3.421808958053589 8.651420593261719 -1.1492726802825928 4456788 0 -1
3.347224235534668 8.670736312866211 -1.221102237701416 4456788 0 -1
3.290161609649658 8.73547649383545 -0.8619545102119446 4456788 5 -1
3.3536155223846436 8.68729305267334 -1.0774431228637695 4456788 5 -1
3.285092353820801 8.722017288208008 -1.0056136846542358 4456788 5 -1
3.290161609649658 8.73547649383545 -0.8619545102119446 4456788 5 -1
3.0241150856018066 8.896947860717773 -0.43247371912002563 4456788 5 -1
3.0250933170318604 8.899827003479004 -0.36039477586746216 4456788 5 -1
3.0971195697784424 8.875019073486328 -0.36039477586746216 4456788 5 -1
3.0241150856018066 8.896947860717773 -0.43247371912002563 4456788 5 -1
3.377751111984253 8.7498140335083 -0.7207895517349243 4456788 5 -1
3.0990309715270996 8.88049602508545 -0.14415790140628815 4456788 5 -1
3.385223627090454 8.769171714782715 -0.36039477586746216 4456788 5 -1
3.2431719303131104 8.828875541687012 -0.14415790140628815 4456788 5 -1
2.9089815616607666 8.790760040283203 -1.657815933227539 4456788 0 -1
3.26373553276062 8.665313720703125 -1.657815933227539 4456788 0 -1
2.92632794380188 8.385603904724121 -3.0993950366973877 4456788 0 -1
3.387312889099121 8.77458381652832 -0.14415790140628815 4456788 5 -1
3.2431719303131104 8.828875541687012 -0.14415790140628815 4456788 5 -1
3.52927565574646 8.712193489074707 -0.36039477586746216 4456788 5 -1
3.2420289516448975 8.825763702392578 -0.2883158028125763 4456788 5 -1
3.347694158554077 8.671954154968262 -1.4415791034698486 4456788 0 -1
3.370861768722534 8.73196792602539 -0.9370263814926147 4456788 5 -1
3.2906198501586914 8.736692428588867 -1.1532632112503052 4456788 0 -1
3.0305590629577637 8.91590690612793 -0.6509552597999573 4456788 5 -1
3.032078266143799 8.920376777648926 -0.5786268711090088 4456788 5 -1
3.0355608463287354 8.930622100830078 -0.3616417944431305 4456788 5 -1
3.3235864639282227 8.824220657348633 -0.4339701533317566 4456788 5 -1
3.1068308353424072 8.902847290039062 -0.4339701533317566 4456788 5 -1
3.393040180206299 8.789419174194336 -0.5786268711090088 4456788 5 -1
3.1100282669067383 8.912009239196777 -0.0723283588886261 4456788 5 -1
3.3271045684814453 8.833560943603516 0 4456788 5 -1
3.0151772499084473 8.640207290649414 -2.314507484436035 4456788 0 -1
3.109297752380371 8.909915924072266 0.2169850766658783 4456788 5 -1
3.253247022628784 8.856303215026855 -0.2893134355545044 4456788 5 -1
3.0305590629577637 8.91590690612793 0.6509552597999573 4456788 5 -1
2.96694016456604 8.965907096862793 -0.7257776856422424 4456788 5 -1
3.2471530437469482 8.839713096618652 -1.0160887241363525 4456788 5 -1
3.261298179626465 8.878220558166504 -0.5080443620681763 4456788 5 -1
3.0438783168792725 8.95509147644043 -0.5080443620681763 4456788 5 -1
3.330629348754883 8.842918395996094 -0.6531999111175537 4456788 5 -1
3.0474607944488525 8.965631484985352 -0.21773330867290497 4456788 5 -1
3.1933281421661377 8.917082786560059 0.07257776707410812 4456788 5 -1
3.1933281421661377 8.917082786560059 0.07257776707410812 4456788 5 -1
3.3361263275146484 8.857513427734375 0.3628888428211212 4456788 5 -1
3.091017723083496 8.85753345489502 -1.3063998222351074 4456788 0 -1
2.9788057804107666 9.001764297485352 -0.6554446220397949 4456788 5 -1
3.252500534057617 8.854270935058594 -1.1652348041534424 4456788 5 -1
3.1967670917510986 8.926685333251953 -0.6554446220397949 4456788 5 -1
3.269420862197876 8.9003324508667 -0.6554446220397949 4456788 5 -1
3.055507183074951 8.989303588867188 -0.4369630515575409 4456788 5 -1
3.1312007904052734 8.972681045532227 -0.1456543505191803 4456788 5 -1
3.260923385620117 8.87720012664795 0.9467533230781555 4456788 0 -1
3.4224753379821777 8.865669250488281 0.1456543505191803 4456788 5 -1
3.2748169898986816 8.915022850036621 0.36413589119911194 4456788 5 -1
2.870065212249756 8.67315673828125 -2.6217784881591797 4456788 0 -1
3.2771267890930176 8.921310424804688 0.07282717525959015 4456788 5 -1
3.3420746326446533 8.873307228088379 0.6554446220397949 4456788 5 -1
3.107944965362549 8.90604019165039 -1.1652348041534424 4456788 5 -1
3.128981590270996 8.96632194519043 -0.8769190311431885 4456788 5 -1
3.278778553009033 8.925806999206543 -0.7307658791542053 4456788 5 -1
3.067774534225464 9.025394439697266 -0.2923063337802887 4456788 5 -1
3.2806174755096436 8.930813789367676 -0.6576892733573914 4456788 5 -1
