VERSION .7
FIELDS x y z rgb label object
SIZE 4 4 4 4 4 4
TYPE F F F I I I
COUNT 1 1 1 1 1 1
WIDTH 682
HEIGHT 1
POINTS 682
VIEWPOINT 0 0 0 1 0 0 0
DATA ascii
-1.5613982677459717 2.1796836853027344 -0.3312140107154846 4456788 0 -1
-1.5751389265060425 2.155508041381836 -0.41401752829551697 4456788 0 -1
-1.5751389265060425 2.155508041381836 -0.41401752829551697 4456788 0 -1
-1.5751389265060425 2.155508041381836 -0.41401752829551697 4456788 0 -1
-1.5892812013626099 2.174861192703247 0.20700876414775848 4456788 0 -1
-1.564448356628418 2.140878438949585 -0.5175219178199768 4456788 0 -1
-1.5751389265060425 2.155508041381836 -0.41401752829551697 4523353 0 -1
-1.5690186023712158 2.147132635116577 -0.47612014412879944 4590430 0 -1
-1.5769846439361572 2.158033847808838 -0.3933166265487671 4726897 0 -1
-1.5751389265060425 2.155508041381836 -0.41401752829551697 4728182 0 -1
-1.4439048767089844 2.271998167037964 -0.22770963609218597 2458766 0 -1
-1.9362043142318726 1.8647736310958862 -0.26911139488220215 2328718 0 -1
-1.4624521732330322 2.2555489540100098 -0.26911139488220215 2328718 0 -1
-1.3041168451309204 2.3659119606018066 0.02070087566971779 2328718 0 -1
-1.4997642040252686 2.2225420475006104 -0.3312140107154846 4899181 0 -1
-1.4429227113723755 2.2704524993896484 -0.24841050803661346 5424489 0 -1
-1.7585318088531494 2.0909836292266846 0.10475142300128937 4456788 0 -1
-1.5941165685653687 2.1814780235290527 -0.41900569200515747 4456788 0 -1
-1.606252670288086 2.1547060012817383 -0.5028068423271179 4456788 0 -1
-1.606252670288086 2.1547060012817383 -0.5028068423271179 4456788 0 -1
-1.5856596231460571 2.169905185699463 -0.5028068423271179 4456788 0 -1
-1.5941165685653687 2.1814780235290527 -0.41900569200515747 4523353 0 -1
-1.5921504497528076 2.1787877082824707 -0.4399559497833252 4590430 0 -1
-1.5977545976638794 2.1864564418792725 -0.37710511684417725 4726897 0 -1
-1.5959844589233398 2.1840341091156006 -0.39805540442466736 4728182 0 -1
-2.070199728012085 1.6940850019454956 -0.5656576752662659 2328718 0 -1
-1.9562757015228271 1.8841044902801514 -0.3142542541027069 2328718 0 -1
-1.461301326751709 2.2993717193603516 -0.23045311868190765 2328718 0 -1
-1.3404638767242432 2.3821895122528076 -0.06285085529088974 2328718 0 -1
-1.1929035186767578 2.4569900035858154 0.12570171058177948 2328718 0 -1
-1.8231199979782104 2.0809743404388428 -0.02119969204068184 4456788 0 -1
-1.6664459705352783 2.191272497177124 0.2755959928035736 4456788 0 -1
-1.9263949394226074 1.980315923690796 -0.14839784801006317 4456788 0 -1
-1.6651114225387573 2.1895174980163574 0.29679569602012634 4456788 0 -1
-1.925544023513794 1.9794411659240723 -0.1695975363254547 4456788 0 -1
-1.6664459705352783 2.191272497177124 0.2755959928035736 4456788 0 -1
-1.8229594230651855 2.0807912349700928 0.04239938408136368 4456788 0 -1
-1.8231199979782104 2.0809743404388428 0.02119969204068184 4456788 0 -1
-1.8229594230651855 2.0807912349700928 0.04239938408136368 4456788 0 -1
-1.5836983919143677 2.2108142375946045 -0.5087926387786865 4456788 0 -1
-1.8223170042037964 2.0800578594207764 -0.08479876816272736 4523353 0 -1
-1.8231735229492188 2.081035614013672 0 4590430 0 -1
-1.8231199979782104 2.0809743404388428 0.02119969204068184 4657508 0 -1
-1.8229594230651855 2.0807912349700928 0.04239938408136368 4724328 0 -1
-2.2465734481811523 1.61354660987854 0.06359907984733582 3107982 0 -1
-1.9263949394226074 1.980315923690796 -0.14839784801006317 3107982 0 -1
-1.6951786279678345 2.1849141120910645 0.08479876816272736 3107982 0 -1
-1.9481974840164185 2.0027287006378174 -0.1715928018093109 4456788 0 -1
-1.8445684909820557 2.1054563522338867 -0.021449100226163864 4456788 0 -1
-1.8445684909820557 2.1054563522338867 -0.021449100226163864 4456788 0 -1
-1.844406008720398 2.105271100997925 -0.04289820045232773 4456788 0 -1
-1.8441351652145386 2.10496187210083 -0.0643472969532013 4523353 0 -1
-1.844406008720398 2.105271100997925 -0.04289820045232773 4590430 0 -1
-1.8445684909820557 2.1054563522338867 -0.021449100226163864 4657508 0 -1
-1.8445684909820557 2.1054563522338867 0.021449100226163864 4724328 0 -1
-1.8660717010498047 2.1300010681152344 0 4456788 0 -1
-1.8658525943756104 2.129750967025757 -0.04339701682329178 4456788 0 -1
-1.8658525943756104 2.129750967025757 -0.04339701682329178 4456788 0 -1
-1.8660717010498047 2.1300010681152344 0 4523353 0 -1
-1.8660169839859009 2.1299386024475098 -0.02169850841164589 4590430 0 -1
-1.8660169839859009 2.1299386024475098 -0.02169850841164589 4657508 0 -1
-1.500707983970642 2.4583253860473633 0.31076255440711975 4456788 0 -1
-1.8179718255996704 2.2966649532318115 0.04489346593618393 4456788 0 -1
-1.5101020336151123 2.4243671894073486 0.6509552597999573 4456788 0 -1
-1.7872719764709473 2.3036131858825684 0.5220112204551697 4456788 0 -1
-1.7673357725143433 2.3239362239837646 0.4993151128292084 4456788 0 -1
-1.92775559425354 2.2459633350372314 -0.11348070204257965 4456788 0 -1
-1.762416124343872 2.317467212677002 0.5447073578834534 4456788 0 -1
-1.7872719764709473 2.3036131858825684 -0.5220112204551697 4456788 0 -1
-1.9163870811462402 2.2327182292938232 -0.34044212102890015 4523353 0 -1
-1.668384075164795 2.423646926879883 0.34044212102890015 4523353 0 -1
-1.9286621809005737 2.2470195293426514 -0.06808841973543167 4590430 0 -1
-1.7702966928482056 2.281733751296997 -0.6581881046295166 4657508 0 -1
-1.880237102508545 2.2814934253692627 0.18156912922859192 4728182 0 -1
-1.9291719198226929 2.2476134300231934 0 3107982 0 -1
-1.7942436933517456 2.312598943710327 0.4539228081703186 3107982 0 -1
-1.8241698741912842 2.304494857788086 0.5736387372016907 4456788 0 -1
-1.8121224641799927 2.2892751693725586 0.6654209494590759 4456788 0 -1
-1.8121224641799927 2.2892751693725586 0.6654209494590759 4456788 0 -1
-1.838787317276001 2.3229613304138184 -0.4359654188156128 4456788 0 -1
-1.8343700170516968 2.317380905151367 0.4818565249443054 4456788 0 -1
-1.83199143409729 2.314375877380371 0.5048021078109741 4456788 0 -1
-1.808817744255066 2.2851004600524902 0.6883664727210999 4523353 0 -1
-1.8153094053268433 2.2933013439178467 0.6424753665924072 4590430 0 -1
-1.8294987678527832 2.3112270832061768 0.527747631072998 4657508 0 -1
-1.8016492128372192 2.322144031524658 0.5736387372016907 4724328 0 -1
-1.8934907913208008 2.2975754737854004 0.3212376832962036 4728182 0 -1
-1.8519043922424316 2.3395321369171143 0.5102890729904175 4456788 0 -1
-1.8493846654891968 2.3363490104675293 0.5334840416908264 4456788 0 -1
-1.8411295413970947 2.325920343399048 0.6030688881874084 4456788 0 -1
-1.8350409269332886 2.3182284832000732 0.6494588255882263 4456788 0 -1
-1.8411295413970947 2.325920343399048 0.6030688881874084 4456788 0 -1
-1.8519043922424316 2.3395321369171143 0.5102890729904175 4456788 0 -1
-1.8519043922424316 2.3395321369171143 0.5102890729904175 4456788 0 -1
-1.854308843612671 2.3425698280334473 0.48709410429000854 4456788 0 -1
-1.8350409269332886 2.3182284832000732 0.6494588255882263 4523353 0 -1
-1.8411295413970947 2.325920343399048 0.6030688881874084 4590430 0 -1
-1.8722165822982788 2.3180930614471436 0.5334840416908264 4657508 0 -1
-1.9046697616577148 2.3111400604248047 0.44070419669151306 4728182 0 -1
-1.8692704439163208 2.361471176147461 0.53922039270401 4456788 0 -1
-1.8923479318618774 2.3430187702178955 0.53922039270401 4456788 0 -1
-1.8638256788253784 2.3545925617218018 0.5861091613769531 4456788 0 -1
-1.8638256788253784 2.3545925617218018 0.5861091613769531 4456788 0 -1
-1.8461930751800537 2.37955641746521 0.53922039270401 4456788 0 -1
-1.8949261903762817 2.3462111949920654 0.5157760381698608 4456788 0 -1
-1.8579092025756836 2.3471181392669678 0.6329978704452515 4523353 0 -1
-1.8349720239639282 2.36509370803833 0.6329978704452515 4590430 0 -1
-1.8642661571502686 2.355149030685425 0.7345069646835327 4456788 0 -1
-1.8976463079452515 2.349579095840454 0.6634256839752197 4456788 0 -1
-1.772284984588623 2.377429723739624 0.8766696453094482 4456788 0 -1
-1.7497950792312622 2.3472607135772705 0.9951384663581848 4456788 0 -1
-1.7399110794067383 2.3340020179748535 1.0425260066986084 4456788 0 -1
-1.7176045179367065 2.350466012954712 1.0425260066986084 4456788 0 -1
-1.9739809036254883 2.347163677215576 0.5985795259475708 4456788 0 -1
-1.8184754848480225 2.3438313007354736 0.9816704392433167 4456788 0 -1
-1.864151954650879 2.3550047874450684 0.8619545102119446 4456788 0 -1
-1.7776851654052734 2.384673833847046 0.9577272534370422 4456788 0 -1
-1.7730135917663574 2.3784072399139404 0.9816704392433167 4456788 0 -1
-1.7858912944793701 2.3483355045318604 1.0295567512512207 4456788 0 -1
-1.7356846332550049 2.3752076625823975 1.0534999370574951 4456788 0 -1
-1.9375966787338257 2.3990437984466553 0.6773925423622131 4456788 0 -1
-1.940873384475708 2.4031007289886475 0.6531999111175537 4456788 0 -1
-1.9440256357192993 2.40700364112854 0.6290073394775391 4456788 0 -1
-1.940873384475708 2.4031007289886475 0.6531999111175537 4456788 0 -1
-1.940873384475708 2.4031007289886475 0.6531999111175537 4456788 0 -1
-1.9671268463134766 2.4356067180633545 0.6110499501228333 4456788 0 -1
-1.9640671014785767 2.4318182468414307 0.6354919672012329 4456788 0 -1
-1.9640671014785767 2.4318182468414307 0.6354919672012329 4456788 0 -1
-1.960882306098938 2.42787504196167 0.6599339246749878 4456788 0 -1
-1.960882306098938 2.42787504196167 0.6599339246749878 4456788 0 -1
-1.960882306098938 2.42787504196167 0.6599339246749878 4456788 0 -1
-1.960882306098938 2.42787504196167 0.6599339246749878 4456788 0 -1
-1.9640671014785767 2.4318182468414307 0.6354919672012329 4456788 0 -1
-1.9599121809005737 2.475979804992676 0.641976535320282 4456788 0 -1
-1.9567341804504395 2.4719648361206055 0.6666679382324219 4456788 0 -1
-1.9567341804504395 2.4719648361206055 0.6666679382324219 4456788 0 -1
-1.9534307718276978 2.4677915573120117 0.6913593411445618 4456788 0 -1
-1.9567341804504395 2.4719648361206055 0.6666679382324219 4456788 0 -1
-1.9567341804504395 2.4719648361206055 0.6666679382324219 4456788 0 -1
-1.8280258178710938 2.7090020179748535 -0.5851114988327026 4456788 0 -1
-1.9475480318069458 2.665133476257324 -0.35615482926368713 4456788 0 -1
-1.9551677703857422 2.675560712814331 -0.20351704955101013 4456788 0 -1
-1.7479557991027832 2.64254093170166 -0.9921455979347229 4590430 0 -1
-2.7481796741485596 1.6993460655212402 0.763188898563385 4657508 0 -1
-1.8417752981185913 2.7843761444091797 -0.3082684576511383 4456788 0 -1
-2.6680047512054443 1.7033679485321045 -1.1046286821365356 4456788 0 -1
-1.8231412172317505 2.7562053203582764 -0.5651588439941406 4456788 0 -1
-2.6754627227783203 1.7081292867660522 -1.07893967628479 4456788 0 -1
-1.760591983795166 2.661644220352173 1.0275615453720093 4456788 0 -1
-1.8452074527740479 2.789564847946167 -0.23120135068893433 4456788 0 -1
-1.8452074527740479 2.789564847946167 -0.23120135068893433 4523353 0 -1
-1.8441729545593262 2.78800106048584 -0.2568903863430023 4590430 0 -1
-2.6603498458862305 1.6984807252883911 -1.1303176879882812 4657508 0 -1
-1.8430290222167969 2.786271572113037 -0.2825794219970703 4726897 0 -1
-1.9591513872146606 2.6810121536254883 -0.46240270137786865 2328718 0 -1
-1.977634072303772 2.652895212173462 -0.539469838142395 5424489 0 -1
-2.8502120971679688 1.8196969032287598 0.1556306779384613 4456788 0 -1
-1.8432317972183228 2.7865781784057617 -0.5447073578834534 4456788 0 -1
-1.8915044069290161 2.803072690963745 -0.1556306779384613 4456788 0 -1
-1.8907809257507324 2.8020005226135254 -0.18156912922859192 4456788 0 -1
-1.8889987468719482 2.7993595600128174 -0.23344601690769196 4523353 0 -1
-1.8889987468719482 2.7993595600128174 -0.23344601690769196 4590430 0 -1
-2.8367645740509033 1.811111330986023 0.36313825845718384 4657508 0 -1
-1.8907809257507324 2.8020005226135254 -0.18156912922859192 4657508 0 -1
-1.8879398107528687 2.797790288925171 -0.2593844532966614 4726897 0 -1
-2.87524676322937 1.8356800079345703 0.20950284600257874 4456788 0 -1
-1.8654364347457886 2.8201467990875244 -0.4975692331790924 4456788 0 -1
-2.8776180744171143 1.8371939659118652 0.15712712705135345 4456788 0 -1
-1.8799822330474854 2.842137098312378 -0.2618785500526428 4456788 0 -1
-1.881036639213562 2.843731164932251 -0.23569069802761078 4456788 0 -1
-2.87524676322937 1.8356800079345703 0.20950284600257874 4523353 0 -1
-1.8799822330474854 2.842137098312378 -0.2618785500526428 4523353 0 -1
-1.9081182479858398 2.827693223953247 -0.20950284600257874 4590430 0 -1
-1.9278795719146729 2.856977939605713 -0.1586235761642456 4456788 0 -1
-2.7940118312835693 2.342986583709717 1.2066365480422974 4456788 0 -1
-2.9894628524780273 2.2663016319274902 0.8240445256233215 4456788 0 -1
-2.908252239227295 2.4387855529785156 -0.5886031985282898 4456788 0 -1
-2.917940616607666 2.4469101428985596 -0.5003127455711365 4456788 0 -1
-3.018207550048828 2.2278764247894287 0.8240445256233215 4590430 0 -1
-2.942929744720459 2.467865228652954 -0.02943016029894352 4725613 0 -1
-2.9426705837249756 2.4676477909088135 0.05886032059788704 4726897 0 -1
-3.040452718734741 2.3049569129943848 0.44145241379737854 4212104 0 -1
-2.936009645462036 2.462062120437622 -0.2648714482784271 4212104 0 -1
-2.939591646194458 2.4650659561157227 0.5342322587966919 4456788 0 -1
-2.939591646194458 2.4650659561157227 0.5342322587966919 4456788 0 -1
-2.942668914794922 2.467646598815918 0.5045526623725891 4456788 0 -1
-2.9975483417510986 2.4529526233673096 -0.029679568484425545 4456788 0 -1
-2.965698480606079 2.426888942718506 0.5639117956161499 4456788 0 -1
-2.942668914794922 2.467646598815918 0.5045526623725891 4456788 0 -1
-2.957395553588867 2.4799959659576416 0.32647526264190674 4456788 0 -1
-2.9919991493225098 2.448411464691162 0.23743654787540436 4456788 0 -1
-2.9849376678466797 2.4426329135894775 0.35615482926368713 4456788 0 -1
-2.982727527618408 2.440824270248413 0.38583439588546753 4523353 0 -1
-2.9482877254486084 2.472358226776123 0.4451935291290283 4590430 0 -1
-2.9968442916870117 2.452376365661621 0.08903870731592178 4726897 0 -1
-2.929281234741211 2.4564199447631836 0.6232709288597107 4341894 0 -1
-2.9975483417510986 2.4529526233673096 0.029679568484425545 3302798 0 -1
-2.997636556625366 2.4530246257781982 0 3238030 0 -1
-2.9507174491882324 2.4146296977996826 0.6826300621032715 2458766 0 -1
-3.0120701789855957 2.4648358821868896 0.3292187452316284 4456788 0 -1
-2.9921069145202637 2.509103775024414 0.08978693187236786 4456788 0 -1
-3.0053834915161133 2.459364175796509 0.41900569200515747 4456788 0 -1
-3.022826671600342 2.4736382961273193 0 4456788 0 -1
-3.002794027328491 2.457245111465454 0.4489346444606781 4456788 0 -1
-3.002794027328491 2.457245111465454 0.4489346444606781 4456788 0 -1
-3.0077922344207764 2.4613354206085205 0.38907670974731445 4456788 0 -1
-3.010021209716797 2.4631590843200684 0.35914772748947144 4456788 0 -1
-3.002794027328491 2.457245111465454 0.4489346444606781 4456788 0 -1
-3.0053834915161133 2.459364175796509 0.41900569200515747 4523353 0 -1
-3.000023365020752 2.4549779891967773 0.4788636267185211 4590430 0 -1
-3.0171420574188232 2.4689862728118896 0.23943181335926056 4726897 0 -1
-2.9906201362609863 2.4472830295562744 0.5686505436897278 4341894 0 -1
-2.9871201515197754 2.4444189071655273 0.5985795259475708 4212104 0 -1
-3.022737979888916 2.4735655784606934 -0.02992897666990757 3238030 0 -1
-3.037170648574829 2.4853761196136475 0.3319622278213501 4456788 0 -1
-3.0134942531585693 2.527038812637329 0.21124869585037231 4456788 0 -1
-2.9978389739990234 2.5139105319976807 0.45267578959465027 4456788 0 -1
-3.030428409576416 2.479858875274658 0.42249739170074463 4456788 0 -1
-3.0278172492980957 2.47772216796875 0.45267578959465027 4456788 0 -1
-3.002829074859619 2.5180952548980713 0.392318993806839 4456788 0 -1
-2.9978389739990234 2.5139105319976807 0.45267578959465027 4456788 0 -1
-3.030428409576416 2.479858875274658 0.42249739170074463 4523353 0 -1
-3.0278172492980957 2.47772216796875 0.45267578959465027 4590430 0 -1
-3.0106539726257324 2.5246570110321045 0.2716054618358612 4724328 0 -1
-3.0106539726257324 2.5246570110321045 0.2716054618358612 4725613 0 -1
-3.030428409576416 2.479858875274658 0.42249739170074463 4726897 0 -1
-3.0220468044281006 2.4730000495910645 0.5130325555801392 4341894 0 -1
-3.0188865661621094 2.47041392326355 0.5432109236717224 4212104 0 -1
-3.0438361167907715 2.490830659866333 0.5477002859115601 4456788 0 -1
-2.886563539505005 2.6583003997802734 0.6085558533668518 4456788 0 -1
-3.0528404712677 2.498199224472046 0.45641690492630005 4456788 0 -1
-2.8899459838867188 2.6614153385162354 0.5781280994415283 4456788 0 -1
-2.886563539505005 2.6583003997802734 0.6085558533668518 4456788 0 -1
-2.8625128269195557 2.6361517906188965 0.7911226153373718 4456788 0 -1
-3.0168540477752686 2.5298562049865723 0.5172724723815918 4456788 0 -1
-2.8529722690582275 2.6872663497924805 0.6389836668968201 4456788 0 -1
-3.0103602409362793 2.5244107246398926 0.5781280994415283 4456788 0 -1
-2.8529722690582275 2.6872663497924805 0.6389836668968201 4456788 0 -1
-3.047022581100464 2.493438243865967 0.5172724723815918 4523353 0 -1
-2.87534761428833 2.6479713916778564 0.6998392343521118 4523353 0 -1
-2.8899459838867188 2.6614153385162354 0.5781280994415283 4590430 0 -1
-3.0298891067504883 2.5407872200012207 0.36513352394104004 4724328 0 -1
-2.820197105407715 2.597182273864746 1.0345449447631836 4724328 0 -1
-3.0276458263397217 2.5389058589935303 0.3955613076686859 4725613 0 -1
-2.818370819091797 2.654674530029297 -0.8824059963226318 4725613 0 -1
-3.047022581100464 2.493438243865967 0.5172724723815918 4726897 0 -1
-2.8492727279663086 2.683781623840332 0.6694114804267883 4726897 0 -1
-2.8899459838867188 2.6614153385162354 0.5781280994415283 4341894 0 -1
-3.0370571613311768 2.54679799079895 -0.24342234432697296 3302798 0 -1
-2.932535409927368 2.700636863708496 -0.36812642216682434 4456788 0 -1
-3.0925705432891846 2.5307109355926514 -0.24541760981082916 4456788 0 -1
-2.855109214782715 2.62933349609375 0.9816704392433167 4456788 0 -1
-3.115818977355957 2.486941337585449 -0.36812642216682434 4456788 0 -1
-2.3884549140930176 3.078477144241333 0.9203160405158997 4456788 0 -1
-2.90866756439209 2.5580317974090576 1.01234769821167 4456788 0 -1
-2.8960015773773193 2.6067054271698 0.9203160405158997 4456788 0 -1
-2.855109214782715 2.62933349609375 0.9816704392433167 4456788 0 -1
-2.837128162384033 2.612774133682251 1.073702096939087 4456788 0 -1
-3.277735471725464 2.2888987064361572 -0.21474041044712067 4456788 0 -1
-3.12319016456604 2.4928245544433594 -0.24541760981082916 4456788 0 -1
-2.839714288711548 2.5560410022735596 1.196410894393921 4456788 0 -1
-2.8666815757751465 2.5803143978118896 1.073702096939087 4523353 0 -1
-2.300722599029541 3.2763478755950928 -0.030677201226353645 4590430 0 -1
-3.1276044845581055 2.4963481426239014 -0.12270880490541458 4724328 0 -1
-2.780565023422241 2.5606839656829834 1.3191196918487549 4724328 0 -1
-2.9442331790924072 2.711409568786621 -0.09203160554170609 4725613 0 -1
-2.817405939102173 2.594611644744873 1.1657336950302124 4726897 0 -1
-3.0852982997894287 2.587251901626587 0.2783394753932953 4456788 0 -1
-2.9139719009399414 2.6835412979125977 0.773165225982666 4456788 0 -1
-2.449613571166992 2.972378730773926 1.206137776374817 4456788 0 -1
-3.105562925338745 2.5413429737091064 -0.4329725205898285 4456788 0 -1
-2.5081262588500977 2.9822895526885986 1.0515047311782837 4456788 0 -1
-2.4530484676361084 3.161731719970703 0.5257523655891418 4456788 0 -1
-2.30795955657959 3.286653518676758 0.40204593539237976 4456788 0 -1
-2.4198520183563232 3.1819543838500977 0.5566789507865906 4456788 0 -1
-2.3226583003997803 3.242388963699341 0.6185321807861328 4456788 0 -1
-2.311241865158081 3.291327953338623 0.3401927053928375 4456788 0 -1
-2.319223403930664 3.3026938438415527 0.06185321882367134 4456788 0 -1
-2.3177928924560547 3.300656795501709 0.1546330451965332 4456788 0 -1
-2.3061110973358154 3.2840213775634766 0.4329725205898285 4523353 0 -1
-2.319223403930664 3.3026938438415527 0.06185321882367134 4590430 0 -1
-2.3292737007141113 3.0021986961364746 -1.36077082157135 4724328 0 -1
-2.2729995250701904 3.2368688583374023 0.8040918707847595 4724328 0 -1
-2.276540517807007 3.2419114112854004 0.773165225982666 4725613 0 -1
-2.318406105041504 3.301530122756958 0.12370643764734268 4726897 0 -1
-2.315133810043335 3.296870231628418 0.24741287529468536 4728182 0 -1
-3.115229368209839 2.549253225326538 0.592344343662262 4456788 0 -1
-2.967397451400757 2.7327420711517334 0.5299922823905945 4456788 0 -1
-2.4204318523406982 2.996868133544922 1.3093926906585693 4456788 0 -1
-3.1037158966064453 2.5398316383361816 0.6858723759651184 4456788 0 -1
-3.0769760608673096 2.580272912979126 -0.6546963453292847 4456788 0 -1
-2.4969029426574707 3.0915513038635254 0.8729285001754761 4456788 0 -1
-2.44869327545166 3.219878673553467 0.43646425008773804 4456788 0 -1
-2.3227057456970215 3.3076529502868652 0.4676402509212494 4456788 0 -1
-2.4443259239196777 3.2141361236572266 0.49881628155708313 4456788 0 -1
-2.8939170837402344 2.8490800857543945 0.24940814077854156 4456788 0 -1
-2.3289682865142822 3.251197338104248 0.7482244372367859 4456788 0 -1
-2.328295946121216 3.3156139850616455 0.37411221861839294 4456788 0 -1
-2.337583541870117 3.3288397789001465 0.09352805465459824 4456788 0 -1
-2.332634687423706 3.3217926025390625 0.2805841565132141 4456788 0 -1
-2.318279266357422 3.301349401473999 0.5299922823905945 4523353 0 -1
-2.333804130554199 3.323457717895508 0.24940814077854156 4590430 0 -1
-2.329880952835083 3.317870855331421 0.3429361879825592 4726897 0 -1
-3.2806289196014404 2.421581506729126 0.4399559497833252 4456788 0 -1
-2.885201930999756 2.7787606716156006 0.8799118995666504 4456788 0 -1
-2.442460775375366 3.2764363288879395 0.3456796705722809 4456788 0 -1
-2.4818198680877686 3.1353118419647217 0.9113373756408691 4456788 0 -1
-2.6083104610443115 3.164942741394043 0 4456788 0 -1
-3.1836352348327637 2.22318696975708 -1.3198678493499756 4456788 0 -1
-2.6070849895477295 3.1634557247161865 -0.12570171058177948 4456788 0 -1
-3.3616321086883545 2.347485303878784 0.09427627921104431 4523353 0 -1
-2.564068555831909 3.174712657928467 -0.4085305333137512 4523353 0 -1
-2.546445846557617 3.15289306640625 0.6285085082054138 4724328 0 -1
-3.1817502975463867 2.3485946655273438 1.2036436796188354 4456788 0 -1
-3.356645107269287 2.4108285903930664 0.09502450376749039 4523353 0 -1
-2.4907660484313965 3.0839526653289795 1.1719688177108765 4725613 0 -1
-3.514535665512085 2.102227210998535 0.7661818265914917 4590430 0 -1
-3.514535665512085 2.102227210998535 0.7661818265914917 4590430 0 -1
-2.7702226638793945 2.97104549407959 0.925803005695343 4590430 0 -1
-2.454850196838379 3.1640541553497314 1.1492726802825928 4590430 0 -1
-3.263382911682129 2.8699870109558105 1.1358046531677246 4456788 0 -1
-3.249434232711792 2.857719659805298 1.204641342163086 4456788 0 -1
-3.263382911682129 2.8699870109558105 1.1358046531677246 4523353 0 -1
-3.2580385208129883 2.8652868270874023 1.2827060222625732 4456788 0 -1
-3.293724536895752 2.8966708183288574 1.1093673706054688 4523353 0 -1
-2.7911996841430664 3.670253276824951 0.31874361634254456 4456788 0 -1
-2.801305055618286 3.6835412979125977 0.4993151128292084 4456788 0 -1
-2.8035502433776855 3.6864936351776123 0.4636497497558594 4456788 0 -1
-3.2359862327575684 4.006650447845459 -1.1313153505325317 4456788 0 -1
-3.2414586544036865 4.013425827026367 1.0909112691879272 4456788 0 -1
-4.39841365814209 2.541433572769165 -1.4141441583633423 4456788 0 -1
-3.181919574737549 4.101172924041748 1.0976452827453613 4456788 0 -1
-3.3335893154144287 4.127498149871826 0 4456788 0 -1
-3.330064296722412 4.123133659362793 -0.243921160697937 4456788 0 -1
-4.593713760375977 2.6542794704437256 0.0406535267829895 4456788 0 -1
-3.2443180084228516 4.016966342926025 1.219605803489685 4536450 0 -1
-3.1188390254974365 4.01986837387085 -1.5041805505752563 4471684 0 -1
-3.2701854705810547 4.048994541168213 1.1861851215362549 4456788 0 -1
-3.5559427738189697 3.9760468006134033 -0.20451468229293823 4456788 0 -1
-3.551863193511963 3.9714853763580322 -0.3272234797477722 4456788 0 -1
-3.5559427738189697 3.9760468006134033 -0.20451468229293823 4456788 0 -1
-3.5559427738189697 3.9760468006134033 0.20451468229293823 4456788 0 -1
-3.353646755218506 4.152332305908203 -0.08180586993694305 4456788 0 -1
-3.558450937271118 3.978851318359375 0.04090293496847153 4456788 0 -1
-3.350494146347046 4.148428916931152 -0.24541760981082916 4456788 0 -1
-4.621895790100098 2.670563220977783 0.04090293496847153 4456788 0 -1
-3.554792642593384 3.9747607707977295 -0.24541760981082916 4523353 0 -1
-3.353154420852661 4.1517229080200195 -0.12270880490541458 4657508 0 -1
-3.353154420852661 4.1517229080200195 -0.12270880490541458 4724328 0 -1
-3.5534329414367676 3.973240375518799 -0.2863205373287201 4728182 0 -1
-3.5286967754364014 4.027780532836914 -0.4115234315395355 4456788 0 -1
-3.3645713329315186 4.165858745574951 0.4115234315395355 4456788 0 -1
-3.5306758880615234 4.0300397872924805 -0.37037110328674316 4456788 0 -1
-3.536503314971924 4.036691188812256 -0.20576171576976776 4456788 0 -1
-3.3709239959716797 4.173724174499512 -0.2469140589237213 4456788 0 -1
-4.650078296661377 2.68684720993042 0.04115234315395355 4456788 0 -1
-3.5751001834869385 3.997467517852783 -0.28806641697883606 4523353 0 -1
-3.5324459075927734 4.032060146331787 -0.3292187452316284 4590430 0 -1
-3.3709239959716797 4.173724174499512 -0.2469140589237213 4590430 0 -1
-3.5324459075927734 4.032060146331787 -0.3292187452316284 4724328 0 -1
-3.374095916748047 4.177651405334473 -0.0823046863079071 4724328 0 -1
-3.536503314971924 4.036691188812256 -0.20576171576976776 4728182 0 -1
-3.817556619644165 3.758409023284912 0.7038297653198242 4456788 0 -1
-3.8093395233154297 3.750319242477417 0.7866332530975342 4456788 0 -1
-3.844820261001587 3.785250186920166 -0.28981226682662964 4456788 0 -1
-3.8061647415161133 3.8294923305511475 -0.20700876414775848 4456788 0 -1
-4.716334342956543 2.628324508666992 0.20700876414775848 4456788 0 -1
-3.773179054260254 3.71471905708313 1.0764455795288086 4456788 0 -1
-3.847536087036133 3.78792405128479 0.20700876414775848 4523353 0 -1
-3.9688467979431152 3.654999017715454 -0.28981226682662964 4590430 0 -1
-3.808513879776001 3.8318560123443604 -0.08280350267887115 4590430 0 -1
-4.991349697113037 1.8961914777755737 0.8280350565910339 4724328 0 -1
-4.07838773727417 3.5031163692474365 0.5382227897644043 4724328 0 -1
-3.3948440551757812 4.203341007232666 -0.04140175133943558 4724328 0 -1
5.133214473724365 1.6846389770507812 -0.08280350267887115 4724328 0 -1
-3.9101204872131348 3.683013439178467 0.833023190498352 4456788 0 -1
-3.9966328144073486 3.6805877685546875 -0.1666046380996704 4456788 0 -1
-3.9966328144073486 3.6805877685546875 -0.1666046380996704 4456788 0 -1
-3.9966328144073486 3.6805877685546875 -0.1666046380996704 4456788 0 -1
-4.431020736694336 2.560274124145508 -1.8326510190963745 4456788 0 -1
-3.99851131439209 3.6823177337646484 0 4456788 0 -1
-3.986755847930908 3.671491861343384 -0.416511595249176 4523353 0 -1
-3.9909918308258057 3.6753928661346436 -0.3332092761993408 4590430 0 -1
-4.111341953277588 3.5314221382141113 0.416511595249176 4724328 0 -1
-3.620990514755249 4.048779487609863 -0.208255797624588 4724328 0 -1
-4.1528706550598145 3.4824905395507812 0.416511595249176 4725613 0 -1
-3.5461902618408203 3.8836677074432373 1.3744882345199585 4725613 0 -1
-4.1895647048950195 3.513261318206787 -0.08380113542079926 4456788 0 -1
-4.0182013511657715 3.7004506587982178 -0.25140342116355896 4456788 0 -1
-3.326758623123169 4.287856101989746 0.670409083366394 4456788 0 -1
-3.9763450622558594 3.745391368865967 -0.25140342116355896 4456788 0 -1
-4.639890670776367 2.869091749191284 -0.37710511684417725 4456788 0 -1
-3.9805538654327393 3.7493560314178467 0 4456788 0 -1
-4.186980724334717 3.511094093322754 -0.20950284600257874 4523353 0 -1
-4.019501209259033 3.701647996902466 -0.20950284600257874 4523353 0 -1
-3.9763450622558594 3.745391368865967 -0.25140342116355896 4590430 0 -1
-3.5067598819732666 4.169715881347656 0.7586995959281921 4456788 0 -1
-3.3432676792144775 4.309134483337402 0.7165495753288269 4456788 0 -1
-4.170886993408203 3.582568407058716 -0.1685999035835266 4456788 0 -1
-3.5028750896453857 4.165096282958984 0.8008495569229126 4456788 0 -1
-3.3077807426452637 4.349524974822998 0.632249653339386 4456788 0 -1
-4.580840110778809 3.016249656677246 -0.42149975895881653 4456788 0 -1
-3.5067598819732666 4.169715881347656 0.7586995959281921 4523353 0 -1
-3.5730223655700684 4.078375816345215 0.9272994995117188 4590430 0 -1
-3.5165650844573975 4.267025470733643 -0.211996927857399 4456788 0 -1
-3.1948978900909424 4.460019111633301 0.7207895517349243 4456788 0 -1
-3.58315110206604 4.1746087074279785 0.5935913920402527 4456788 0 -1
-3.565549612045288 4.154102325439453 0.8055883049964905 4456788 0 -1
-4.582156181335449 3.017116069793701 -0.7207895517349243 4456788 0 -1
-3.5886802673339844 4.181050777435303 0.5087926387786865 4523353 0 -1
-4.1116533279418945 3.7009198665618896 -0.12719815969467163 4590430 0 -1
-3.6114983558654785 4.122293472290039 0.763188898563385 4590430 0 -1
-3.6247215270996094 4.223041534423828 -0.0852975845336914 4456788 0 -1
-3.5798683166503906 4.256645679473877 -0.21324396133422852 4456788 0 -1
-3.4427387714385986 4.011019229888916 1.8446226119995117 4456788 0 -1
-3.225343704223633 4.876040458679199 1.1410422325134277 4456788 0 -1
-3.965111017227173 4.433554649353027 -0.31949183344841003 4456788 0 -1
-3.7421791553497314 4.633395195007324 0.09128338098526001 4456788 0 -1
-3.7421791553497314 4.633395195007324 -0.09128338098526001 4456788 0 -1
-3.7792415618896484 4.585759162902832 -0.41077521443367004 4523353 0 -1
-3.7408602237701416 4.631762504577637 -0.18256676197052002 4590430 0 -1
-3.216787338256836 4.7670464515686035 1.5518174171447754 4726897 0 -1
-3.7014319896698 4.676061630249023 0.550693154335022 4456788 0 -1
-3.4830453395843506 4.766393661499023 1.0096042156219482 4456788 0 -1
-4.120366096496582 4.32682466506958 -0.41301989555358887 4456788 0 -1
-3.6687400341033936 4.634761810302734 -0.9637130498886108 4456788 0 -1
-3.708329439163208 4.684775352478027 0.41301989555358887 4456788 0 -1
-3.715432643890381 4.693748950958252 0.18356439471244812 4456788 0 -1
-3.7132484912872314 4.690989971160889 0.275346577167511 4456788 0 -1
-3.715432643890381 4.693748950958252 -0.18356439471244812 4523353 0 -1
-3.7171790599823 4.695955276489258 0 4590430 0 -1
-3.7132484912872314 4.690989971160889 0.275346577167511 4657508 0 -1
-4.129714012145996 4.33664083480835 -0.09178219735622406 4726897 0 -1
-3.734682559967041 4.6241135597229 -0.7342575788497925 4726897 0 -1
-4.128258228302002 4.335112571716309 -0.18356439471244812 4728182 0 -1
-3.7062506675720215 4.682149410247803 -0.4589109718799591 4728182 0 -1
-3.441737413406372 4.804603099822998 1.1535125970840454 4456788 0 -1
-3.465256452560425 4.837435245513916 -0.9228101372718811 4456788 0 -1
-3.6788835525512695 4.647575855255127 -1.0612316131591797 4456788 0 -1
-3.6052842140197754 4.646847248077393 -1.2919341325759888 4456788 0 -1
-3.6873373985290527 4.752605438232422 0.27684304118156433 4456788 0 -1
-3.6519124507904053 4.70694637298584 -0.8766696453094482 4456788 0 -1
-3.7284834384918213 4.710236072540283 -0.4152645468711853 4523353 0 -1
-3.496368885040283 4.8808674812316895 -0.46140506863594055 4523353 0 -1
-3.7303526401519775 4.712597846984863 -0.36912405490875244 4590430 0 -1
-3.6756033897399902 4.737481594085693 0.5536860823631287 4657508 0 -1
-3.480225086212158 4.858331203460693 -0.7382481098175049 4726897 0 -1
-3.4834392070770264 4.862817764282227 -0.692107617855072 4728182 0 -1
-3.7158143520355225 4.6942315101623535 0.6459670662879944 4147337 0 -1
-3.6673552989959717 4.726850509643555 -0.9277982711791992 4456788 0 -1
-3.6673552989959717 4.726850509643555 -0.9277982711791992 4456788 0 -1
-3.692735195159912 4.759562969207764 -0.6030688881874084 4456788 0 -1
-3.679572582244873 4.742597579956055 -0.7886285185813904 4456788 0 -1
-3.6897776126861572 4.75575065612793 -0.6494588255882263 4523353 0 -1
-3.510697841644287 4.900870323181152 -0.5566789507865906 4523353 0 -1
-3.686598539352417 4.75165319442749 -0.6958487033843994 4590430 0 -1
-3.903632164001465 5.236523151397705 0.7557066679000854 4456788 0 -1
-3.9203193187713623 5.258908271789551 0.45342400670051575 4456788 0 -1
-3.9222846031188965 5.261544704437256 0.40304356813430786 4456788 0 -1
-3.927828550338745 5.268981456756592 0.20152178406715393 4456788 0 -1
-3.9222846031188965 5.261544704437256 0.40304356813430786 4590430 0 -1
-3.9222846031188965 5.261544704437256 0.40304356813430786 4657508 0 -1
-3.926340103149414 5.266984939575195 0.7088179588317871 4456788 0 -1
-3.9294872283935547 5.271206378936768 0.6581881046295166 4456788 0 -1
-3.941701889038086 5.287591934204102 0.40503883361816406 4456788 0 -1
-3.941701889038086 5.287591934204102 0.40503883361816406 4456788 0 -1
-3.9449527263641357 5.291952610015869 0.30377912521362305 4456788 0 -1
-3.941701889038086 5.287591934204102 0.40503883361816406 4523353 0 -1
-3.9397268295288086 5.284942150115967 0.45566868782043457 4590430 0 -1
-3.9397268295288086 5.284942150115967 0.45566868782043457 4657508 0 -1
-3.9397268295288086 5.284942150115967 0.45566868782043457 4724328 0 -1
-3.922956943511963 5.262446403503418 0.7594478130340576 4728182 0 -1
-3.94228196144104 5.288370132446289 0.763188898563385 4456788 0 -1
-3.9569149017333984 5.307999134063721 0.5087926387786865 4456788 0 -1
-3.7072012424468994 5.493803977966309 0.40703409910202026 4456788 0 -1
-3.959134340286255 5.310976505279541 0.457913339138031 4456788 0 -1
-3.705343723297119 5.491051197052002 0.457913339138031 4456788 0 -1
-3.710258722305298 5.498334884643555 0.305275559425354 4456788 0 -1
-3.959134340286255 5.310976505279541 0.457913339138031 4590430 0 -1
-3.7009692192077637 5.484569072723389 0.5596718788146973 4590430 0 -1
-3.951770305633545 5.301097869873047 0.610551118850708 4657508 0 -1
-3.951770305633545 5.301097869873047 0.610551118850708 4657508 0 -1
-3.7834105491638184 5.496127605438232 -0.05112867057323456 4456788 0 -1
-3.7825217247009277 5.494836330413818 -0.15338601171970367 4456788 0 -1
-4.499190807342529 4.927361488342285 -0.05112867057323456 4456788 0 -1
-3.7834105491638184 5.496127605438232 -0.05112867057323456 4456788 0 -1
-3.7780752182006836 5.488376617431641 -0.3579006791114807 4523353 0 -1
-3.7817440032958984 5.493706703186035 -0.20451468229293823 4590430 0 -1
-3.7830772399902344 5.495643138885498 -0.10225734114646912 4657508 0 -1
-3.7835214138031006 5.496288776397705 0 4724328 0 -1
-3.837031841278076 5.464131832122803 0.6165369153022766 4456788 0 -1
-3.7478461265563965 5.554036617279053 -0.2568903863430023 4456788 0 -1
-3.7496085166931152 5.5566487312316895 -0.15413422882556915 4456788 0 -1
-4.521270751953125 4.951542854309082 0 4456788 0 -1
-3.794827699661255 5.512713432312012 -0.41102463006973267 4523353 0 -1
-3.7991864681243896 5.519044876098633 -0.2568903863430023 4590430 0 -1
-3.7505996227264404 5.558117389678955 0 4657508 0 -1
-3.746633768081665 5.552240371704102 0.3082684576511383 4724328 0 -1
-3.904275417327881 5.4502973556518555 -0.10275615751743317 4728182 0 -1
-3.897686004638672 5.441098690032959 -0.7744122743606567 4456788 0 -1
-3.897686004638672 5.441098690032959 -0.7744122743606567 4456788 0 -1
-3.9180407524108887 5.469513893127441 -0.36139240860939026 4456788 0 -1
-3.767035722732544 5.582474708557129 -0.20650994777679443 4456788 0 -1
-3.767035722732544 5.582474708557129 -0.20650994777679443 4456788 0 -1
-4.5947113037109375 4.927797794342041 0.05162748694419861 4456788 0 -1
-3.9734487533569336 5.437489032745361 -0.20650994777679443 4523353 0 -1
-3.7660393714904785 5.580997943878174 -0.25813743472099304 4523353 0 -1
-3.9180407524108887 5.469513893127441 -0.36139240860939026 4590430 0 -1
-3.7660393714904785 5.580997943878174 -0.25813743472099304 4590430 0 -1
-3.6589975357055664 5.531633377075195 1.1874321699142456 4724328 0 -1
-4.470534801483154 5.878474235534668 0.22646258771419525 4456788 0 -1
-4.538374423980713 5.84950590133667 0.5117855072021484 4456788 0 -1
-4.485872745513916 5.898642539978027 0.39805540442466736 4456788 0 -1
-4.552897930145264 5.868225574493408 0.6282591223716736 4456788 0 -1
-4.558279514312744 5.875161647796631 0.5140301585197449 4456788 0 -1
-4.568620681762695 5.888490676879883 0.11422892659902573 4456788 0 -1
-4.531213760375977 5.958263397216797 0.11472774296998978 4456788 0 -1
-4.453300952911377 6.732452869415283 0.06185321882367134 4456788 0 -1
-4.5247297286987305 6.840438365936279 -0.12570171058177948 4456788 0 -1
-4.477189064025879 7.483978748321533 -0.20052415132522583 4456788 0 -1
-4.482062816619873 7.965244770050049 -0.35041844844818115 4456788 0 -1
-4.492853164672852 7.984420299530029 -0.5626647472381592 4456788 0 -1
-4.496558666229248 7.9910054206848145 -0.4219985902309418 4456788 0 -1
-4.422811985015869 9.310144424438477 -0.47437429428100586 4456788 0 -1
-4.436763763427734 9.339513778686523 -0.4758707284927368 4456788 0 -1
-4.36424446105957 9.602231979370117 -0.8105764389038086 4456788 0 -1
-3.0069477558135986 10.170974731445312 0.325228214263916 4456788 0 -1
-1.4634840488433838 10.509416580200195 0.081307053565979 4456788 0 -1
-0.8090266585350037 10.52731990814209 1.056991696357727 4456788 0 -1
-0.3181919455528259 10.376688957214355 2.1952905654907227 4456788 0 -1
-2.7527289390563965 10.201311111450195 0.975684642791748 4456788 0 -1
-1.1361581087112427 10.530065536499023 0.650456428527832 4456788 0 -1
-0.4007173776626587 10.451602935791016 1.788755178451538 4456788 0 -1
-1.3818546533584595 10.51794719696045 0.243921160697937 4456788 0 -1
-0.8899292945861816 10.520790100097656 1.056991696357727 4456788 0 -1
-0.4007173776626587 10.451602935791016 1.788755178451538 4456788 0 -1
-1.2990401983261108 10.51593017578125 0.569149374961853 4456788 0 -1
-0.15935437381267548 10.397207260131836 2.113983392715454 4456788 0 -1
-3.3335893154144287 10.073897361755371 0 4456788 0 -1
-2.6628921031951904 10.188859939575195 1.300912857055664 4456788 0 -1
-0.5630854368209839 10.482969284057617 1.544834017753601 4456788 0 -1
-1.4633550643920898 10.508490562438965 0.162614107131958 4456788 0 -1
-0.80768221616745 10.509825706481934 1.219605803489685 4456788 0 -1
-7.388291358947754 7.595093727111816 -0.569149374961853 4456788 0 -1
-3.78490948677063 9.80452823638916 -1.463526964187622 4456788 0 -1
1.5247031450271606 10.36128044128418 1.707448124885559 4456788 0 -1
6.003765106201172 8.215887069702148 -3.0083611011505127 4456788 0 -1
-4.380128383636475 9.637179374694824 -0.731763482093811 4456788 0 -1
-2.335369825363159 10.246968269348145 1.463526964187622 2006409 0 -1
-0.482644647359848 10.486981391906738 1.544834017753601 2006409 0 -1
-2.3241608142852783 10.197787284851074 1.788755178451538 2271109 0 -1
-0.6449143290519714 10.50094223022461 1.382219910621643 2271109 0 -1
-0.07941369712352753 10.363736152648926 2.276597499847412 2271109 0 -1
-2.826887607574463 10.154678344726562 1.219605803489685 2468738 0 -1
-0.6449143290519714 10.50094223022461 1.382219910621643 2468738 0 -1
-1.7929248809814453 10.483663558959961 -0.40778231620788574 4456788 0 -1
-1.2210463285446167 10.553265571594238 0.6524516940116882 4456788 0 -1
-1.2210463285446167 10.553265571594238 0.6524516940116882 4456788 0 -1
-1.0557425022125244 10.545883178710938 0.9786775708198547 4456788 0 -1
-1.1401468515396118 10.567033767700195 0.570895254611969 4456788 0 -1
-1.3858084678649902 10.548041343688965 0.3262258470058441 4456788 0 -1
-0.4024684727191925 10.497275352478027 1.7126857042312622 4456788 0 -1
-3.262258529663086 10.131422996520996 0 4456788 0 -1
-1.4676283597946167 10.539177894592285 0.24466939270496368 4456788 0 -1
-0.4835585355758667 10.506837844848633 1.631129264831543 4456788 0 -1
-1.3858084678649902 10.548041343688965 0.3262258470058441 4456788 0 -1
-0.24013830721378326 10.44381332397461 2.0389115810394287 4456788 0 -1
-0.24013830721378326 10.44381332397461 2.0389115810394287 4456788 0 -1
-3.343716859817505 10.10450267791748 0.08155646175146103 4456788 0 -1
-2.673527240753174 10.229552268981934 1.2233469486236572 4456788 0 -1
-1.1396431922912598 10.562366485595703 0.6524516940116882 4456788 0 -1
-0.5654391050338745 10.526787757873535 1.468016266822815 4456788 0 -1
-3.8195135593414307 9.89416790008545 -0.8971210718154907 4456788 0 -1
-1.0587078332901 10.5755033493042 0.570895254611969 4456788 0 -1
-1.7122331857681274 10.502211570739746 -0.24466939270496368 4456788 0 -1
-0.8126624822616577 10.574630737304688 0.8971210718154907 4456788 0 -1
-2.935687780380249 10.229525566101074 -0.16311292350292206 4456788 0 -1
-1.5479342937469482 10.519149780273438 -0.48933878540992737 4456788 0 -1
-0.8126624822616577 10.574630737304688 0.8971210718154907 4456788 0 -1
0 10.517959594726562 1.631129264831543 4456788 0 -1
-3.180701971054077 10.15732192993164 0 2006409 0 -1
-2.339938163757324 10.267013549804688 1.5495728254318237 2006409 0 -1
-0.9758002758026123 10.567437171936035 0.8155646324157715 2006409 0 -1
0.07906679809093475 10.318465232849121 2.609806776046753 2006409 0 -1
-2.8443186283111572 10.217293739318848 0.8971210718154907 2072968 0 -1
-1.0582401752471924 10.570832252502441 0.6524516940116882 2139270 0 -1
-0.4835585355758667 10.506837844848633 1.631129264831543 2139270 0 -1
0.07906679809093475 10.318465232849121 2.609806776046753 2139270 0 -1
-2.4233105182647705 10.25965690612793 1.468016266822815 2271109 0 -1
-0.893320620059967 10.560882568359375 0.9786775708198547 2271109 0 -1
-0.893320620059967 10.560882568359375 0.9786775708198547 2271109 0 -1
0.07922223210334778 10.338748931884766 2.528250217437744 2271109 0 -1
-2.506708860397339 10.250961303710938 1.3864598274230957 2666112 0 -1
-0.6475297808647156 10.54352855682373 1.3049033880233765 2666112 0 -1
0 10.395832061767578 2.283581018447876 2994813 0 -1
-3.180328607559204 10.156129837036133 0.16311292350292206 4899181 0 -1
-2.339938163757324 10.267013549804688 1.5495728254318237 4899181 0 -1
-0.810858428478241 10.551156044006348 1.141790509223938 4899181 0 -1
0.1578122228384018 10.296587944030762 2.6913633346557617 4899181 0 -1
-0.8939287066459656 10.568071365356445 0.8971210718154907 5424489 0 -1
-2.5925111770629883 10.250384330749512 1.2233469486236572 5949540 0 -1
-0.32066217064857483 10.457245826721191 1.9573551416397095 5949540 0 -1
9.682113647460938 4.359583377838135 0.7340081334114075 5949540 0 -1
-0.9751949906349182 10.560882568359375 0.8971210718154907 11197490 0 -1
-0.48167961835861206 10.466012954711914 1.8757985830307007 11197490 0 -1
0.1564202904701233 10.205770492553711 3.0175890922546387 11197490 0 -1
-0.3196863830089569 10.425424575805664 2.1204681396484375 11918891 0 -1
-1.717469334602356 10.53432846069336 -0.24541760981082916 4456788 0 -1
-0.40018007159233093 10.437588691711426 2.208758592605591 4456788 0 -1
-7.825417518615723 7.206600666046143 -0.8998645544052124 4456788 0 -1
-3.095453977584839 10.170373916625977 0.9816704392433167 4456788 0 -1
-1.5542658567428589 10.562176704406738 0.08180586993694305 4456788 0 -1
-0.7292163372039795 10.549027442932129 1.4725056886672974 4456788 0 -1
-0.8930763006210327 10.55799388885498 1.3088939189910889 4456788 0 -1
-1.3903323411941528 10.582474708557129 0.24541760981082916 4456788 0 -1
-0.24087266623973846 10.475751876831055 2.0451467037200928 4456788 0 -1
-3.2713701725006104 10.159720420837402 0.24541760981082916 4456788 0 -1
-2.6840157508850098 10.269683837890625 1.1452821493148804 4456788 0 -1
-2.6840157508850098 10.269683837890625 1.1452821493148804 4456788 0 -1
-1.39004647731781 10.58029842376709 0.3272234797477722 4456788 0 -1
-0.4861442446708679 10.563020706176758 1.4725056886672974 4456788 0 -1
-3.353646755218506 10.134510040283203 0.1636117398738861 4456788 0 -1
-0.9802573323249817 10.615705490112305 0.5726410746574402 4456788 0 -1
-2.9428491592407227 10.25447940826416 0.40902936458587646 4456788 0 -1
-0.5658769011497498 10.534937858581543 1.6361174583435059 4456788 0 -1
-2.5927693843841553 10.251404762268066 1.4725056886672974 3302798 0 -1
-0.5665399432182312 10.547282218933105 1.5543115139007568 3302798 0 -1
0 10.307561874389648 2.7813994884490967 3302798 0 -1
-1.0589711666107178 10.578133583068848 0.9816704392433167 3238030 0 -1
-2.7629668712615967 10.239252090454102 1.2270880937576294 3107982 0 -1
-1.0614763498306274 10.603158950805664 0.6544469594955444 3107982 0 -1
-3.353154420852661 10.13302230834961 -0.24541760981082916 2588302 0 -1
-0.07880911231040955 10.284836769104004 2.8632054328918457 2588302 0 -1
-2.4280283451080322 10.279630661010742 1.5543115139007568 2523534 0 -1
-2.4190547466278076 10.241639137268066 1.7997291088104248 2070922 0 -1
-0.32164278626441956 10.489225387573242 1.9633408784866333 2070922 0 -1
-3.188930034637451 10.183597564697266 0.3272234797477722 2072968 0 -1
-2.8611032962799072 10.277586936950684 -0.40902936458587646 2072968 4 -1
-1.388697862625122 10.57003402709961 0.5726410746574402 2072968 0 -1
-0.9787843823432922 10.599753379821777 0.8180587291717529 2072968 0 -1
-3.190054178237915 10.187188148498535 0.1636117398738861 2139270 0 -1
-2.508962631225586 10.260177612304688 1.5543115139007568 2139270 0 -1
-0.7292163372039795 10.549027442932129 1.4725056886672974 2139270 0 -1
-2.9345316886901855 10.225496292114258 0.8998645544052124 2271109 0 -1
0.15861718356609344 10.349108695983887 2.6177878379821777 2271109 0 -1
-2.5117452144622803 10.271556854248047 1.4725056886672974 2666112 0 -1
-2.0936615467071533 10.298466682434082 1.8815350532531738 2666112 0 -1
-1.060349702835083 10.591904640197754 0.8180587291717529 2666112 0 -1
-2.6066980361938477 10.306476593017578 0.9816704392433167 2994813 0 -1
-2.0102672576904297 10.299812316894531 1.9633408784866333 2994813 0 -1
-0.8960524797439575 10.593178749084473 0.9816704392433167 2994813 0 -1
-0.32254061102867126 10.518505096435547 1.7997291088104248 2994813 0 -1
0.2374422401189804 10.326559066772461 2.6995937824249268 2994813 0 -1
-3.188930034637451 10.183597564697266 0.3272234797477722 4899181 0 -1
-2.508962631225586 10.260177612304688 1.5543115139007568 4899181 0 -1
-2.1826679706573486 10.321874618530273 1.6361174583435059 4899181 0 -1
-0.8126373291015625 10.57430362701416 1.2270880937576294 4899181 0 -1
0.15829482674598694 10.328076362609863 2.6995937824249268 4899181 0 -1
-2.751765489578247 10.19774055480957 1.5543115139007568 5424489 0 -1
-0.8960524797439575 10.593178749084473 0.9816704392433167 5424489 0 -1
-0.40205347537994385 10.486451148986816 1.9633408784866333 5424489 0 -1
0.23694279789924622 10.304838180541992 2.7813994884490967 5424489 0 -1
-2.856389045715332 10.260652542114258 0.7362528443336487 5949540 0 -1
-1.3042362928390503 10.55799388885498 0.8998645544052124 5949540 0 -1
-0.32210177183151245 10.504194259643555 1.8815350532531738 5949540 0 -1
-0.8800417184829712 10.403898239135742 2.379603147506714 4456788 0 -1
-0.5682671666145325 10.579438209533691 1.5590503215789795 4456788 0 -1
-0.9772353768348694 10.582978248596191 1.3128844499588013 4728182 0 -1
-2.27306866645813 10.347975730895996 1.5590503215789795 3562893 0 -1
-0.5682671666145325 10.579438209533691 1.5590503215789795 3562893 0 -1
-0.07970676571130753 10.401983261108398 2.5437135696411133 3562893 0 -1
-2.936944007873535 10.233902931213379 1.1487739086151123 3302798 0 -1
-2.8715975284576416 10.31528377532959 -0.16411055624485016 3238030 4 -1
-0.7279289364814758 10.530404090881348 1.8052160739898682 3238030 0 -1
-2.8050572872161865 10.07625961303711 2.2975478172302246 2588302 0 -1
-0.8151148557662964 10.606541633605957 1.2308292388916016 2328718 0 -1
-2.78167724609375 10.30859088897705 0.8205527663230896 2994813 0 -1
-2.1837868690490723 10.327165603637695 1.8052160739898682 2994813 0 -1
-0.40385472774505615 10.533432006835938 1.8872714042663574 2994813 0 -1
0.23816615343093872 10.35804271697998 2.707824230194092 2994813 0 -1
-3.198652505874634 10.214645385742188 0.3282211124897003 4899181 0 -1
-0.8973995447158813 10.609103202819824 1.1487739086151123 4899181 0 -1
