VERSION .7
FIELDS x y z rgb label object
SIZE 4 4 4 4 4 4
TYPE F F F I I I
COUNT 1 1 1 1 1 1
WIDTH 686
HEIGHT 1
POINTS 686
VIEWPOINT 0 0 0 1 0 0 0
DATA ascii
-3.114305257797241 2.6115763187408447 -0.18705610930919647 4523353 0 -1
-3.304560899734497 2.373420238494873 0.031176017597317696 4590430 0 -1
-3.1043946743011475 2.6032655239105225 -0.37411221861839294 4590430 0 -1
-2.3348355293273926 3.3249263763427734 0.21823212504386902 4590430 0 -1
-3.038116931915283 2.609579563140869 0.7170484066009521 4724328 0 -1
-3.1161370277404785 2.613112449645996 0.12470407038927078 4725613 0 -1
-2.3973147869110107 3.0898964405059814 1.1223366260528564 4725613 0 -1
-2.331327199935913 3.3199303150177 0.31176018714904785 4725613 0 -1
-2.348520040512085 3.344413995742798 0.3456796705722809 4456788 0 -1
-3.0643746852874756 2.6949687004089355 -0.4085305333137512 4456788 0 -1
-2.345184564590454 3.3396642208099365 0.4085305333137512 4456788 0 -1
-2.4152071475982666 3.3051044940948486 0.25140342116355896 4456788 0 -1
-3.323164701461792 2.386781930923462 -0.28282883763313293 4456788 0 -1
-3.135061025619507 2.628981590270996 -0.28282883763313293 4523353 0 -1
-2.5050880908966064 3.2288055419921875 0.3456796705722809 4590430 0 -1
-2.3524746894836426 3.3500454425811768 0.25140342116355896 4590430 0 -1
-2.349977731704712 3.346489906311035 0.3142542541027069 4725613 0 -1
-3.1392197608947754 2.6324689388275146 0.18855255842208862 4726897 0 -1
-2.367159128189087 3.3709568977355957 0.34842318296432495 4456788 0 -1
-3.382833480834961 2.362290620803833 0.25339868664741516 4456788 0 -1
-3.167111396789551 2.655858278274536 -0.06334967166185379 4456788 0 -1
-3.325443983078003 2.3884189128875732 -0.5701470375061035 4456788 0 -1
-3.211008310317993 2.3701913356781006 1.076944351196289 4523353 0 -1
-2.2935774326324463 3.2661728858947754 1.076944351196289 4523353 0 -1
-2.405519962310791 3.358062267303467 0.15837417542934418 4590430 0 -1
-2.3744964599609375 3.381405830383301 0.12669934332370758 4725613 0 -1
-3.159942626953125 2.6498465538024902 0.28507351875305176 4726897 0 -1
-2.2707364559173584 3.2986791133880615 1.1492726802825928 4456788 0 -1
-2.3534836769104004 3.351482629776001 0.7661818265914917 4456788 0 -1
-2.3499772548675537 3.346489191055298 0.7981060743331909 4523353 0 -1
-3.320735216140747 2.186534881591797 -1.2450454235076904 4590430 0 -1
-3.2128746509552 2.6291582584381104 0.35116666555404663 4590430 0 -1
-2.617096185684204 3.2403690814971924 -0.09577272832393646 4590430 0 -1
-2.4578778743743896 3.363497495651245 0.06384848058223724 4590430 0 -1
-3.3197312355041504 2.516676902770996 0.06384848058223724 4724328 0 -1
-2.3872790336608887 3.399608612060547 0.3192424178123474 4724328 0 -1
-3.216987133026123 2.6976828575134277 0.0643472969532013 4456788 0 -1
-2.4781723022460938 3.2586417198181152 0.9330358505249023 4456788 0 -1
-2.3526952266693115 3.3503594398498535 0.9330358505249023 4456788 0 -1
-2.5726828575134277 3.3159282207489014 0.1286945939064026 4657508 0 -1
-2.41125226020813 3.4337477684020996 0.16086825728416443 4657508 0 -1
-2.41125226020813 3.4337477684020996 0.16086825728416443 4657508 0 -1
-2.9602413177490234 4.215536594390869 -0.9637130498886108 4456788 0 -1
-3.2940192222595215 4.07850456237793 -0.5656576752662659 4456788 0 -1
-3.2940192222595215 4.07850456237793 -0.5656576752662659 4456788 0 -1
-4.355360507965088 2.7806475162506104 -1.0505070686340332 4456788 0 -1
-3.3013482093811035 4.087578773498535 -0.44444531202316284 4456788 0 -1
-4.367838382720947 2.5237669944763184 -1.5353565216064453 4456788 0 -1
-3.744187593460083 3.5267183780670166 1.300912857055664 4456788 0 -1
-2.6381185054779053 4.321529388427734 1.5854876041412354 4456788 0 -1
-1.9853423833847046 4.786622047424316 1.138298749923706 4456788 0 -1
-3.2176311016082764 4.1472015380859375 0.7724170088768005 4456788 0 -1
-3.3143527507781982 4.10368013381958 -0.569149374961853 4456788 0 -1
-3.3287904262542725 4.121556282043457 -0.2845746874809265 4456788 0 -1
-3.3287904262542725 4.121556282043457 -0.2845746874809265 4456788 0 -1
-4.593713760375977 2.6542794704437256 0.0406535267829895 4456788 0 -1
-4.482636451721191 2.77185320854187 0.6098029017448425 4600703 0 -1
-3.3343851566314697 4.045967102050781 0.81307053565979 4600703 0 -1
-3.5110371112823486 4.007623672485352 -0.3272234797477722 4456788 0 -1
-4.203355312347412 3.0189573764801025 -1.3088939189910889 4456788 0 -1
-3.5568835735321045 3.9770987033843994 -0.1636117398738861 4456788 0 -1
-3.2037999629974365 4.212797164916992 0.6953498721122742 4456788 0 -1
-3.34417986869812 4.140611171722412 -0.40902936458587646 4456788 0 -1
-3.206955671310425 4.216946601867676 -0.6544469594955444 4456788 0 -1
-4.621895790100098 2.670563220977783 0.04090293496847153 4456788 0 -1
-3.196903944015503 4.203729152679443 0.7771557569503784 4664956 0 -1
-4.47335958480835 2.855983257293701 0.5726410746574402 4600703 0 -1
-3.380561590194702 4.1019978523254395 0.4908352196216583 4600703 0 -1
-4.398644924163818 3.0716490745544434 0.2469140589237213 4456788 0 -1
-3.5389976501464844 4.039538383483887 0.04115234315395355 4456788 0 -1
-3.5386860370635986 4.039182662963867 -0.0823046863079071 4456788 0 -1
-3.2199645042419434 4.2340521812438965 0.7407422065734863 4456788 0 -1
-4.646800518035889 2.684953451156616 0.20576171576976776 4456788 0 -1
-3.4506194591522217 3.9386606216430664 1.1934179067611694 4456788 0 -1
-3.565086841583252 3.986271381378174 -0.4938281178474426 4523353 0 -1
-3.4107277393341064 4.138601779937744 0.28806641697883606 4590430 0 -1
-3.557936429977417 4.061156272888184 -0.20700876414775848 4456788 0 -1
-3.850249767303467 3.790595769882202 -0.04140175133943558 4456788 0 -1
-4.673450946807861 2.700352191925049 0.24841050803661346 4456788 0 -1
-3.850249767303467 3.790595769882202 -0.04140175133943558 4456788 0 -1
-3.477637767791748 3.9695000648498535 1.1592490673065186 4456788 0 -1
-3.850249767303467 3.790595769882202 0.04140175133943558 4590430 0 -1
-3.8985435962677 3.5902552604675293 1.207883596420288 4456788 0 -1
-3.511268377304077 4.175076484680176 0.37710511684417725 4456788 0 -1
-2.9495930671691895 4.549175262451172 0.7123096585273743 4456788 0 -1
-3.129229784011841 4.456185340881348 0.5028068423271179 4456788 0 -1
-3.8261141777038574 3.603886365890503 1.508420467376709 4456788 0 -1
-3.808079242706299 3.5868988037109375 1.5922216176986694 4456788 0 -1
-4.57429313659668 2.9204235076904297 -0.670409083366394 4456788 0 -1
-4.0182013511657715 3.7004506587982178 -0.25140342116355896 4456788 0 -1
-3.3124499320983887 4.269413471221924 -0.8380113840103149 4657508 0 -1
-3.25968599319458 4.372702121734619 -0.7165495753288269 4456788 0 -1
-2.9498207569122314 4.549526691436768 0.9272994995117188 4456788 0 -1
-2.886408567428589 4.63393497467041 0.6743996143341064 4456788 0 -1
-3.3639702796936035 4.335818290710449 -0.37934979796409607 4456788 0 -1
-3.1655585765838623 4.41906213760376 0.8429995179176331 4456788 0 -1
-4.609742641448975 2.9430558681488037 -0.5900996923446655 4456788 0 -1
-4.601832389831543 2.469040870666504 -1.7281490564346313 4523353 0 -1
-4.160579681396484 3.5737147331237793 -0.42149975895881653 4523353 0 -1
-3.1611554622650146 4.501648902893066 0.04214997589588165 4523353 0 -1
-3.224468946456909 4.325460433959961 1.2295821905136108 4456788 0 -1
-2.942668914794922 4.630317687988281 0.7207895517349243 4456788 0 -1
-2.8909997940063477 4.641305446624756 0.847987711429596 4456788 0 -1
-3.3447296619415283 4.398110866546631 -0.29679569602012634 4456788 0 -1
-3.688746452331543 4.124540328979492 0 4456788 0 -1
-3.1753761768341064 4.521900177001953 0.29679569602012634 4456788 0 -1
-3.173973560333252 4.51990270614624 0.3391950726509094 4456788 0 -1
-4.521556854248047 2.8867545127868652 -1.3567802906036377 4456788 0 -1
-4.832252502441406 2.6929235458374023 0.12719815969467163 4523353 0 -1
-3.8939433097839355 3.504957914352417 1.7807741165161133 4523353 0 -1
-3.691392660140991 4.042688369750977 0.8055883049964905 4523353 0 -1
-4.112257480621338 3.701463222503662 -0.08479876816272736 4590430 0 -1
-4.553887367248535 2.7239179611206055 -1.5687772035598755 4657508 0 -1
-3.2215018272399902 4.497158050537109 0.12719815969467163 4657508 0 -1
-3.4798073768615723 4.308538436889648 0.5544342994689941 4456788 0 -1
-3.199070453643799 4.46584415435791 0.8956246376037598 4456788 0 -1
-3.6241893768310547 4.222421169281006 0.1279463768005371 4456788 0 -1
-3.1982836723327637 4.554521560668945 -0.0852975845336914 4456788 0 -1
-3.6749837398529053 4.109151363372803 -0.7676782608032227 4456788 0 -1
-3.3629183769226074 4.422027587890625 0.3411903381347656 4456788 0 -1
4.984460830688477 2.3549487590789795 -0.7676782608032227 4456788 0 -1
-3.513146162033081 4.262876987457275 -0.6823806762695312 4456788 0 -1
-3.1827504634857178 4.5324015617370605 0.5544342994689941 4456788 0 -1
-3.6144895553588867 4.211120128631592 -0.42648792266845703 4456788 0 -1
-4.5994391441345215 3.120255470275879 0.2985415458679199 4456788 0 -1
-2.1163976192474365 4.8717803955078125 1.6633028984069824 4657508 0 -1
4.749101161956787 2.8406851291656494 -0.5970830917358398 4657508 0 -1
4.8974995613098145 2.420255184173584 -1.0662198066711426 4657508 0 -1
-1.954378366470337 5.0626726150512695 1.2368149757385254 4724328 0 -1
-3.628211498260498 4.227107524871826 0.5576766133308411 4456788 0 -1
-3.217270612716675 4.581559658050537 0.04289820045232773 4456788 0 -1
4.994126319885254 2.4680066108703613 -0.5576766133308411 4456788 0 -1
-3.0867531299591064 4.574344635009766 0.9437603950500488 4456788 0 -1
4.744755744934082 2.9339358806610107 -0.4718801975250244 4657508 0 -1
4.776873588562012 2.857297420501709 -0.600574791431427 4724328 0 -1
-3.1004750728607178 4.594679832458496 0.9923949837684631 4456788 0 -1
5.087679862976074 2.4037153720855713 -0.21573804318904877 4456788 0 -1
-3.339634895324707 4.304451942443848 -1.4238710403442383 4657508 0 -1
4.827422142028809 2.887533187866211 -0.2588856518268585 4657508 0 -1
-5.149062156677246 2.3184778690338135 0.4339701533317566 4728182 0 -1
-4.685266971588135 2.991274118423462 1.0849254131317139 4728182 0 -1
-3.328152656555176 4.204493999481201 1.8226747512817383 4728182 0 -1
-3.3207590579986572 5.121627330780029 -1.340818166732788 4456788 0 -1
-3.50173282623291 5.086936950683594 -0.9577272534370422 4456788 0 -1
-4.043365955352783 5.211490631103516 -0.763188898563385 4456788 0 -1
-4.050933837890625 5.117591857910156 1.221102237701416 4456788 0 -1
-4.044898509979248 5.10996675491333 1.2719814777374268 4456788 0 -1
-4.038606643676758 5.1020188331604 1.322860836982727 4456788 0 -1
-4.044898509979248 5.10996675491333 1.2719814777374268 4523353 0 -1
-4.070341110229492 5.24625825881958 0 4590430 0 -1
-4.101841926574707 5.1819047927856445 -0.9203160405158997 4456788 0 -1
-4.082154750823975 5.157033443450928 1.124830722808838 4456788 0 -1
-4.04498291015625 5.110073566436768 1.4316027164459229 4456788 0 -1
-4.549917221069336 4.879756450653076 -0.10225734114646912 4456788 0 -1
-4.06472635269165 5.135015964508057 1.2782167196273804 4456788 0 -1
-4.058403968811035 5.127028465270996 1.3293453454971313 4523353 0 -1
-3.9984097480773926 5.051237106323242 1.7383747100830078 4590430 0 -1
-4.572112083435059 4.903560161590576 -0.10275615751743317 4456788 0 -1
-4.541084289550781 4.973241806030273 -0.20650994777679443 4456788 0 -1
-4.45770788192749 4.984347820281982 -0.8260397911071777 4456788 0 -1
-4.486841678619385 5.016923904418945 -0.30976492166519165 4523353 0 -1
-4.509976387023926 5.042791366577148 -0.2593844532966614 4456788 0 -1
-4.1262030601501465 5.318259239196777 0.7262765169143677 4456788 0 -1
-4.513157367706299 5.0463480949401855 -0.051876895129680634 4456788 0 -1
-4.508517265319824 5.0411601066589355 -0.3112613558769226 4523353 0 -1
-4.53165864944458 5.06703519821167 -0.2606315016746521 4456788 0 -1
-4.1493635177612305 5.348110675811768 0.6776419281959534 4456788 0 -1
-4.534854888916016 5.0706095695495605 0.05212630331516266 4456788 0 -1
-4.526459693908691 5.061222076416016 -0.41701042652130127 4523353 0 -1
-4.556151866912842 5.094421863555908 -0.10475142300128937 4456788 0 -1
-4.545838832855225 5.082890510559082 -0.47138139605522156 4523353 0 -1
-2.773411989212036 6.240726470947266 -2.259887218475342 2718350 0 -1
-1.3836110830307007 6.80581521987915 -1.8740527629852295 2718350 0 -1
-1.5739920139312744 6.6638665199279785 -2.204767942428589 2588302 0 -1
-1.2897876501083374 6.893979549407959 -1.5984567403793335 2588302 0 -1
-2.825740337371826 6.217207908630371 -2.259887218475342 2264205 0 -1
-1.6177929639816284 6.615818977355957 -2.3150062561035156 2264205 0 -1
-1.3331996202468872 6.830785751342773 -1.8189336061477661 2264205 0 -1
-1.4401885271072388 6.810676574707031 -1.937901258468628 4456788 0 -1
-2.814852237701416 6.193251609802246 -2.436218738555908 4456788 0 -1
-2.762725353240967 6.216679573059082 -2.436218738555908 4728182 0 -1
-1.2882810831069946 6.885926723480225 -1.771795392036438 4728182 0 -1
-4.247743606567383 5.474912643432617 2.0486385822296143 4600703 0 -1
-3.1453804969787598 6.075659275054932 -2.325481414794922 3562893 0 -1
-1.5059491395950317 6.8557209968566895 -1.7164268493652344 3562893 0 -1
-2.8669791221618652 6.1692938804626465 -2.436218738555908 2328718 0 -1
-1.6775363683700562 6.632716178894043 -2.325481414794922 2328718 0 -1
-2.8752286434173584 6.187045574188232 -2.380850076675415 2264205 0 -1
-1.4401885271072388 6.810676574707031 -1.937901258468628 2264205 0 -1
-2.500781774520874 6.478090286254883 -2.1134846210479736 4456788 0 -1
-1.294084072113037 6.91694450378418 -1.7797764539718628 4456788 0 -1
-2.8798933029174805 6.197083473205566 -2.447192668914795 4456788 0 -1
-1.6324336528778076 6.675690650939941 -2.335956573486328 4456788 0 -1
-1.091760277748108 7.039963722229004 -1.390450358390808 4456788 0 -1
-2.559098720550537 6.47021484375 -2.1788294315338135 4456788 0 -1
-1.6830880641937256 6.654667377471924 -2.4581665992736816 4456788 0 -1
-2.678757429122925 6.458431720733643 -2.067094564437866 4456788 0 -1
-1.4928076267242432 6.795895099639893 -2.1788294315338135 4456788 0 -1
-1.198354721069336 7.007068157196045 -1.6201553344726562 4456788 0 -1
-2.6238410472869873 6.796866416931152 0.2793371081352234 4456788 0 -1
-0.5456646680831909 7.100367546081543 1.5642879009246826 4456788 0 -1
-3.303879976272583 6.248861312866211 1.7877575159072876 4600703 0 -1
-2.8402111530303955 6.249046325683594 2.4581665992736816 4600703 0 -1
-1.6351832151412964 6.686934947967529 2.402299165725708 4600703 0 -1
-2.787614583969116 6.272685527801514 2.4581665992736816 2070155 0 -1
-1.5001040697097778 6.8291120529174805 -2.067094564437866 2070155 0 -1
-2.9930167198181152 6.300384521484375 2.12296199798584 2072968 0 -1
-1.49947190284729 6.826233863830566 -2.188556432723999 3692940 0 -1
-1.6906019449234009 6.684375762939453 -2.4691405296325684 2134668 0 -1
-4.509299278259277 5.812031269073486 0 4456788 0 -1
-2.3365325927734375 6.874080181121826 1.1836910247802734 4471684 0 -1
-3.0778346061706543 6.203986644744873 2.480114459991455 3887499 0 -1
-1.6497830152511597 6.746639728546143 -2.423748254776001 3757452 0 -1
-2.935216188430786 6.316129684448242 2.367382049560547 2912910 0 -1
-2.52573561668396 6.875801086425781 0.6763948798179626 2199437 0 -1
-2.52573561668396 6.875801086425781 0.6763948798179626 2199437 0 -1
-3.9990649223327637 6.167782306671143 0.28183120489120483 2134668 0 -1
-2.760648250579834 6.814798355102539 0.22546495497226715 2134668 0 -1
-2.409762144088745 6.905346393585205 0.7891273498535156 2134668 0 -1
-2.291325330734253 6.924241542816162 0.9582260847091675 2070155 0 -1
-2.0437443256378174 6.912947177886963 1.465522289276123 2006409 0 -1
-2.759917974472046 6.812995910644531 0.28183120489120483 2072968 0 -1
-4.05646276473999 6.132516860961914 0.22546495497226715 2994813 0 -1
-2.585224151611328 6.863846302032471 0.5636624097824097 4899181 0 -1
-2.1053874492645264 6.917426586151123 1.3527897596359253 5424489 0 -1
-2.6414246559143066 6.8424153327941895 0.5636624097824097 5949540 0 -1
-2.286393404006958 6.909337043762207 1.0709586143493652 5949540 0 -1
-2.2889292240142822 6.9170002937316895 1.0145922899246216 6343264 0 -1
-0.05661564692854881 7.388519763946533 0 4456788 0 -1
-1.8274731636047363 6.7724151611328125 2.321241617202759 4456788 0 -1
-4.47250509262085 5.8810648918151855 0.05661564692854881 4456788 0 -1
-3.001807689666748 6.31889009475708 2.377857208251953 3757452 0 -1
-2.6581218242645264 6.88566780090332 0.33969390392303467 3562893 0 -1
-2.2351155281066895 6.941479206085205 1.1889286041259766 2264205 0 -1
-2.2351155281066895 6.941479206085205 1.1889286041259766 2264205 0 -1
-2.713639259338379 6.860942363739014 0.3963095247745514 2134668 0 -1
-2.240497589111328 6.958194732666016 1.0756973028182983 2134668 0 -1
-1.0082238912582397 7.2401509284973145 1.0756973028182983 2134668 0 -1
-2.5402140617370605 6.915215492248535 0.5661565065383911 2070155 0 -1
-2.0590531826019287 6.964729309082031 1.3587756156921387 2070155 0 -1
-2.3575971126556396 6.936052322387695 0.9624660015106201 2006409 0 -1
-2.772130012512207 6.843141555786133 0.28307825326919556 2072968 0 -1
-2.359919309616089 6.94288444519043 0.905850350856781 4505456 0 -1
-2.4241597652435303 6.946604251861572 0.6793878078460693 12640037 0 -1
-2.1017823219299316 7.109260559082031 -0.3411903381347656 4456788 6 -1
-2.649885892868042 6.864333152770996 -0.9667059779167175 4456788 0 -1
-4.492339611053467 5.907145977020264 0 4456788 0 -1
-2.188837766647339 6.98988151550293 1.1941661834716797 2134668 0 -1
-2.4449102878570557 7.00606632232666 0.11373011022806168 2070155 0 -1
-2.239000082015991 6.953543663024902 1.3078962564468384 4045940 0 -1
-2.493159055709839 6.961923122406006 0.6255156397819519 4505456 0 -1
-2.4914629459381104 6.957187175750732 0.6823806762695312 8180304 0 -1
-2.113173246383667 7.14778995513916 -0.05711446329951286 4456788 6 -1
-4.603262424468994 5.815354824066162 -0.7424880266189575 4456788 0 -1
-4.510850429534912 5.9314866065979 -0.1713433861732483 4456788 0 -1
-2.210660934448242 7.059571743011475 -0.9138314127922058 4456788 6 -1
-2.1202189922332764 7.1716227531433105 -0.3441832363605499 4456788 6 -1
-2.1222140789031982 7.178370475769043 -0.11472774296998978 4456788 6 -1
-2.1219024658203125 7.177316665649414 -0.17209161818027496 4456788 6 -1
-2.1224632263183594 7.179213523864746 0 4456788 6 -1
-2.1224632263183594 7.179213523864746 0 4456788 6 -1
-2.1214661598205566 7.175840854644775 -0.22945548593997955 4456788 6 -1
-2.1219024658203125 7.177316665649414 -0.17209161818027496 4456788 6 -1
-2.1222140789031982 7.178370475769043 0.11472774296998978 4456788 6 -1
-2.1209049224853516 7.173943042755127 -0.28681936860084534 4456788 6 -1
-2.1209049224853516 7.173943042755127 -0.28681936860084534 4456788 6 -1
-2.11741042137146 7.1621222496032715 -0.5162748694419861 4456788 6 -1
-2.1209049224853516 7.173943042755127 -0.28681936860084534 4456788 6 -1
-4.529616832733154 5.95616340637207 -0.22945548593997955 4456788 0 -1
-2.2242813110351562 7.103067874908447 -0.803094208240509 4456788 6 -1
-2.6309802532196045 6.985330581665039 -0.5736387372016907 4664956 0 -1
-2.1266164779663086 7.193261623382568 -0.5185195207595825 4456788 6 -1
-2.130689859390259 7.207040309906006 -0.23045311868190765 4456788 6 -1
-2.131441116333008 7.209580898284912 -0.11522655934095383 4456788 6 -1
-2.1294374465942383 7.202803611755371 -0.3456796705722809 4456788 6 -1
-2.1311280727386475 7.208522319793701 -0.17283983528614044 4456788 6 -1
-2.1316287517547607 7.210216045379639 0.05761327967047691 4456788 6 -1
-2.1301262378692627 7.20513391494751 -0.28806641697883606 4456788 6 -1
-2.130689859390259 7.207040309906006 -0.23045311868190765 4456788 6 -1
-2.1286227703094482 7.200048446655273 -0.4032929539680481 4456788 6 -1
-2.1294374465942383 7.202803611755371 -0.3456796705722809 4456788 6 -1
-2.1286227703094482 7.200048446655273 -0.4032929539680481 4456788 6 -1
-2.238922357559204 7.149823188781738 -0.6337460875511169 4456788 6 -1
-4.549310684204102 5.982059478759766 -0.23045311868190765 4456788 0 -1
-2.2452683448791504 7.170088291168213 -0.28806641697883606 4456788 6 -1
-2.139347553253174 7.236325263977051 -0.2893134355545044 4456788 6 -1
-2.139347553253174 7.236325263977051 -0.2893134355545044 4456788 6 -1
-2.138655662536621 7.233984470367432 -0.34717613458633423 4456788 6 -1
-2.139347553253174 7.236325263977051 -0.2893134355545044 4456788 6 -1
-2.1403536796569824 7.239727973937988 -0.17358806729316711 4456788 6 -1
-2.139347553253174 7.236325263977051 -0.2893134355545044 4456788 6 -1
-2.1971678733825684 7.218979358673096 -0.2893134355545044 4456788 6 -1
-2.1378376483917236 7.231217384338379 -0.40503883361816406 4456788 6 -1
-2.1956169605255127 7.213883876800537 -0.40503883361816406 4456788 6 -1
-2.139347553253174 7.236325263977051 -0.2893134355545044 4456788 6 -1
-2.1368932723999023 7.228023052215576 -0.4629015028476715 4456788 6 -1
-2.193547487258911 7.2070841789245605 -0.520764172077179 4456788 6 -1
-2.101271390914917 7.107532024383545 -1.446567177772522 4456788 0 -1
-2.149895191192627 7.27200174331665 0.11622419208288193 4456788 6 -1
-2.1495795249938965 7.270934104919434 -0.1743362843990326 4456788 6 -1
-2.146104097366333 7.259178638458252 -0.4648967683315277 4456788 6 -1
-2.200401782989502 7.229604244232178 -0.6392330527305603 4456788 6 -1
-2.1358983516693115 7.2246575355529785 -0.8716814517974854 4456788 6 -1
-2.1410388946533203 7.242045879364014 -0.6973451375961304 4456788 6 -1
-2.200401782989502 7.229604244232178 -0.6392330527305603 4456788 6 -1
-2.2583069801330566 7.211726188659668 -0.6392330527305603 4456788 6 -1
-2.4404213428497314 7.179721355438232 0.11622419208288193 2782862 0 -1
-2.1591222286224365 7.303211688995361 -0.11672300845384598 4456788 6 -1
-2.1591222286224365 7.303211688995361 -0.11672300845384598 4456788 6 -1
-2.2647783756256104 7.232391834259033 -0.7586995959281921 4456788 6 -1
-2.2589285373687744 7.213710784912109 -0.9337840676307678 4456788 6 -1
-2.2847516536712646 7.296175479888916 -0.23444364964962006 4456788 6 -1
-2.048429012298584 7.358317852020264 -0.4102763831615448 4456788 6 -1
-2.5542335510253906 7.132468223571777 -1.0549964904785156 4456788 0 -1
-2.2192893028259277 7.291660785675049 -0.6447200179100037 4456788 6 -1
-1.9332515001296997 7.397080898284912 -0.23444364964962006 2977934 0 -1
-2.338855028152466 7.263658046722412 0.5274982452392578 11918891 6 -1
-2.2900874614715576 7.3132147789001465 -0.5297428965568542 4456788 6 -1
-2.16526460647583 7.323989391326904 -0.8240445256233215 5949540 6 -1
-2.6692001819610596 7.266354084014893 -0.29679569602012634 4456788 0 -1
-3.1437244415283203 7.074003219604492 0.29679569602012634 6343264 0 -1
-2.6704554557800293 7.269771099090576 0.17807741463184357 6343264 0 -1
-2.433438777923584 7.353699684143066 -0.11871827393770218 6343264 0 -1
-2.776003837585449 7.191032409667969 0.7716687917709351 10016830 0 -1
-2.367384910583496 7.352262020111084 0.5935913920402527 10016830 6 -1
-2.7189531326293945 7.218900680541992 0.7123096585273743 10672695 0 -1
-2.37262225151062 7.368526935577393 0.29679569602012634 10672695 6 -1
-2.9194464683532715 7.2067999839782715 0.23843418061733246 5424489 0 -1
-2.796333074569702 7.243693828582764 0.4768683612346649 10016830 0 -1
-2.3786654472351074 7.387294769287109 0.5364769101142883 10016830 6 -1
-2.732235908508301 7.254166603088379 0.6556940078735352 10672695 0 -1
-2.3798577785491943 7.390998363494873 0.4768683612346649 10672695 6 -1
-2.8125803470611572 7.285781383514404 0.17957386374473572 10016830 0 -1
-2.737576961517334 7.26834774017334 0.8380113840103149 11918891 0 -1
-2.7271506786346436 7.240665435791016 1.0774431228637695 12640037 0 -1
-2.7642080783843994 7.339054107666016 -0.1803220808506012 2523534 0 -1
-2.4641125202178955 7.4463934898376465 -0.12021472305059433 2072968 0 -1
-2.221620798110962 7.514613151550293 0.3606441617012024 2072968 6 -1
-2.741380453109741 7.278446197509766 1.0218251943588257 13164576 0 -1
-4.403475761413574 7.069483757019043 0.255393922328949 4456788 0 -1
-5.502739429473877 6.152840614318848 -1.5443352460861206 4456788 0 -1
-4.436704158782959 7.122829437255859 -0.32173651456832886 4456788 0 -1
-5.539487838745117 6.193930625915527 1.4211275577545166 4456788 0 -1
-4.579764366149902 7.063398361206055 -0.452176958322525 4456788 0 -1
-5.5637898445129395 6.0932745933532715 -1.8805373907089233 4456788 0 -1
-5.217726230621338 6.59161376953125 -0.9726917743682861 4456788 0 -1
-5.0041069984436035 6.712754249572754 -1.2320761680603027 4456788 0 -1
-4.530691623687744 7.129086971282959 -0.5187689065933228 4456788 0 -1
-5.349724292755127 6.361093997955322 -1.7575792074203491 4456788 0 -1
-5.034189701080322 6.753108501434326 -1.106623888015747 4456788 0 -1
-3.1803030967712402 7.850737571716309 -0.6509552597999573 4456788 0 -1
-5.43065071105957 6.327068328857422 -1.6273881196975708 4456788 0 -1
-5.197279930114746 6.565783977508545 -1.4321016073226929 4456788 0 -1
-4.853991985321045 6.912335395812988 -0.9113373756408691 4456788 0 -1
-3.5931811332702637 7.563748359680176 -1.4321016073226929 4456788 0 -1
-3.118709087371826 7.885087966918945 -0.520764172077179 4456788 0 -1
-4.5501275062561035 7.159668922424316 -0.45566868782043457 4456788 0 -1
-4.870541572570801 6.9359025955200195 -0.5858597159385681 4523353 0 -1
-4.876494884490967 6.944381237030029 -0.8494841456413269 4456788 0 -1
-5.434152603149414 6.331148624420166 -1.7643132209777832 4456788 0 -1
-5.036698341369629 6.756474018096924 -1.3068987131118774 4456788 0 -1
-4.7532057762146 7.043907165527344 -0.7187942862510681 4456788 0 -1
-3.19588041305542 7.889190673828125 -0.5227594375610352 4456788 0 -1
-4.872589588165283 6.938819408416748 -0.9148290753364563 4456788 0 -1
-4.500321388244629 7.2249627113342285 -0.5227594375610352 4456788 0 -1
-4.8240132331848145 7.0078020095825195 -0.5881044268608093 4523353 0 -1
-4.437058925628662 7.268392562866211 -0.45741453766822815 4523353 0 -1
-5.15805196762085 6.648208141326904 -1.5742641687393188 4456788 0 -1
-4.39017391204834 7.338525295257568 -0.3935660421848297 4456788 0 -1
-4.646111011505127 7.165725231170654 -0.5903490781784058 4456788 0 -1
-4.322994709014893 7.374507904052734 -0.45916038751602173 4456788 0 -1
-4.4556989669799805 7.298926830291748 -0.3935660421848297 4456788 0 -1
-4.77938175201416 7.082698345184326 -0.5247547030448914 4523353 0 -1
-4.453994274139404 7.296134948730469 -0.45916038751602173 4523353 0 -1
-4.637294769287109 7.29682731628418 -0.46439796686172485 4456788 0 -1
-4.504800319671631 7.379360675811768 -0.46439796686172485 4456788 0 -1
-4.564178943634033 7.327482223510742 -0.6634256839752197 4523353 0 -1
-4.527057647705078 7.415820598602295 -0.19977591931819916 4456788 0 -1
-4.578495502471924 7.350466728210449 -0.7325116991996765 4523353 0 -1
-4.493344306945801 8.322783470153809 -0.5080443620681763 4456788 0 -1
-4.491359233856201 8.319107055664062 -0.580622136592865 4523353 0 -1
-4.43430233001709 9.133209228515625 -0.23344601690769196 4456788 0 -1
-4.447600364685059 9.160597801208496 -0.3122589886188507 4456788 0 -1
-4.4432854652404785 9.151711463928223 -0.5464532375335693 4456788 0 -1
-4.410285949707031 9.283777236938477 -0.39406487345695496 4456788 0 -1
-4.397820949554443 9.257537841796875 -0.8669427037239075 4456788 0 -1
-4.4144768714904785 9.292598724365234 -0.7906237840652466 4456788 0 -1
-4.266808032989502 8.788225173950195 -3.320620059967041 4523353 0 -1
-4.433107852935791 9.331817626953125 -0.6344943046569824 4456788 0 -1
-4.268336772918701 8.791374206542969 -3.4104068279266357 4523353 0 -1
-5.2981343269348145 8.336664199829102 -3.0931596755981445 4724328 0 -1
-3.299419641494751 9.9706392288208 -0.48335298895835876 4456788 4 -1
-3.3025240898132324 9.980020523071289 -0.16111765801906586 4456788 4 -1
-3.3028149604797363 9.980899810791016 0.08055882900953293 4456788 4 -1
-3.3786003589630127 9.939844131469727 -0.5639117956161499 4456788 4 -1
-3.2289116382598877 10.027859687805176 0.4848494231700897 4456788 4 -1
-3.3122622966766357 10.009449005126953 -0.24242471158504486 4456788 4 -1
-3.3131377696990967 10.012094497680664 0 4456788 4 -1
-3.3130404949188232 10.011800765991211 -0.08080823719501495 4456788 4 -1
-3.3130404949188232 10.011800765991211 -0.08080823719501495 4456788 4 -1
-3.393547534942627 9.983819007873535 -0.1616164743900299 4456788 4 -1
-3.3122622966766357 10.009449005126953 -0.24242471158504486 4456788 4 -1
-3.3914542198181152 9.977660179138184 -0.40404120087623596 4456788 4 -1
-3.3107054233551025 10.004743576049805 -0.40404120087623596 4456788 4 -1
-3.3923513889312744 9.980299949645996 -0.3232329487800598 4456788 4 -1
-3.3096344470977783 10.001507759094238 -0.4848494231700897 4456788 4 -1
-3.3923513889312744 9.980299949645996 -0.3232329487800598 4456788 4 -1
-3.383967876434326 9.955636024475098 -0.8080824017524719 4456788 4 -1
-3.238877534866333 10.058810234069824 0.48634588718414307 4456788 4 -1
-3.2407824993133545 10.064726829528809 0.3242305815219879 4456788 4 -1
-3.237638473510742 10.054962158203125 0.5674034953117371 4456788 4 -1
-3.3233635425567627 10.042996406555176 0 4456788 4 -1
-3.3233635425567627 10.042996406555176 0 4456788 4 -1
-3.32326602935791 10.04270076751709 0.08105764538049698 4456788 4 -1
-3.4019217491149902 10.008455276489258 -0.4052882194519043 4456788 4 -1
-3.3171136379241943 10.024109840393066 -0.6484611630439758 4456788 4 -1
-3.3154516220092773 10.019086837768555 -0.7295188307762146 4456788 4 -1
-3.3154516220092773 10.019086837768555 -0.7295188307762146 4456788 4 -1
-3.3092846870422363 10.00045108795166 -0.9726917743682861 4456788 4 -1
-3.3135929107666016 10.013469696044922 -0.8105764389038086 4456788 4 -1
-3.378739356994629 9.940253257751465 -1.2969223260879517 4456788 0 -1
-4.3724846839904785 9.620361328125 -0.48634588718414307 4456788 0 -1
-3.2950475215911865 9.957427024841309 -1.3779799938201904 4523353 4 -1
-3.1612441539764404 9.817708015441895 -2.3506717681884766 4590430 0 -1
-3.2879550457000732 9.935994148254395 -1.540095329284668 4724328 0 -1
-3.247600555419922 10.08590030670166 0.569149374961853 4456788 4 -1
-3.247600555419922 10.08590030670166 0.569149374961853 4456788 4 -1
-3.333491325378418 10.073601722717285 -0.081307053565979 4456788 4 -1
-3.4147961139678955 10.046332359313965 -0.081307053565979 4456788 4 -1
-3.333491325378418 10.073601722717285 -0.081307053565979 4456788 4 -1
-3.4027445316314697 10.010876655578613 -0.894377589225769 4456788 4 -1
-3.319467067718506 10.031221389770508 -0.975684642791748 4456788 4 -1
-3.3217267990112305 10.038049697875977 -0.894377589225769 4456788 4 -1
-3.325652837753296 10.049914360046387 -0.731763482093811 4456788 4 -1
-3.3114969730377197 10.007136344909668 -1.219605803489685 4456788 0 -1
-3.317009210586548 10.023794174194336 -1.056991696357727 4456788 4 -1
-3.2502453327178955 9.822037696838379 -2.3579046726226807 4456788 0 -1
-3.3114969730377197 10.007136344909668 -1.219605803489685 4456788 0 -1
-3.319467067718506 10.031221389770508 -0.975684642791748 4456788 4 -1
-3.3217267990112305 10.038049697875977 -0.894377589225769 4456788 4 -1
-3.319467067718506 10.031221389770508 -0.975684642791748 4456788 4 -1
-3.3051860332489014 9.988064765930176 -1.382219910621643 4456788 4 -1
-4.384260654449463 9.646271705627441 -0.569149374961853 4456788 0 -1
-5.727146625518799 8.31977653503418 -3.25228214263916 4523353 0 -1
-5.337954998016357 8.744159698486328 -2.764439821243286 4523353 0 -1
-3.29807186126709 9.96656608581543 -1.544834017753601 4523353 0 -1
-2.972825288772583 10.055556297302246 -1.62614107131958 4523353 0 -1
-5.349206924438477 8.762591361999512 -2.6831328868865967 4590430 0 -1
-3.1651883125305176 9.829957008361816 -2.43921160697937 4590430 0 -1
-3.2099013328552246 9.968820571899414 -1.707448124885559 4724328 0 -1
-3.2575623989105225 10.116838455200195 0.570895254611969 4456788 4 -1
-3.3434221744537354 10.103612899780273 -0.16311292350292206 4456788 4 -1
-3.3434221744537354 10.103612899780273 -0.16311292350292206 4456788 4 -1
-3.4172165393829346 10.05345344543457 -0.7340081334114075 4456788 4 -1
-3.21974778175354 9.99940013885498 -1.7126857042312622 4456788 0 -1
-3.324519395828247 10.046489715576172 -1.141790509223938 4456788 4 -1
-3.3271842002868652 10.05454158782959 -1.0602340698242188 4456788 4 -1
-3.331916093826294 10.068841934204102 -0.8971210718154907 4456788 4 -1
-4.397709369659424 9.675861358642578 -0.570895254611969 4456788 0 -1
-2.9887495040893555 10.109419822692871 -1.468016266822815 4523353 0 -1
-3.435443162918091 10.107075691223145 0.1636117398738861 4456788 4 -1
-3.5167229175567627 10.077422142028809 0.24541760981082916 4456788 4 -1
-3.3539421558380127 10.13540267944336 0.08180586993694305 4456788 4 -1
-3.3540406227111816 10.135700225830078 0 4456788 4 -1
-3.429385185241699 10.089253425598145 -0.6544469594955444 4456788 4 -1
-3.434232473373413 10.103513717651367 -0.3272234797477722 4456788 4 -1
-3.4276669025421143 10.084197998046875 -0.7362528443336487 4456788 4 -1
-3.4276669025421143 10.084197998046875 -0.7362528443336487 4456788 4 -1
-3.334686279296875 10.0772123336792 -1.1452821493148804 4456788 4 -1
-3.334686279296875 10.0772123336792 -1.1452821493148804 4456788 4 -1
-4.414273738861084 9.71230697631836 -0.40902936458587646 4456788 0 -1
-3.526719331741333 10.106067657470703 0.3282211124897003 4456788 4 -1
-3.445410966873169 10.136401176452637 0.24616584181785583 4456788 4 -1
-3.445410966873169 10.136401176452637 0.24616584181785583 4456788 4 -1
-3.52744460105896 10.108146667480469 0.24616584181785583 4456788 4 -1
-3.444702625274658 10.134317398071289 0.3282211124897003 4456788 4 -1
-3.3594236373901367 10.15196704864502 0.5743869543075562 4456788 4 -1
-3.43984055519104 10.120013236999512 -0.6564422249794006 4456788 4 -1
-3.43984055519104 10.120013236999512 -0.6564422249794006 4456788 4 -1
-3.436189651489258 10.109272003173828 -0.8205527663230896 4456788 4 -1
-3.4264347553253174 10.080573081970215 -1.1487739086151123 4456788 4 -1
-3.3500144481658936 10.123533248901367 -0.9846633672714233 4456788 4 -1
-3.5389976501464844 10.141252517700195 0.0823046863079071 4456788 4 -1
-3.456695318222046 10.169599533081055 -0.0823046863079071 4456788 4 -1
-3.454258918762207 10.162431716918945 0.4115234315395355 4456788 4 -1
-3.454258918762207 10.162431716918945 0.4115234315395355 4456788 4 -1
-3.5497219562530518 10.17198371887207 0.08255409449338913 4456788 4 -1
-3.5481584072113037 10.167503356933594 0.3302163779735565 4456788 4 -1
-3.5481584072113037 10.167503356933594 0.3302163779735565 4456788 4 -1
-3.5481584072113037 10.167503356933594 0.3302163779735565 4456788 4 -1
-3.56044602394104 10.202714920043945 0.08280350267887115 4456788 4 -1
-3.557936429977417 10.195523262023926 0.41401752829551697 4456788 4 -1
-3.4761133193969727 10.226727485656738 0.3312140107154846 4456788 4 -1
-3.485661268234253 10.254817962646484 0.4152645468711853 4456788 4 -1
-5.660648345947266 9.462224960327148 -0.42274680733680725 4456788 0 -1
-3.550968885421753 10.446952819824219 0.08454935997724533 4456788 4 -1
-5.664141654968262 9.468064308166504 0.16909871995449066 4456788 0 -1
-5.172573089599609 9.783251762390137 -0.08479876816272736 4456788 0 -1
-5.150811672210693 9.742093086242676 -1.017585277557373 4456788 0 -1
-3.485337018966675 10.532469749450684 0.3401927053928375 4456788 4 -1
-4.401277542114258 10.864773750305176 -0.8103270530700684 4456788 0 -1
-4.345736980438232 11.257309913635254 -0.4626521170139313 4456788 0 -1
-4.358603477478027 11.29063892364502 -0.37111932039260864 4456788 0 -1
-4.371218681335449 11.323318481445312 -0.27908772230148315 4456788 0 -1
-4.383581638336182 11.35534381866455 -0.18655729293823242 4456788 0 -1
4.032430648803711 11.555220603942871 0 2588302 5 -1
4.032430648803711 11.555220603942871 0 2523534 5 -1
3.949012517929077 11.617997169494629 0.09402687102556229 2782862 5 -1
4.043155193328857 11.585952758789062 0 2718350 5 -1
4.042680740356445 11.58459186553955 -0.18805374205112457 2588302 5 -1
4.043036460876465 11.585612297058105 -0.09402687102556229 2523534 5 -1
3.9594874382019043 11.64881420135498 0.09427627921104431 2782862 5 -1
4.053403854370117 11.615320205688477 -0.18855255842208862 2718350 5 -1
4.051975250244141 11.611227035522461 -0.37710511684417725 2588302 5 -1
4.053761005401611 11.61634349822998 -0.09427627921104431 2523534 5 -1
3.733581781387329 11.282649993896484 -3.308398962020874 2718350 0 -1
4.221567630767822 11.492358207702637 -1.5124109983444214 2718350 5 -1
4.056960582733154 11.625513076782227 -0.7562054991722107 2588302 5 -1
2.833688497543335 11.997089385986328 -0.4726284146308899 2523534 0 -1
4.153142929077148 11.597280502319336 -0.6616798043251038 2523534 5 -1
4.503005504608154 11.385028839111328 -1.5124109983444214 2523534 0 -1
4.074252128601074 11.675063133239746 -0.2843252718448639 2782862 5 -1
3.9899744987487793 11.738507270812988 -0.28507351875305176 3238030 5 -1
3.8955471515655518 11.772098541259766 -0.19004900753498077 3107982 5 -1
3.990560293197632 11.74023151397705 -0.19004900753498077 2977934 5 -1
3.999624252319336 11.766897201538086 -0.38109564781188965 3302798 5 -1
3.999624252319336 11.766897201538086 -0.38109564781188965 3238030 5 -1
3.905198097229004 11.801263809204102 -0.28582173585891724 3107982 5 -1
4.001034259796143 11.771045684814453 -0.19054782390594482 2977934 5 -1
3.905771493911743 11.802996635437012 -0.19054782390594482 2782862 5 -1
4.093770503997803 11.730993270874023 -0.47636955976486206 2718350 5 -1
4.192051887512207 11.70592975616455 0 2523534 5 -1
4.007737159729004 11.790764808654785 -0.5731399059295654 3302798 5 -1
3.910818338394165 11.81824779510498 -0.6686632037162781 3238030 5 -1
3.9123148918151855 11.822770118713379 -0.5731399059295654 3107982 5 -1
4.011861801147461 11.802899360656738 -0.09552332013845444 2977934 5 -1
3.914616107940674 11.829724311828613 -0.38209328055381775 2782862 5 -1
4.105572700500488 11.764814376831055 -0.38209328055381775 2718350 5 -1
4.107382297515869 11.769998550415039 0.09552332013845444 2588302 5 -1
4.107020378112793 11.768961906433105 0.19104664027690887 2523534 5 -1
3.9210293292999268 11.849104881286621 -0.670409083366394 3302798 5 -1
3.907151937484741 11.807168006896973 -1.2450454235076904 3238030 5 -1
3.9173336029052734 11.837936401367188 -0.8619545102119446 3107982 5 -1
4.022336483001709 11.83371639251709 -0.09577272832393646 2977934 5 -1
4.117743492126465 11.799690246582031 0.19154545664787292 2912910 5 -1
3.9248368740081787 11.860610961914062 -0.38309091329574585 2782862 5 -1
4.117138862609863 11.797958374023438 0.2873181700706482 2588302 5 -1
4.117743492126465 11.799690246582031 0.19154545664787292 2523534 5 -1
4.118227005004883 11.801076889038086 0 2458766 5 -1
3.914189577102661 11.828435897827148 -1.34430992603302 4725613 5 -1
3.9340171813964844 11.88835334777832 -0.48011067509651184 3302798 5 -1
3.9072086811065674 11.807339668273926 -1.5363541841506958 3238030 0 -1
3.8154313564300537 11.849382400512695 -1.440332055091858 3107982 5 -1
4.032811164855957 11.864533424377441 -0.09602213650941849 2912910 5 -1
4.127011775970459 11.826250076293945 -0.38408854603767395 2718350 5 -1
4.031864166259766 11.861745834350586 0.28806641697883606 2523534 5 -1
3.909292459487915 11.202359199523926 -4.032929420471191 2458766 0 -1
4.127011775970459 11.826250076293945 -0.38408854603767395 2328718 5 -1
3.9330875873565674 11.885543823242188 -1.058987021446228 4725613 5 -1
3.9377362728118896 11.899592399597168 -0.8664438724517822 4726897 5 -1
3.9355287551879883 11.892921447753906 -0.9627154469490051 4728182 5 -1
3.9355287551879883 11.892921447753906 -0.9627154469490051 4729209 5 -1
3.944235324859619 11.919231414794922 -0.48135772347450256 4664956 5 -1
3.8490524291992188 11.953798294067383 -0.38508617877960205 3692940 5 -1
3.75183367729187 11.981185913085938 -0.48135772347450256 3562893 5 -1
3.9470174312591553 11.92763900756836 0.09627154469490051 2912910 5 -1
3.8507487773895264 11.959065437316895 -0.09627154469490051 2718350 5 -1
4.131891250610352 11.840231895446777 -0.7701723575592041 2718350 5 -1
4.043286323547363 11.895350456237793 -0.09627154469490051 2588302 5 -1
4.041505336761475 11.890110969543457 0.38508617877960205 2523534 5 -1
3.8188626766204834 11.540363311767578 -3.1769609451293945 2458766 0 -1
3.9457244873046875 11.923731803894043 -0.9652094841003418 4725613 5 -1
3.943276882171631 11.916335105895996 -1.0617305040359497 4729209 5 -1
3.9479377269744873 11.930419921875 -0.8686885833740234 4664956 5 -1
3.953174591064453 11.946245193481445 -0.579125702381134 4536450 5 -1
3.7603366374969482 12.008339881896973 -0.579125702381134 3692940 5 -1
3.7625484466552734 12.015403747558594 -0.38608381152153015 3562893 5 -1
3.7638750076293945 12.01963996887207 -0.19304190576076508 3432845 5 -1
3.7638750076293945 12.01963996887207 -0.19304190576076508 3302798 5 -1
3.957242727279663 11.958539962768555 -0.09652095288038254 2588302 5 -1
4.146012306213379 11.880696296691895 0.579125702381134 2523534 5 -1
3.8567557334899902 11.977721214294434 -0.579125702381134 2264205 5 -1
3.8598177433013916 11.987231254577637 0.289562851190567 2134668 5 -1
3.9507768154144287 11.939000129699707 -1.16124427318573 4729209 5 -1
3.9478516578674316 11.930159568786621 -1.2580146789550781 4664956 5 -1
3.765059232711792 12.023421287536621 -0.8709332346916199 3692940 5 -1
3.772270917892456 12.046451568603516 -0.38708144426345825 3562893 5 -1
3.773933172225952 12.051759719848633 -0.09677036106586456 3432845 5 -1
3.7736008167266846 12.050698280334473 0.19354072213172913 3302798 5 -1
3.773933172225952 12.051759719848633 0.09677036106586456 3107982 5 -1
3.773933172225952 12.051759719848633 0.09677036106586456 2977934 5 -1
4.063281059265137 11.954174995422363 0.2903110682964325 2523534 5 -1
3.863534927368164 11.998775482177734 -0.7741628885269165 2458766 5 -1
3.8679723739624023 12.012557029724121 -0.4838517904281616 2328718 5 -1
3.8667213916778564 12.008671760559082 -0.580622136592865 2264205 5 -1
3.8697915077209473 12.018205642700195 -0.2903110682964325 2199437 5 -1
3.95802640914917 11.960907936096191 -1.2612569332122803 4729209 5 -1
3.7819931507110596 12.077498435974121 -0.38807907700538635 3562893 5 -1
3.7833266258239746 12.081756591796875 -0.19403953850269318 3432845 5 -1
3.7797698974609375 12.070399284362793 0.5821186304092407 3302798 5 -1
3.7819931507110596 12.077498435974121 0.38807907700538635 3107982 5 -1
3.7819931507110596 12.077498435974121 0.38807907700538635 2977934 5 -1
3.873492479324341 12.02970027923584 -0.7761581540107727 2523534 5 -1
3.871551752090454 12.023672103881836 -0.8731778860092163 2458766 5 -1
3.873492479324341 12.02970027923584 -0.7761581540107727 2328718 5 -1
3.7844667434692383 12.085397720336914 -0.8754225969314575 3562893 5 -1
3.768357753753662 12.033954620361328 -1.4590376615524292 3432845 0 -1
3.711426019668579 11.852148056030273 -2.626267671585083 3302798 0 -1
3.7863638401031494 12.091455459594727 0.7781534194946289 3107982 0 -1
2.6850452423095703 11.78125 3.8907670974731445 2070922 0 -1
-4.3851141929626465 11.937581062316895 -0.4875929057598114 4456788 0 -1
3.781278133392334 12.075215339660645 -1.365260124206543 3432845 5 -1
3.7871131896972656 12.093849182128906 -1.1702229976654053 3302798 5 -1
3.720942497253418 11.882537841796875 -2.6330018043518066 3238030 0 -1
4.060883045196533 11.947120666503906 -1.657815933227539 2070155 0 -1
4.083739280700684 12.014362335205078 -0.9751858115196228 2070922 5 -1
4.0898847579956055 12.032443046569824 -0.6826300621032715 2666112 5 -1
3.322550058364868 12.313006401062012 -0.39107197523117065 4456788 0 -1
5.065844535827637 11.661175727844238 -1.075447916984558 4456788 0 -1
-4.3912858963012695 11.954381942749023 -0.7821439504623413 4456788 0 -1
4.008487701416016 12.113398551940918 0 2458766 5 -1
4.091643810272217 12.037618637084961 -1.075447916984558 2134668 5 -1
2.6333072185516357 12.452956199645996 -1.274226188659668 4456788 0 -1
4.795938968658447 11.839015007019043 -0.6861218214035034 4456788 0 -1
3.9150521755218506 12.158769607543945 -0.6861218214035034 2588302 5 -1
4.018713474273682 12.144299507141113 0 2458766 5 -1
4.096255779266357 12.051187515258789 -1.274226188659668 2134668 5 -1
3.1320416927337646 12.3836030960083 -0.6861218214035034 10672695 0 -1
5.945601940155029 11.012723922729492 -2.646469831466675 10672695 0 -1
2.1434500217437744 12.533267974853516 -1.670535683631897 4456788 0 -1
2.03922700881958 12.507872581481934 -1.9653362035751343 4456788 0 -1
5.502779483795166 11.583507537841797 -0.09826681017875671 4456788 0 -1
-11.805356979370117 4.186983108520508 -2.7514705657958984 4456788 0 -1
0 12.503874778747559 2.8497374057769775 4456788 0 -1
3.9277865886688232 12.198317527770996 -0.49133405089378357 2588302 5 -1
3.9277865886688232 12.198317527770996 -0.49133405089378357 2588302 5 -1
4.126115322113037 12.139034271240234 -0.29480043053627014 2458766 5 -1
4.099854469299316 12.061774253845215 -1.4740021228790283 2134668 0 -1
-4.235077857971191 12.135920524597168 -0.2955486476421356 4456788 0 -1
3.9387972354888916 12.232513427734375 -0.39406487345695496 2588302 5 -1
3.834662914276123 11.58811092376709 -4.039165019989014 2523534 0 -1
4.037267208099365 12.20036792755127 0.39406487345695496 2458766 5 -1
-4.3436455726623535 12.129241943359375 -0.39506250619888306 4456788 0 -1
4.047488212585449 12.231255531311035 -0.39506250619888306 2718350 5 -1
3.6758482456207275 11.738533020019531 -3.8518593311309814 2588302 0 -1
3.9464476108551025 12.25627326965332 0.5925937294960022 2523534 0 -1
4.049271583557129 12.236644744873047 0.09876562654972076 2458766 5 -1
4.048320770263672 12.233770370483398 0.2962968647480011 2328718 5 -1
3.8339638710021973 11.58599853515625 -4.14815616607666 2264205 0 -1
4.147059917449951 12.200653076171875 -0.2962968647480011 2199437 5 -1
5.0355353355407715 11.079209327697754 -4.246922016143799 2199437 0 -1
5.7176337242126465 11.525025367736816 0.7901250123977661 2199437 0 -1
3.831892967224121 11.900506973266602 -3.267496109008789 2588302 0 -1
3.958740472793579 12.294450759887695 0.39606013894081116 2523534 5 -1
3.9601361751556396 12.298784255981445 0.19803006947040558 2328718 5 -1
3.9695284366607666 12.327953338623047 0.29779332876205444 2523534 5 -1
3.1180710792541504 11.930482864379883 -3.9705777168273926 2271109 0 -1
5.317949295043945 11.194433212280273 -3.7720487117767334 2271109 0 -1
-4.360060214996338 12.175077438354492 -1.1941661834716797 4456788 0 -1
4.177618026733398 12.290555000305176 0.39805540442466736 2523534 5 -1
-4.398561477661133 12.282588958740234 -1.0026206970214844 4456788 0 -1
-4.411976337432861 12.320049285888672 -0.9046033024787903 4456788 0 -1
13.479116439819336 5.120656490325928 0.11048780381679535 4456788 0 -1
13.62067699432373 4.830819129943848 0 4456788 0 -1
9.904535293579102 9.539135932922363 -4.550451755523682 4456788 0 -1
13.428987503051758 5.4269256591796875 -0.1109866201877594 4456788 0 -1
13.87332820892334 4.163208961486816 0 4456788 0 -1
13.69746208190918 6.167581558227539 0.6913593411445618 4456788 0 -1
-14.18832015991211 4.257734298706055 -2.77142333984375 4456788 0 -1
-14.18832015991211 4.257734298706055 -2.77142333984375 4456788 0 -1
10.881911277770996 9.346978187561035 -4.6190385818481445 4456788 0 -1
13.367169380187988 5.401943683624268 -4.388086795806885 4456788 0 -1
13.61616039276123 6.433064937591553 0.5773798227310181 4456788 0 -1
-12.399640083312988 7.416872024536133 -4.39756441116333 4456788 0 -1
-12.020990371704102 8.633782386779785 -3.008859872817993 4456788 0 -1
-3.7863988876342773 14.487665176391602 1.9673314094543457 4456788 0 -1
13.25247573852539 5.6658406257629395 -4.513289928436279 4456788 0 -1
14.354877471923828 3.39669132232666 -3.2403106689453125 4456788 0 -1
-14.23925495147705 4.273019313812256 -2.6616837978363037 4456788 0 -1
13.649179458618164 6.448664665222168 0.4629015028476715 4456788 0 -1
-4.375692844390869 14.376705169677734 1.5044299364089966 4523353 0 -1
-4.280851364135742 14.479942321777344 1.0437730550765991 4456788 0 -1
13.247172355651855 5.663573265075684 -4.638991355895996 4456788 0 -1
-14.499089241027832 2.883640766143799 -3.2472939491271973 4456788 0 -1
14.41014289855957 3.4097683429718018 -3.131319284439087 4456788 0 -1
13.678595542907715 6.462562561035156 0.4638991355895996 4456788 0 -1
