VERSION .7
FIELDS x y z rgb label object
SIZE 4 4 4 4 4 4
TYPE F F F I I I
COUNT 1 1 1 1 1 1
WIDTH 380
HEIGHT 1
POINTS 380
VIEWPOINT 0 0 0 1 0 0 0
DATA ascii
-0.5183824896812439 0.44526275992393494 0.015712713822722435 3302798 0 -1
-0.34573349356651306 0.555051863193512 -0.19902770221233368 3302798 0 -1
-0.29783082008361816 0.613433837890625 0.047138139605522156 3302798 0 -1
-0.22546730935573578 0.6295972466468811 -0.14141441881656647 3302798 0 -1
0.25996294617652893 0.6123369932174683 0.15712712705135345 3302798 0 -1
0.3952544629573822 0.5302136540412903 -0.17283983528614044 3302798 0 -1
0.5405982732772827 0.40982571244239807 -0.08380113542079926 3302798 0 -1
0.6555604934692383 0.17690250277519226 -0.07856356352567673 3302798 0 -1
-1.2043673992156982 2.3762588500976562 0.1636117398738861 4456788 0 -1
-1.4077917337417603 2.260114908218384 -0.18406321108341217 4456788 0 -1
-1.2670600414276123 2.3469083309173584 0.10225734114646912 4456788 0 -1
-1.532067894935608 2.1387391090393066 -0.4499322772026062 4456788 0 -1
-1.9781264066696167 1.7396661043167114 -0.42948082089424133 4456788 0 -1
-1.8602092266082764 1.9122775793075562 -0.08180586993694305 4456788 0 -1
-1.7583614587783813 2.007056713104248 0.06135440245270729 4456788 0 -1
-1.2626193761825562 2.3386831283569336 0.24541760981082916 3887499 0 -1
-1.9928373098373413 1.7937628030776978 -0.3312140107154846 4456788 0 -1
-1.4997642040252686 2.2225420475006104 -0.3312140107154846 4456788 0 -1
-1.3854920864105225 2.31596040725708 -0.12420525401830673 4456788 0 -1
-1.2831151485443115 2.3766462802886963 0.062102627009153366 4456788 0 -1
-2.2764947414398193 1.4534111022949219 -0.062102627009153366 10672695 0 -1
-1.7794389724731445 2.0311152935028076 -0.08280350267887115 10672695 0 -1
-1.3242336511611938 2.353346109390259 -0.08280350267887115 10672695 0 -1
-1.1993812322616577 2.417591094970703 0.12420525401830673 10672695 0 -1
-1.9271321296691895 1.9810737371444702 -0.12719815969467163 4456788 0 -1
-1.9271321296691895 1.9810737371444702 -0.12719815969467163 4212104 0 -1
-1.809420108795166 2.0653367042541504 0.3391950726509094 4147337 0 -1
-2.2868869304656982 1.5969722270965576 0.2359400987625122 4212104 0 -1
-1.9513523578643799 2.005971908569336 -0.0643472969532013 4212104 0 -1
0.46708428859710693 2.608854055404663 -0.9008622169494629 4212104 0 -1
-1.846948266029358 2.792196750640869 -0.17982326447963715 4456788 0 -1
-1.9569809436798096 2.678041934967041 -0.48809173703193665 4456788 0 -1
-1.7199019193649292 2.874953269958496 -0.12844519317150116 4456788 0 -1
-2.6399121284484863 1.896052598953247 -0.8220492601394653 4456788 0 -1
-1.9546905755996704 2.674907684326172 -0.5137807726860046 4456788 0 -1
-1.8234398365020752 2.812302350997925 -0.07706711441278458 4456788 0 -1
-1.9631341695785522 2.68646240234375 -0.41102463006973267 4017546 0 -1
-1.8491220474243164 2.795482873916626 0.07706711441278458 3887499 0 -1
-1.8752998113632202 2.7790586948394775 0 2070922 0 -1
-2.8325860500335693 1.7515391111373901 -0.3853355646133423 12640037 0 -1
-2.6350297927856445 1.945035457611084 -0.855968713760376 4456788 0 -1
-1.8907809257507324 2.8020005226135254 -0.18156912922859192 4456788 0 -1
-1.7586288452148438 2.8808281421661377 -0.2593844532966614 4456788 0 -1
-1.864879846572876 2.819305419921875 -0.18156912922859192 4456788 0 -1
-1.973668098449707 2.7008776664733887 -0.5187689065933228 4456788 0 -1
-1.7612754106521606 2.8851635456085205 -0.18156912922859192 4456788 0 -1
-2.6545298099517822 1.9065513610839844 -0.8819071650505066 4456788 0 -1
-1.8921164274215698 2.8039796352386475 -0.1296922266483307 4456788 0 -1
-1.8921164274215698 2.8039796352386475 -0.1296922266483307 4456788 0 -1
-1.8934509754180908 2.805957555770874 -0.025938447564840317 3887499 0 -1
-1.8934509754180908 2.805957555770874 -0.025938447564840317 2070922 0 -1
-2.857448101043701 1.766912579536438 -0.41501516103744507 12640037 0 -1
-2.780900001525879 1.7195788621902466 -0.9951384663581848 4456788 0 -1
-1.904910683631897 2.822939872741699 -0.28806641697883606 4456788 0 -1
-1.908961534500122 2.8289427757263184 -0.1833149790763855 4456788 0 -1
-2.8849234580993652 1.7839021682739258 0.41900569200515747 4017546 0 -1
-1.9117133617401123 2.8330209255218506 0 4017546 0 -1
-2.8391613960266113 1.7556049823760986 -0.733259916305542 3887499 0 -1
-1.9112082719802856 2.832272529602051 -0.07856356352567673 3887499 0 -1
-3.0791707038879395 2.272876024246216 -0.32373178005218506 3887499 0 -1
-2.9363350868225098 2.4623351097106934 0.5639117956161499 3887499 0 -1
-2.864734649658203 2.638197898864746 0.2992897629737854 4456788 0 -1
-3.268094778060913 4.128622055053711 0.650456428527832 4456788 0 -1
-3.34773325920105 4.145010471343994 0.3272234797477722 4456788 0 -1
-3.380561590194702 4.1019978523254395 0.4908352196216583 4212104 0 -1
-3.3422417640686035 4.138211250305176 0.7407422065734863 4456788 0 -1
-3.4834392070770264 4.862817764282227 -0.692107617855072 4456788 0 -1
-3.9658923149108887 5.214900493621826 -0.5541849136352539 4147337 0 -1
-1.8820842504501343 7.968247413635254 -0.8834036588668823 4212104 4 -1
-1.826539158821106 8.014357566833496 -0.8868953585624695 4147337 4 -1
-1.8378100395202637 8.063812255859375 -0.6995898485183716 4147337 4 -1
-1.7732301950454712 8.072498321533203 -0.763188898563385 4017546 4 -1
-1.8378100395202637 8.063812255859375 -0.6995898485183716 2977934 4 -1
-1.8984827995300293 8.037674903869629 -0.8267880082130432 2070922 4 -1
-1.8579655885696411 8.15224838256836 -0.2563915550708771 11918891 4 -1
-1.9945321083068848 8.15645980834961 -0.1286945939064026 10672695 4 -1
-1.930362343788147 8.17264461517334 -0.0643472969532013 11918891 4 -1
-1.8732495307922363 8.219310760498047 -0.06459670513868332 10672695 4 -1
-1.8732495307922363 8.219310760498047 0.06459670513868332 11197490 4 -1
-1.8733046054840088 8.219552040100098 0 11918891 4 -1
-1.8156379461288452 8.265556335449219 0.06484611332416534 5424489 4 -1
-1.8154780864715576 8.2648286819458 0.1296922266483307 5949540 4 -1
-1.750022530555725 8.275887489318848 0.2593844532966614 6343264 4 -1
-1.813771367073059 8.257059097290039 0.38907670974731445 9360965 4 -1
-1.8143582344055176 8.259730339050293 0.3242305815219879 10016830 4 -1
-1.8796539306640625 8.247410774230957 0.2593844532966614 11918891 4 -1
-1.8226747512817383 8.297590255737305 0 3651704 4 -1
-1.8213365077972412 8.291499137878418 0.32547762989997864 4045940 4 -1
-1.8218183517456055 8.293692588806152 0.2603820860385895 5949540 4 -1
-1.8207473754882812 8.288816452026367 0.3905731439590454 6343264 4 -1
-1.8207473754882812 8.288816452026367 0.3905731439590454 9360965 4 -1
-1.8863842487335205 8.276942253112793 0.32547762989997864 11918891 4 -1
-1.7642613649368286 8.343222618103027 0.0653449296951294 2468738 4 -1
-1.7642613649368286 8.343222618103027 0.0653449296951294 2666112 4 -1
-1.8291746377944946 8.327180862426758 0.19603480398654938 4045940 4 -1
-1.825302243232727 8.309552192687988 0.5881044268608093 8180304 4 -1
-1.8283147811889648 8.323266983032227 0.32672467827796936 9360965 4 -1
-1.770579218864441 8.373100280761719 -0.19678302109241486 2070155 4 -1
-2.0331857204437256 8.314530372619629 0.13118867576122284 2271109 4 -1
-1.7702151536941528 8.371377944946289 0.2623773515224457 2271109 4 -1
-1.8361562490463257 8.358963966369629 0.19678302109241486 4045940 4 -1
-1.8361562490463257 8.358963966369629 0.19678302109241486 4505456 4 -1
-1.8346995115280151 8.352333068847656 0.3935660421848297 4899181 4 -1
-2.0331857204437256 8.314530372619629 0.13118867576122284 6933851 4 -1
-1.8331875801086426 8.345449447631836 0.5247547030448914 7589974 4 -1
-1.5790897607803345 8.440314292907715 -0.3292187452316284 4456788 0 -1
-1.7764760255813599 8.400985717773438 -0.3292187452316284 2070155 4 -1
-1.8416755199432373 8.384090423583984 0.39506250619888306 2271109 4 -1
-1.8416755199432373 8.384090423583984 0.39506250619888306 3651704 4 -1
-2.1054530143737793 8.324631690979004 0.3292187452316284 4899181 4 -1
-1.843408465385437 8.391979217529297 0.1316874921321869 4899181 4 -1
-2.1054530143737793 8.324631690979004 0.3292187452316284 7589974 4 -1
-1.8416755199432373 8.384090423583984 0.39506250619888306 7589974 4 -1
-1.8422714471817017 8.38680362701416 0.3292187452316284 9360965 4 -1
-1.7843056917190552 8.438013076782227 -0.13218630850315094 3238030 4 -1
-1.7840436697006226 8.436773300170898 -0.198279470205307 2912910 4 -1
-1.9825618267059326 8.393643379211426 0.13218630850315094 2199437 4 -1
-1.842768669128418 8.389066696166992 0.793117880821228 2070155 4 -1
-1.7521564960479736 7.976561546325684 2.7759125232696533 2139270 0 -1
-1.848651647567749 8.415848731994629 0.396558940410614 2271109 4 -1
-1.9818631410598755 8.390685081481934 0.2643726170063019 3257723 4 -1
-1.7781651020050049 8.408973693847656 0.7270247340202332 3651704 4 -1
-2.1808180809020996 8.344329833984375 0.13218630850315094 4899181 4 -1
-1.8501193523406982 8.422530174255371 -0.198279470205307 4899181 4 -1
-2.312988758087158 8.308663368225098 -0.13218630850315094 5949540 4 -1
-1.7054588794708252 8.388945579528809 1.0574904680252075 5949540 0 -1
-2.1134283542633057 8.356164932250977 0.33046579360961914 6343264 4 -1
-2.045938491821289 8.366682052612305 0.4626521170139313 7589974 4 -1
-1.84712815284729 8.408913612365723 0.5287452340126038 7589974 4 -1
-1.7910388708114624 8.469854354858398 -0.132685124874115 3238030 4 -1
-1.922521948814392 8.435503959655762 0.33171284198760986 2070155 4 -1
-1.921164870262146 8.429550170898438 0.46439796686172485 2139270 4 -1
-1.8483529090881348 8.414488792419434 0.8624533414840698 3651704 4 -1
-1.856227993965149 8.450339317321777 0.33171284198760986 5949540 4 -1
-2.121403455734253 8.387697219848633 0.33171284198760986 6343264 4 -1
-1.9219000339508057 8.432775497436523 0.39805540442466736 7589974 4 -1
-2.128690004348755 8.41650676727295 -0.3995518386363983 4017546 4 -1
-2.1934025287628174 8.392480850219727 -0.5327357649803162 3887499 4 -1
-2.128690004348755 8.41650676727295 -0.3995518386363983 2977934 4 -1
-1.8636993169784546 8.484352111816406 -0.2663678824901581 2977934 4 -1
-1.7977721691131592 8.50169563293457 0.13318394124507904 2458766 4 -1
-2.1897153854370117 8.378372192382812 -0.7325116991996765 2264205 4 -1
-1.8636993169784546 8.484352111816406 0.2663678824901581 2139270 4 -1
-2.2034332752227783 8.43086051940918 -0.40104830265045166 4017546 4 -1
-2.200514316558838 8.419692039489746 -0.6015724539756775 3887499 4 -1
-2.1992807388305664 8.414972305297852 -0.6684138178825378 3757452 4 -1
-2.1152615547180176 8.09349536895752 2.4731311798095703 2458766 0 -1
-1.8021193742752075 8.52225399017334 0.467889666557312 2458766 4 -1
-2.1326358318328857 8.432108879089355 0.6684138178825378 8180304 0 -1
-2.1992807388305664 8.414972305297852 0.6684138178825378 8705099 0 -1
3.4757518768310547 8.000906944274902 0 13164576 5 -1
-2.1428678035736084 8.472564697265625 -0.5367262959480286 3887499 4 -1
-2.2046170234680176 8.435389518737793 -0.8050894737243652 3757452 4 -1
-2.2123706340789795 8.465057373046875 -0.33545395731925964 2328718 4 -1
-2.146653175354004 8.487530708312988 0.13418157398700714 6933851 4 -1
3.4887211322784424 8.03076171875 0 12640037 5 -1
3.4877991676330566 8.028639793395996 -0.2012723684310913 13164576 5 -1
-2.1526076793670654 8.511075019836426 -0.40404120087623596 3432845 4 -1
-2.4156205654144287 8.417329788208008 -0.7407422065734863 2523534 0 -1
-2.142451524734497 8.470918655395508 -0.9427627921104431 2523534 0 -1
-2.329066514968872 8.366416931152344 -1.3468040227890015 2199437 0 -1
-2.153873920440674 8.516080856323242 -0.2693607807159424 6933851 4 -1
3.568925619125366 8.030790328979492 -0.0673401951789856 9360965 5 -1
3.5686113834381104 8.030082702636719 -0.1346803903579712 10016830 5 -1
3.5015876293182373 8.060379028320312 -0.0673401951789856 12640037 5 -1
-2.1577181816101074 8.531280517578125 -0.6083064675331116 3432845 4 -1
3.5813026428222656 8.058640480041504 -0.20276881754398346 6343264 5 -1
3.582249164581299 8.060770988464355 0 6933851 5 -1
3.514246702194214 8.089519500732422 -0.13517920672893524 10672695 5 -1
3.514556407928467 8.090231895446777 0.06758960336446762 12640037 5 -1
3.5916659832000732 8.081960678100586 -0.40703409910202026 6343264 5 -1
3.5276286602020264 8.12032413482666 0 10672695 5 -1
3.5389344692230225 8.14634895324707 -0.2723536789417267 6343264 5 -1
3.4035215377807617 8.20582389831543 -0.2042652666568756 12640037 5 -1
3.416490316390991 8.237092018127441 -0.1366756558418274 5424489 5 -1
3.6219050884246826 8.150004386901855 0 5949540 5 -1
3.4835920333862305 8.205524444580078 0.2733513116836548 11197490 5 -1
3.4843084812164307 8.207212448120117 0.20501349866390228 12640037 5 -1
3.5534629821777344 8.179792404174805 0.0683378279209137 13164576 5 -1
3.566431760787964 8.20964527130127 -0.06858723610639572 5949540 5 -1
3.4289591312408447 8.2671537399292 0.13717447221279144 9360965 5 -1
3.358307361602783 8.290149688720703 0.3429361879825592 11197490 5 -1
3.3591957092285156 8.292343139648438 0.2743489444255829 11918891 5 -1
3.4284558296203613 8.26594066619873 0.20576171576976776 12640037 5 -1
3.427750825881958 8.264240264892578 0.2743489444255829 13164576 5 -1
3.6986911296844482 8.13787841796875 -0.8948764204978943 3692940 5 -1
3.703951597213745 8.149452209472656 -0.7572031021118164 3562893 5 -1
3.635359764099121 8.180280685424805 -0.7572031021118164 3432845 5 -1
3.7062506675720215 8.154510498046875 -0.6883664727210999 3302798 5 -1
3.372896671295166 8.326164245605469 0.06883664429187775 4045940 5 -1
3.372896671295166 8.326164245605469 -0.06883664429187775 7589974 5 -1
3.371411085128784 8.322497367858887 0.275346577167511 11197490 5 -1
3.371411085128784 8.322497367858887 0.275346577167511 11918891 5 -1
3.371411085128784 8.322497367858887 0.275346577167511 12640037 5 -1
3.4402153491973877 8.294292449951172 0.275346577167511 13164576 5 -1
3.652843952178955 8.219622611999512 -0.6217744946479797 3887499 5 -1
3.6433498859405518 8.198259353637695 -0.8981187343597412 3757452 5 -1
3.6460494995117188 8.204334259033203 -0.8290326595306396 3692940 5 -1
3.648531436920166 8.209918975830078 -0.7599465847015381 3562893 5 -1
3.6507961750030518 8.215014457702637 -0.6908605694770813 3432845 5 -1
3.7217655181884766 8.18864631652832 -0.6217744946479797 3302798 5 -1
3.652843952178955 8.219622611999512 -0.6217744946479797 2718350 5 -1
3.656290054321289 8.227377891540527 -0.483602374792099 2070155 5 -1
3.654675006866455 8.223743438720703 -0.5526884198188782 2994813 5 -1
3.1724448204040527 8.02094841003418 -2.625270128250122 3257723 0 -1
3.690899133682251 8.120734214782715 -1.312635064125061 3257723 0 -1
3.384322166442871 8.354369163513184 -0.2072581648826599 3651704 5 -1
3.654675006866455 8.223743438720703 -0.5526884198188782 3651704 5 -1
3.384322166442871 8.354369163513184 0.2072581648826599 4505456 5 -1
3.6614534854888916 8.238996505737305 0.06908605247735977 4505456 5 -1
3.3788504600524902 8.340861320495605 0.5526884198188782 6933851 0 -1
3.384819269180298 8.355595588684082 0.13817210495471954 7589974 5 -1
3.3827314376831055 8.350441932678223 0.34543028473854065 11197490 5 -1
3.3827314376831055 8.350441932678223 0.34543028473854065 12640037 5 -1
3.453389883041382 8.326056480407715 0.2072581648826599 13164576 5 -1
3.673053026199341 8.265097618103027 -0.2773418426513672 4212104 5 -1
3.653574228286743 8.221266746520996 -0.9706965088844299 3757452 5 -1
3.659212112426758 8.233952522277832 -0.8320255875587463 3692940 5 -1
3.661703109741211 8.239557266235352 -0.7626901268959045 3562893 5 -1
3.6660311222076416 8.249296188354492 -0.6240191459655762 3432845 5 -1
3.738725423812866 8.225961685180664 -0.48534825444221497 3302798 5 -1
3.659212112426758 8.233952522277832 -0.8320255875587463 3107982 5 -1
3.3973379135131836 8.38649845123291 0.0693354606628418 2070155 5 -1
3.735201358795166 8.218208312988281 -0.6240191459655762 2070155 5 -1
3.3910486698150635 8.370973587036133 -0.5546836853027344 2006409 5 -1
3.6054441928863525 8.29944896697998 0 2006409 5 -1
3.395841598510742 8.382804870605469 -0.2773418426513672 2072968 5 -1
3.659212112426758 8.233952522277832 -0.8320255875587463 2994813 5 -1
3.395841598510742 8.382804870605469 0.2773418426513672 3257723 5 -1
3.3973379135131836 8.38649845123291 0.0693354606628418 3651704 5 -1
3.3973379135131836 8.38649845123291 0.0693354606628418 4505456 5 -1
3.3973379135131836 8.38649845123291 -0.0693354606628418 4899181 5 -1
3.3949434757232666 8.380587577819824 0.346677303314209 6933851 5 -1
3.3949434757232666 8.380587577819824 0.346677303314209 7589974 5 -1
3.4658570289611816 8.356114387512207 0.20800639688968658 11197490 5 -1
3.3949434757232666 8.380587577819824 0.346677303314209 12640037 5 -1
3.5361087322235107 8.32922649383545 0 13164576 5 -1
3.2426233291625977 8.399776458740234 -1.1829428672790527 4212104 0 -1
3.6055374145507812 8.299663543701172 -0.7654336094856262 3757452 5 -1
3.6077752113342285 8.304815292358398 -0.6958487033843994 3692940 5 -1
3.6771557331085205 8.27432918548584 -0.6958487033843994 3562893 5 -1
3.6826894283294678 8.286781311035156 -0.48709410429000854 3432845 5 -1
3.6157567501068115 8.323187828063965 -0.3479243516921997 3238030 5 -1
3.6097989082336426 8.309473037719727 -0.6262638568878174 3107982 5 -1
3.47556471824646 8.379518508911133 -0.4175092279911041 2523534 5 -1
3.600416898727417 8.28787612915039 -0.9046033024787903 2994813 5 -1
3.4080567359924316 8.412959098815918 0.2783394753932953 3651704 5 -1
3.409658670425415 8.416913032531738 0 4899181 5 -1
3.26192045211792 8.052213668823242 -2.6442251205444336 6343264 0 -1
3.4071555137634277 8.410733222961426 0.3479243516921997 6933851 5 -1
3.47556471824646 8.379518508911133 0.4175092279911041 9360965 5 -1
3.476689100265503 8.382229804992676 0.3479243516921997 10016830 5 -1
3.4783241748809814 8.3861722946167 0.20875461399555206 10672695 5 -1
3.613321542739868 8.317582130432129 -0.9078456163406372 3757452 5 -1
3.679858922958374 8.280411720275879 -0.9776799082756042 3692940 5 -1
3.6184604167938232 8.329411506652832 -0.7681770920753479 3562893 5 -1
3.4154446125030518 8.431196212768555 -0.5586742162704468 2523534 5 -1
3.421779155731201 8.446833610534668 -0.06983427703380585 2458766 5 -1
3.421879768371582 8.447081565856934 0 2328718 5 -1
3.4193673133850098 8.440879821777344 0.34917140007019043 2994813 5 -1
3.389176368713379 8.366351127624512 -1.2570170164108276 3257723 0 -1
3.3472201824188232 8.462836265563965 0.4888399541378021 3651704 0 -1
3.3037145137786865 8.15538501739502 -2.3743655681610107 6343264 0 -1
3.4137332439422607 8.426971435546875 0.6285085082054138 10016830 0 -1
3.3155136108398438 8.184511184692383 2.382845401763916 3757452 0 -1
3.4331932067871094 8.47500991821289 -0.2102510631084442 2458766 5 -1
3.4331932067871094 8.47500991821289 0.2102510631084442 2328718 5 -1
3.2334980964660645 8.175311088562012 2.52301287651062 2271109 0 -1
3.2546961307525635 8.22890567779541 2.3127617835998535 2468738 0 -1
3.417020797729492 8.435087203979492 -0.9110879302024841 3257723 5 -1
3.6959612369537354 8.316645622253418 0.9110879302024841 5949540 0 -1
3.322502374649048 8.201763153076172 -2.3127617835998535 6343264 0 -1
3.252317428588867 8.222891807556152 2.461658477783203 2468738 0 -1
3.2959370613098145 8.537880897521973 -0.703330934047699 4045940 5 -1
3.216108560562134 8.331090927124023 2.2586400508880615 3257723 0 -1
-7.258070468902588 5.9394211769104 -2.0601112842559814 9360965 0 -1
-1.3340539932250977 9.065703392028809 2.8694405555725098 9360965 0 -1
-1.0608117580413818 9.168389320373535 2.648714542388916 9360965 0 -1
-6.8275604248046875 6.287652015686035 -2.5838682651519775 4505456 0 -1
-6.850626468658447 6.30889368057251 -2.592597723007202 4505456 0 -1
-7.358331680297852 6.3204121589660645 1.1223366260528564 2588302 0 -1
-6.637650012969971 6.970242023468018 1.646093726158142 2588302 0 -1
-7.205234050750732 6.188909530639648 -2.402299165725708 2588302 0 -1
4.039937496185303 10.997907638549805 -0.17957386374473572 3107982 6 -1
4.040293216705322 10.998875617980957 -0.08978693187236786 2782862 6 -1
4.040293216705322 10.998875617980957 -0.08978693187236786 2718350 6 -1
4.040411949157715 10.999198913574219 0 2588302 6 -1
4.130198955535889 10.965799331665039 0 2458766 6 -1
4.130077362060547 10.96547794342041 -0.08978693187236786 2328718 6 -1
4.130077362060547 10.96547794342041 -0.08978693187236786 2264205 6 -1
3.960552215576172 11.059487342834473 -0.27010902762413025 4212104 6 -1
4.051516532897949 11.029428482055664 -0.09003634005784988 3562893 6 -1
4.049731731414795 11.02457046508789 -0.36014536023139954 3432845 6 -1
4.051159381866455 11.028456687927246 -0.18007268011569977 3107982 6 -1
4.051159381866455 11.028456687927246 -0.18007268011569977 2782862 6 -1
4.051516532897949 11.029428482055664 -0.09003634005784988 2718350 6 -1
4.051635265350342 11.029752731323242 0 2588302 6 -1
4.141550064086914 10.99593734741211 -0.09003634005784988 2458766 6 -1
4.141671657562256 10.996260643005371 0 2328718 6 -1
4.057010173797607 11.044384002685547 -0.632000207901001 4212104 6 -1
3.972106456756592 11.091751098632812 0.18057149648666382 3562893 6 -1
4.060949802398682 11.055109024047852 0.36114299297332764 3238030 6 -1
4.062858581542969 11.06030559539795 0 3107982 6 -1
4.151193141937256 11.021540641784668 -0.36114299297332764 2718350 6 -1
4.060949802398682 11.055109024047852 0.36114299297332764 2588302 6 -1
3.9668543338775635 11.077085494995117 0.632000207901001 2523534 0 -1
4.0682172775268555 11.074893951416016 0.6337460875511169 3238030 0 -1
3.9778125286102295 11.107685089111328 0.6337460875511169 2977934 0 -1
4.0710906982421875 11.08271598815918 -0.45267578959465027 2782862 6 -1
3.976055383682251 11.102778434753418 -0.7242812514305115 2588302 6 -1
3.981675386428833 11.1184720993042 -0.36214062571525574 2006409 6 -1
4.137017726898193 10.983903884887695 -1.3580273389816284 5424489 6 -1
4.143904209136963 11.002187728881836 -1.1769570112228394 5949540 6 -1
4.149797439575195 11.017834663391113 -0.9958866834640503 6933851 6 -1
3.810152292251587 11.209470748901367 0.4539228081703186 4212104 0 -1
4.266373634338379 11.051724433898926 0.18156912922859192 4212104 6 -1
4.082305908203125 11.11324691772461 -0.4539228081703186 3562893 6 -1
4.084225654602051 11.118473052978516 -0.2723536789417267 3302798 6 -1
4.176089763641357 11.087641716003418 0 3238030 6 -1
3.9915881156921387 11.14615249633789 -0.4539228081703186 2006409 6 -1
3.9915881156921387 11.14615249633789 -0.4539228081703186 2072968 6 -1
4.064986705780029 11.066099166870117 -1.180199384689331 2994813 6 -1
4.073294639587402 11.088715553283691 -0.9078456163406372 3651704 6 -1
4.073294639587402 11.088715553283691 -0.9078456163406372 4045940 6 -1
4.158398628234863 11.040671348571777 -1.0894147157669067 6933851 6 -1
4.161229610443115 11.048187255859375 -0.9986302256584167 7589974 6 -1
4.186456203460693 11.115164756774902 -0.27310192584991455 4212104 6 -1
4.096408367156982 11.15163803100586 -0.09103397279977798 3302798 6 -1
4.096408367156982 11.15163803100586 0.09103397279977798 3238030 6 -1
4.0656256675720215 11.067838668823242 -1.4565435647964478 3107982 6 -1
4.08882474899292 11.130993843078613 -0.7282717823982239 2588302 6 -1
4.181534767150879 11.10209846496582 -0.6372377872467041 2523534 6 -1
4.002553939819336 11.176773071289062 -0.4551698565483093 2328718 6 -1
4.08195161819458 11.112281799316406 -1.0013736486434937 2070922 6 -1
3.9937188625335693 11.152101516723633 -0.9103397130966187 2006409 6 -1
3.9937188625335693 11.152101516723633 -0.9103397130966187 2072968 6 -1
3.99796199798584 11.16395092010498 -0.7282717823982239 3257723 6 -1
4.084485054016113 11.119179725646973 -0.9103397130966187 4899181 6 -1
4.169823169708252 11.071002960205078 -1.0924077033996582 6933851 6 -1
4.166735649108887 11.06280517578125 -1.1834416389465332 7589974 6 -1
4.266017913818359 11.050803184509277 -0.9103397130966187 10672695 6 -1
3.833789348602295 11.279010772705078 0.09128338098526001 3107982 6 -1
4.006906509399414 11.18892765045166 -0.8215504288673401 2588302 6 -1
3.9932916164398193 11.150909423828125 -1.2779673337936401 2134668 6 -1
3.9898509979248047 11.141301155090332 -1.3692506551742554 2006409 6 -1
3.9025349617004395 11.182994842529297 -1.2779673337936401 2072968 6 -1
3.9898509979248047 11.141301155090332 -1.3692506551742554 2994813 6 -1
4.093134880065918 11.14272689819336 -1.0041171312332153 4899181 6 -1
4.181247234344482 11.101334571838379 -1.0954005718231201 10016830 6 -1
4.025550365447998 11.240989685058594 0.36613115668296814 4212104 6 -1
4.017854690551758 11.219498634338379 -0.8237950801849365 2588302 6 -1
3.8982937335968018 11.170841217041016 -1.647590160369873 2006409 0 -1
3.9098260402679443 11.203887939453125 -1.3729918003082275 2072968 6 -1
4.007411956787109 11.190338134765625 -1.189926266670227 2994813 6 -1
4.013111114501953 11.206254005432129 -1.006860613822937 4899181 6 -1
4.1895670890808105 11.12342357635498 -1.189926266670227 10016830 6 -1
4.036519527435303 11.271618843078613 0.36712878942489624 4212104 6 -1
4.036519527435303 11.271618843078613 0.36712878942489624 4017546 6 -1
4.129107475280762 11.240654945373535 0.275346577167511 3887499 6 -1
4.129714012145996 11.242304801940918 0.18356439471244812 3757452 6 -1
4.036519527435303 11.271618843078613 -0.36712878942489624 2782862 6 -1
3.8612496852874756 11.064688682556152 -2.478119373321533 2718350 0 -1
3.9270055294036865 11.253116607666016 -1.1931685209274292 2588302 6 -1
3.9204795360565186 11.234416007995605 -1.3767329454421997 2458766 6 -1
3.904585361480713 11.188870429992676 -1.7438616752624512 2070922 0 -1
3.9238603115081787 11.244104385375977 -1.2849507331848145 2072968 6 -1
3.971497058868408 10.811592102050781 -3.4051692485809326 3562893 0 -1
4.129246711730957 11.241033554077148 0.9203160405158997 3432845 0 -1
4.04939079284668 11.307560920715332 0 2912910 6 -1
4.233453750610352 11.239944458007812 0 2782862 6 -1
3.9151957035064697 11.219274520874023 -1.7486004829406738 2070922 0 -1
4.129246711730957 11.241033554077148 -0.9203160405158997 2994813 6 -1
4.0092453956604 10.91435432434082 -3.137554407119751 3562893 0 -1
4.137868404388428 11.264504432678223 1.0150911808013916 3432845 0 -1
4.150694370269775 11.299421310424805 -0.36912405490875244 2070922 6 -1
4.119505405426025 11.21451473236084 -1.7580779790878296 3238030 0 -1
4.440339088439941 11.226587295532227 -0.9277982711791992 4017546 0 -1
4.151000022888184 11.300251960754395 -1.2989176511764526 2782862 6 -1
4.1417131423950195 11.274970054626465 -1.7675554752349854 4212104 0 -1
4.435810565948486 11.21513843536377 -1.395438551902771 4017546 0 -1
