VERSION .7
FIELDS x y z rgb label object
SIZE 4 4 4 4 4 4
TYPE F F F I I I
COUNT 1 1 1 1 1 1
WIDTH 685
HEIGHT 1
POINTS 685
VIEWPOINT 0 0 0 1 0 0 0
DATA ascii
-1.8225716352462769 2.5954363346099854 0.3421879708766937 4657508 0 -1
-1.8902320861816406 2.5356497764587402 0.4155139625072479 4725613 0 -1
-1.9163508415222168 2.5706868171691895 0.320988267660141 4456788 0 -1
-1.8206621408462524 2.644860029220581 0.2716054618358612 4456788 0 -1
-1.8512064218521118 2.4832987785339355 -0.8888906240463257 4456788 0 -1
-1.8483729362487793 2.632178544998169 0.19753125309944153 4456788 0 -1
-1.9971249103546143 2.5229909420013428 0.17283983528614044 4456788 0 -1
-1.9971249103546143 2.5229909420013428 0.17283983528614044 4456788 0 -1
-1.9469528198242188 2.5601212978363037 0.19753125309944153 4456788 0 -1
-1.9409195184707642 2.552187919616699 0.320988267660141 4456788 0 -1
-1.839582920074463 2.619661331176758 0.37037110328674316 4456788 0 -1
-1.7398650646209717 2.6834046840667725 0.39506250619888306 4456788 0 -1
-1.8341569900512695 2.6119344234466553 0.44444531202316284 4456788 0 -1
-1.7846157550811768 2.5924956798553467 0.6913593411445618 4456788 0 -1
-1.8764630556106567 2.567856788635254 0.5185195207595825 4456788 0 -1
-1.83594810962677 2.5629501342773438 0.6666679382324219 4456788 0 -1
-1.8279813528060913 2.6554925441741943 0.4489346444606781 4456788 0 -1
-2.0116477012634277 2.5413379669189453 0.2992897629737854 4456788 0 -1
-1.9307081699371338 2.5899462699890137 0.39905303716659546 4456788 0 -1
-1.9288082122802734 2.587397813796997 0.423993855714798 4456788 0 -1
-1.8581645488739014 2.646122455596924 0.37411221861839294 4456788 0 -1
-1.7605794668197632 2.7153525352478027 0.34917140007019043 4456788 0 -1
-1.873111605644226 2.6148297786712646 0.49881628155708313 4456788 0 -1
-1.9032953977584839 2.553173780441284 0.6734020113945007 4456788 0 -1
-1.8056905269622803 2.6231110095977783 0.6734020113945007 4456788 0 -1
-1.9189813137054443 2.6260411739349365 0.4786142110824585 4456788 0 -1
-1.7851423025131226 2.7532360553741455 0.20152178406715393 4456788 0 -1
-1.862229585647583 2.6519112586975098 0.5541849136352539 4456788 0 -1
-1.900765299797058 2.6011133193969727 0.6549457907676697 4456788 0 -1
-1.8697253465652466 2.662585735321045 0.6614304184913635 4456788 0 -1
-1.8745577335357666 2.723153591156006 -0.305275559425354 4456788 0 -1
-2.7728383541107178 1.8257726430892944 -0.025439631193876266 4456788 0 -1
-1.8769980669021606 2.726698875427246 -0.25439631938934326 4456788 0 -1
-1.8823115825653076 2.734417676925659 0.05087926238775253 4456788 0 -1
-1.896962285041809 2.7013723850250244 -0.35615482926368713 4456788 0 -1
-2.7647674083709717 1.8204584121704102 -0.25439631938934326 4523353 0 -1
-1.8798227310180664 2.730802059173584 0.17807741463184357 4725613 0 -1
-1.7939516305923462 2.8228001594543457 -0.23120135068893433 4456788 0 -1
-1.8915340900421143 2.7478151321411133 -0.3339574933052063 4456788 0 -1
-1.8974138498306274 2.756356716156006 -0.20551231503486633 4456788 0 -1
-1.8929357528686523 2.7498512268066406 -0.3082684576511383 4456788 0 -1
-1.8785337209701538 2.7289295196533203 -0.5137807726860046 4456788 0 -1
-1.89897882938385 2.75862979888916 -0.15413422882556915 4456788 0 -1
-1.921013593673706 2.7356226444244385 -0.2568903863430023 4456788 0 -1
-1.7929459810256958 2.8212175369262695 -0.2568903863430023 4456788 0 -1
-1.8204916715621948 2.807755470275879 -0.20551231503486633 4523353 0 -1
-1.922091007232666 2.737157106399536 -0.23120135068893433 4590430 0 -1
-1.8883907794952393 2.743248701095581 -0.3853355646133423 4657508 0 -1
-1.9252634048461914 2.7416746616363525 0.12844519317150116 4724328 0 -1
-1.900933027267456 2.7614688873291016 0.02568903937935829 4725613 0 -1
-1.8982523679733276 2.7575747966766357 -0.17982326447963715 4726897 0 -1
-1.895400047302246 2.7534310817718506 -0.2568903863430023 4664956 0 -1
-1.81035315990448 2.8486080169677734 -0.2593844532966614 4456788 0 -1
-1.9098985195159912 2.7744929790496826 -0.3371998071670532 4456788 0 -1
-1.9158353805541992 2.7831172943115234 -0.20750758051872253 4456788 0 -1
-1.9098985195159912 2.7744929790496826 -0.3371998071670532 4456788 0 -1
-1.9049654006958008 2.767326593399048 -0.41501516103744507 4456788 0 -1
-1.9166820049285889 2.7843472957611084 -0.18156912922859192 4456788 0 -1
-1.9396641254425049 2.7621819972991943 -0.2593844532966614 4456788 0 -1
-1.8372453451156616 2.833594799041748 -0.23344601690769196 4456788 0 -1
-1.8372453451156616 2.833594799041748 -0.23344601690769196 4523353 0 -1
-1.913801908493042 2.780163526535034 -0.2593844532966614 4590430 0 -1
-1.9098985195159912 2.7744929790496826 -0.3371998071670532 4657508 0 -1
-1.9126148223876953 2.7784388065338135 -0.285322904586792 4724328 0 -1
-1.9189378023147583 2.7876243591308594 -0.07781533896923065 4725613 0 -1
-1.9158353805541992 2.7831172943115234 -0.20750758051872253 4726897 0 -1
-1.949272632598877 2.775865077972412 -0.41900569200515747 4456788 0 -1
-1.93511164188385 2.811119794845581 -0.1833149790763855 4456788 0 -1
-1.9282629489898682 2.801170825958252 -0.34044212102890015 4456788 0 -1
-1.9310053586959839 2.80515456199646 -0.28806641697883606 4456788 0 -1
-1.93511164188385 2.811119794845581 -0.1833149790763855 4456788 0 -1
-1.8527213335037231 2.8574635982513428 -0.28806641697883606 4456788 0 -1
-1.9620122909545898 2.7940070629119873 -0.15712712705135345 4523353 0 -1
-1.855841040611267 2.8622751235961914 -0.20950284600257874 4523353 0 -1
-1.9322038888931274 2.8068957328796387 -0.2618785500526428 4590430 0 -1
-1.9310053586959839 2.80515456199646 -0.28806641697883606 4657508 0 -1
-1.934256911277771 2.80987811088562 -0.20950284600257874 4724328 0 -1
-1.9369908571243286 2.813849687576294 -0.10475142300128937 4725613 0 -1
-1.93511164188385 2.811119794845581 -0.1833149790763855 4726897 0 -1
-2.952268362045288 1.7659058570861816 0.2643726170063019 4456788 0 -1
-2.873189687728882 1.8918489217758179 0.2643726170063019 4456788 0 -1
-1.95169997215271 2.8352174758911133 -0.2379353642463684 4523353 0 -1
-3.122196674346924 2.180283308029175 0.5003127455711365 4456788 0 -1
-2.9975552558898926 2.392547130584717 0.20601113140583038 4456788 0 -1
-2.801608085632324 2.4638783931732178 -0.9123349785804749 4456788 0 -1
-2.994518280029297 2.2701339721679688 -0.794614315032959 4456788 0 -1
-3.1281580924987793 2.184446334838867 0.44145241379737854 4456788 0 -1
-3.0004661083221436 2.3948705196380615 0.11772064119577408 4456788 0 -1
-3.005478858947754 2.3385558128356934 0.5003127455711365 4456788 0 -1
-2.8928236961364746 2.4258475303649902 -0.7063238620758057 4456788 0 -1
-3.0281012058258057 2.3561582565307617 0.17658096551895142 4726897 0 -1
-2.792123317718506 2.5713281631469727 0.7716687917709351 4456788 0 -1
-3.0512466430664062 2.3741674423217773 0.23743654787540436 4456788 0 -1
-3.0662193298339844 2.324490547180176 0.4451935291290283 4456788 0 -1
-2.8807997703552246 2.5335235595703125 0.5342322587966919 4456788 0 -1
-3.0808703899383545 2.335597515106201 0.23743654787540436 4456788 0 -1
-2.9751312732696533 2.3149423599243164 0.8903870582580566 4456788 0 -1
-2.8742403984069824 2.52775502204895 0.5935913920402527 4456788 0 -1
-3.030949115753174 2.3583741188049316 0.5045526623725891 4456788 0 -1
-2.903127908706665 2.5531599521636963 0.23743654787540436 4456788 0 -1
-2.9482877254486084 2.472358226776123 0.4451935291290283 4456788 0 -1
-2.9803385734558105 2.4388694763183594 0.4155139625072479 4523353 0 -1
-3.0440452098846436 2.3685641288757324 0.35615482926368713 4590430 0 -1
-2.825350522994995 2.4847586154937744 -0.9200666546821594 4590430 0 -1
-2.858992338180542 2.514345169067383 0.7123096585273743 4657508 0 -1
-2.8866562843322754 2.5386738777160645 0.4748730957508087 4725613 0 -1
-3.0461173057556152 2.3701765537261963 0.32647526264190674 4726897 0 -1
-2.9375009536743164 2.523155689239502 -0.08903870731592178 4726897 0 -1
-3.000382423400879 2.334590196609497 0.7419891953468323 2523534 0 -1
-2.910195827484131 2.499701976776123 0.5342322587966919 13164576 0 -1
-3.0818700790405273 2.3979954719543457 0.08978693187236786 4456788 0 -1
-3.0782470703125 2.395176649093628 0.20950284600257874 4456788 0 -1
-3.0736217498779297 2.3915774822235107 0.2992897629737854 4456788 0 -1
-2.913602113723755 2.5623714923858643 0.4489346444606781 4456788 0 -1
-3.10813307762146 2.356265068054199 0.20950284600257874 4456788 0 -1
-2.9559147357940674 2.5389721393585205 -0.2693607807159424 4456788 0 -1
-3.010899543762207 2.342773675918579 0.8380113840103149 4456788 0 -1
-2.9080493450164795 2.557488203048706 0.5087926387786865 4456788 0 -1
-3.0564191341400146 2.37819242477417 0.5087926387786865 4456788 0 -1
-2.9504168033599854 2.534249782562256 0.35914772748947144 4456788 0 -1
-2.9730632305145264 2.4931344985961914 0.4489346444606781 4456788 0 -1
-3.002794027328491 2.457245111465454 0.4489346444606781 4523353 0 -1
-3.0696253776550293 2.388468027114868 0.35914772748947144 4590430 0 -1
-2.9314000606536865 2.5179152488708496 0.5686505436897278 4590430 0 -1
-2.927969217300415 2.5149683952331543 0.5985795259475708 4657508 0 -1
-2.940617084503174 2.525832176208496 0.4788636267185211 4725613 0 -1
-3.0696253776550293 2.388468027114868 0.35914772748947144 4726897 0 -1
-2.937723398208618 2.5233466625213623 0.5087926387786865 4726897 0 -1
-3.082322597503662 2.3983476161956787 -0.05985795333981514 4728182 0 -1
-3.0720529556274414 2.3289129734039307 0.6285085082054138 2523534 0 -1
-2.937723398208618 2.5233466625213623 0.5087926387786865 2523534 0 -1
-3.0826845169067383 2.3986294269561768 0 2006409 0 -1
-2.9314000606536865 2.5179152488708496 0.5686505436897278 13164576 0 -1
-3.1050868034362793 2.416060447692871 0.18107031285762787 4456788 0 -1
-3.100973606109619 2.4128599166870117 0.2716054618358612 4456788 0 -1
-2.93670654296875 2.5224733352661133 0.7242812514305115 4456788 0 -1
-3.00651478767395 2.399698495864868 -0.8449947834014893 4456788 0 -1
-3.054974317550659 2.4383771419525146 0.4828541576862335 4456788 0 -1
-3.054974317550659 2.4383771419525146 0.4828541576862335 4456788 0 -1
-2.995072841644287 2.5115911960601807 0.4828541576862335 4456788 0 -1
-2.9978389739990234 2.5139105319976807 0.45267578959465027 4523353 0 -1
-3.092913866043091 2.4065887928009033 0.392318993806839 4590430 0 -1
-2.959106683731079 2.5417139530181885 0.5432109236717224 4590430 0 -1
-3.0877740383148193 2.4025893211364746 0.45267578959465027 4657508 0 -1
-3.0877740383148193 2.4025893211364746 0.45267578959465027 4657508 0 -1
-3.0849251747131348 2.4003727436065674 0.4828541576862335 4724328 0 -1
-3.0849251747131348 2.4003727436065674 0.4828541576862335 4724328 0 -1
-2.9651222229003906 2.5468809604644775 0.4828541576862335 4725613 0 -1
-3.0904366970062256 2.404661178588867 0.42249739170074463 4726897 0 -1
-2.9378821849823 2.5837247371673584 0.45267578959465027 4726897 0 -1
-3.0818893909454346 2.398010492324829 0.5130325555801392 2523534 0 -1
-2.925971508026123 2.5732498168945312 0.5733892917633057 2523534 0 -1
-3.094510316848755 2.46993350982666 0.3042779266834259 4456788 0 -1
-2.94670033454895 2.591479778289795 0.6085558533668518 4456788 0 -1
-3.0687832832336426 2.5112454891204834 0.2129945456981659 4456788 0 -1
-2.8264267444610596 2.722153902053833 0.6085558533668518 4456788 0 -1
-3.077191114425659 2.4561097621917725 0.5172724723815918 4456788 0 -1
-2.94670033454895 2.591479778289795 0.6085558533668518 4456788 0 -1
-2.973097324371338 2.5537312030792236 0.6389836668968201 4456788 0 -1
-3.0168540477752686 2.5298562049865723 0.5172724723815918 4523353 0 -1
-2.8899459838867188 2.6614153385162354 0.5781280994415283 4523353 0 -1
-2.8326950073242188 2.6681668758392334 0.7911226153373718 4590430 0 -1
-2.9352505207061768 2.5814104080200195 0.6998392343521118 4657508 0 -1
-2.811432361602783 2.7077126502990723 0.7302670478820801 4657508 0 -1
-3.088198661804199 2.464895725250244 0.3955613076686859 4724328 0 -1
-2.9267008304595947 2.5738914012908936 0.7606948614120483 4724328 0 -1
-2.9267008304595947 2.5738914012908936 0.7606948614120483 4724328 0 -1
-2.9392497539520264 2.584927558898926 0.6694114804267883 4725613 0 -1
-2.811432361602783 2.7077126502990723 0.7302670478820801 4725613 0 -1
-2.943066120147705 2.5882837772369385 0.6389836668968201 4726897 0 -1
-3.0313315391540527 2.6037511825561523 -0.24541760981082916 4456788 0 -1
-2.8726274967193604 2.705779790878296 0.6748984456062317 4456788 0 -1
-3.12319016456604 2.4928245544433594 -0.24541760981082916 4456788 0 -1
-2.8460798263549805 2.741081953048706 0.6442212462425232 4456788 0 -1
-2.9363579750061035 2.5823841094970703 0.8589616417884827 4456788 0 -1
-3.163245439529419 2.398045778274536 -0.5215124487876892 4456788 0 -1
-2.872931480407715 2.585939884185791 1.0430248975753784 4523353 0 -1
-2.781651735305786 2.738554000854492 0.8896388411521912 4523353 0 -1
-2.8661458492279053 2.6394975185394287 0.9203160405158997 4590430 0 -1
-2.914590835571289 2.5632410049438477 0.9816704392433167 4657508 0 -1
-2.8136956691741943 2.650270938873291 1.0430248975753784 4657508 0 -1
-2.8464694023132324 2.6811411380767822 0.8589616417884827 4725613 0 -1
-2.976162910461426 2.5563642978668213 0.7976072430610657 4726897 0 -1
-2.80757474899292 2.644505500793457 1.073702096939087 4726897 0 -1
-2.137202501296997 3.1046955585479736 1.3497968912124634 4726897 0 -1
-2.926466226577759 2.695047616958618 0.680385410785675 4456788 0 -1
-2.496141195297241 3.1534042358398438 0.3401927053928375 4456788 0 -1
-3.1839442253112793 2.477419137954712 -0.12370643764734268 4456788 0 -1
-3.2781243324279785 2.3544328212738037 0.03092660941183567 4456788 0 -1
-2.9622366428375244 2.5444023609161377 1.020578145980835 4456788 0 -1
-3.079559564590454 2.582439422607422 -0.37111932039260864 4456788 0 -1
-2.933884382247925 2.7018792629241943 0.6185321807861328 4590430 0 -1
-2.839897394180298 2.8573029041290283 0.24741287529468536 4590430 0 -1
-2.204732894897461 3.202796459197998 1.0824313163757324 4590430 0 -1
-2.239056348800659 3.252657651901245 0.8350184559822083 4657508 0 -1
-3.2973718643188477 2.3026111125946045 -0.3401927053928375 4726897 0 -1
-2.9139719009399414 2.6835412979125977 0.773165225982666 4728182 0 -1
-3.3550286293029785 2.276048421859741 0.3429361879825592 4456788 0 -1
-2.4524717330932617 3.2248473167419434 -0.37411221861839294 4456788 0 -1
-3.2107527256011963 2.498278856277466 -0.06235203519463539 4456788 0 -1
-3.0569283962249756 2.625737428665161 -0.5611683130264282 4456788 0 -1
-2.377610921859741 3.253655433654785 -0.5611683130264282 4456788 0 -1
-3.335442066192627 2.3291964530944824 -0.06235203519463539 4456788 0 -1
-3.071075201034546 2.6378886699676514 -0.4052882194519043 4456788 0 -1
-2.240227699279785 3.3198554515838623 -0.7170484066009521 4456788 0 -1
-3.1412816047668457 2.5705721378326416 -0.2805841565132141 4456788 0 -1
-2.5564334392547607 3.1652591228485107 0 4523353 0 -1
-2.494081497192383 3.2146191596984863 0 4590430 0 -1
-2.322542190551758 3.1782965660095215 -1.02880859375 4590430 0 -1
-3.0292675495147705 2.601978302001953 -0.7794004678726196 4726897 0 -1
-2.4272916316986084 3.1285338401794434 0.9352805018424988 4726897 0 -1
-2.950066566467285 2.7167818546295166 0.6858723759651184 4728182 0 -1
-2.22735857963562 3.2356643676757812 1.059984564781189 4728182 0 -1
-2.635411500930786 3.008152961730957 0.7482244372367859 4664956 0 -1
-2.365966558456421 3.3028464317321777 0.21823212504386902 4664956 0 -1
-3.079547643661499 2.5824294090270996 -0.8170610666275024 4456788 0 -1
-2.4502575397491455 3.221935749053955 0.6599339246749878 4456788 0 -1
-3.0534517765045166 2.6853625774383545 0.5342322587966919 4456788 0 -1
-2.401503801345825 3.2863519191741943 0.5028068423271179 4456788 0 -1
-2.2858927249908447 3.3875277042388916 0.3456796705722809 4456788 0 -1
-3.36094069480896 2.3470025062561035 -0.12570171058177948 4456788 0 -1
-2.476698398590088 3.2567036151885986 -0.28282883763313293 4456788 0 -1
-3.524284839630127 2.036355972290039 -0.5028068423271179 4456788 0 -1
-3.3923513889312744 2.301368236541748 -0.12570171058177948 4456788 0 -1
-3.1198368072509766 2.55302357673645 0.7542102336883545 4523353 0 -1
-2.5364015102386475 3.204265594482422 -0.3456796705722809 4523353 0 -1
-2.372504472732544 3.3119733333587646 -0.47138139605522156 4523353 0 -1
-3.3589651584625244 2.3456227779388428 -0.18855255842208862 4590430 0 -1
-2.8744559288024902 2.892073154449463 -0.4399559497833252 4590430 0 -1
-2.5080490112304688 3.232621669769287 0.28282883763313293 4590430 0 -1
-2.3764538764953613 3.31748628616333 0.4085305333137512 4590430 0 -1
-2.2803142070770264 3.2472853660583496 1.037039041519165 4726897 0 -1
-2.3715267181396484 3.1812820434570312 1.037039041519165 4728182 0 -1
-2.3715267181396484 3.1812820434570312 1.037039041519165 4728182 0 -1
-3.027423143386841 2.5387191772460938 1.099889874458313 4664956 0 -1
-2.9798011779785156 2.8067288398742676 -0.25140342116355896 4664956 0 -1
-2.6525368690490723 3.027700424194336 0.7856356501579285 4664956 0 -1
-3.168583393096924 2.592913866043091 0.5701470375061035 4456788 0 -1
-3.0059866905212402 2.7057037353515625 -0.8552204966545105 4456788 0 -1
-2.4583489894866943 3.2977497577667236 0.41177284717559814 4456788 0 -1
-3.117713451385498 2.677948474884033 0.44344767928123474 4456788 0 -1
-2.3597028255462646 3.229149103164673 1.04526948928833 4456788 0 -1
-3.0674667358398438 2.697688102722168 0.6334967017173767 4456788 0 -1
-2.4156527519226074 3.3057141304016113 0.5701470375061035 4456788 0 -1
-3.4588873386383057 2.068941116333008 -0.9185701608657837 4456788 0 -1
-3.3217599391937256 2.385772943496704 -0.6018218398094177 4456788 0 -1
-2.468024730682373 3.3107290267944336 -0.19004900753498077 4456788 0 -1
-2.504054546356201 3.227473258972168 0.6334967017173767 4523353 0 -1
-2.4440417289733887 3.2137622833251953 0.8868953585624695 4726897 0 -1
-2.283442258834839 3.251739740371704 1.140294075012207 4726897 0 -1
-2.4052257537841797 3.162721872329712 1.140294075012207 4728182 0 -1
-2.4052257537841797 3.162721872329712 1.140294075012207 4728182 0 -1
-3.135716438293457 2.6934123039245605 -0.031674835830926895 4664956 0 -1
-3.0658607482910156 2.6962757110595703 0.8300303220748901 4456788 0 -1
-2.4030544757843018 3.3546204566955566 0.5746363401412964 4456788 0 -1
-3.4137802124023438 2.110922336578369 -1.1173484325408936 4456788 0 -1
-3.279458522796631 2.8168790340423584 1.0934052467346191 4523353 0 -1
-3.1800811290740967 2.928607225418091 1.0934052467346191 4590430 0 -1
-3.3161659240722656 2.8484084606170654 1.0325497388839722 4523353 0 -1
-3.1967833042144775 2.943988800048828 1.1358046531677246 4590430 0 -1
-3.327333927154541 2.858001232147217 1.1093673706054688 4456788 0 -1
-3.2870306968688965 2.8907840251922607 1.1440351009368896 4523353 0 -1
-3.260115146636963 2.934445858001709 1.1093673706054688 4590430 0 -1
-3.432190418243408 2.808628559112549 1.0475142002105713 4590430 0 -1
-3.432190418243408 2.808628559112549 1.0475142002105713 4590430 0 -1
-3.432190418243408 2.808628559112549 1.0475142002105713 4590430 0 -1
-4.428637504577637 2.8274309635162354 0.44444531202316284 4456788 0 -1
-4.996639251708984 1.348339319229126 1.0101029872894287 4456788 0 -1
-4.096972465515137 3.105900764465332 -1.1717194318771362 4456788 0 -1
-3.4484217166900635 3.6984097957611084 -1.4949524402618408 4456788 0 -1
-4.37833309173584 2.5298309326171875 -1.4949524402618408 4456788 0 -1
-3.3890604972839355 4.0297651290893555 -0.28282883763313293 4523353 0 -1
-3.1597189903259277 3.9917094707489014 1.3737400770187378 4590430 0 -1
-4.169754505157471 2.7455708980560303 -1.6969729661941528 4726897 0 -1
-3.138451337814331 3.964841842651367 -1.4949524402618408 4726897 0 -1
3.983062505722046 3.421236991882324 0.4848494231700897 4726897 0 -1
-3.3738465309143066 4.0938496589660645 0.081307053565979 4456788 0 -1
-3.6155076026916504 3.877608060836792 0.2032676339149475 4456788 0 -1
-3.4147961139678955 4.060366153717041 -0.0406535267829895 4456788 0 -1
-4.593308925628662 2.654045581817627 0.081307053565979 4456788 0 -1
-3.4383633136749268 4.005921363830566 -0.5284958481788635 4523353 0 -1
-3.536752939224243 3.954590082168579 -0.0406535267829895 4590430 0 -1
-3.310206174850464 3.7783877849578857 1.707448124885559 4657508 0 -1
-3.487879991531372 3.9811909198760986 0.3658817410469055 4726897 0 -1
-3.333197832107544 4.127013206481934 0.081307053565979 4726897 0 -1
-3.333197832107544 4.127013206481934 0.081307053565979 4726897 0 -1
-4.733095169067383 1.7980817556381226 1.5854876041412354 4212104 0 -1
-4.658004283905029 2.595818281173706 -0.24541760981082916 4456788 0 -1
-4.078268051147461 3.419930934906006 0.40902936458587646 4456788 0 -1
-3.5581374168395996 3.9785008430480957 -0.08180586993694305 4456788 0 -1
-3.1041481494903564 4.333334445953369 0.2863205373287201 4456788 0 -1
3.5165205001831055 3.931967258453369 -0.8180587291717529 4456788 0 -1
-3.2295939922332764 4.162620544433594 0.8589616417884827 4456788 0 -1
-3.3933486938476562 4.117513656616211 0.1636117398738861 4456788 0 -1
-3.082136631011963 4.30260705947876 0.6953498721122742 4456788 0 -1
-3.3753530979156494 4.095677852630615 -0.5726410746574402 4456788 0 -1
-3.148693799972534 4.3088483810424805 -0.12270880490541458 4456788 0 -1
-4.621895790100098 2.670563220977783 0.04090293496847153 4456788 0 -1
-3.4257452487945557 4.073385238647461 -0.40902936458587646 4523353 0 -1
-3.5581374168395996 3.9785008430480957 -0.08180586993694305 4590430 0 -1
-3.5150699615478516 4.012226581573486 -0.20451468229293823 4657508 0 -1
-3.270697593688965 4.2155985832214355 -0.1636117398738861 4726897 0 -1
-3.289902925491333 4.156172275543213 -0.8641992211341858 4456788 0 -1
-3.2978250980377197 4.166180610656738 -0.7818945050239563 4456788 0 -1
-4.6496686935424805 2.686610460281372 0.0823046863079071 4456788 0 -1
-3.617577075958252 3.961848020553589 -0.2469140589237213 4523353 0 -1
-3.45029616355896 4.102577209472656 -0.3292187452316284 4523353 0 -1
-3.5353593826293945 4.035385608673096 -0.2469140589237213 4590430 0 -1
-3.5306758880615234 4.0300397872924805 -0.37037110328674316 4657508 0 -1
-3.5306758880615234 4.0300397872924805 -0.37037110328674316 4657508 0 -1
-3.3141047954559326 4.186747074127197 -0.5761328339576721 4726897 0 -1
-3.9322214126586914 3.621269941329956 0.7866332530975342 4456788 0 -1
-3.5967674255371094 4.021694660186768 -0.28981226682662964 4456788 0 -1
-3.6423914432525635 3.9890239238739014 -0.12420525401830673 4456788 0 -1
-4.719245433807373 2.629946708679199 0.08280350267887115 4456788 0 -1
-3.891650438308716 3.7480790615081787 -0.04140175133943558 4523353 0 -1
-3.6050682067871094 3.7857069969177246 -1.3662577867507935 4523353 0 -1
-3.808849334716797 3.832193374633789 0.04140175133943558 4590430 0 -1
-3.765789270401001 3.8711960315704346 0.1656070053577423 4657508 0 -1
-3.392451047897339 4.200377941131592 -0.20700876414775848 4657508 0 -1
-3.3393352031707764 4.218620777130127 -0.49682101607322693 4724328 0 -1
-3.329780340194702 4.206550121307373 0.874674379825592 4456788 0 -1
-3.9095730781555176 3.765340566635132 -0.2915581166744232 4456788 0 -1
-3.7299602031707764 3.9168570041656494 -0.5414651036262512 4456788 0 -1
-3.454508066177368 4.191725254058838 0.208255797624588 4456788 0 -1
-4.706581115722656 2.7194948196411133 0 4456788 0 -1
-4.5266289710998535 2.9805545806884766 0.416511595249176 4456788 0 -1
-4.0396881103515625 3.636143445968628 -0.0833023190498352 4523353 0 -1
-4.0396881103515625 3.636143445968628 -0.0833023190498352 4523353 0 -1
-3.737583637237549 3.9248623847961426 -0.416511595249176 4523353 0 -1
-3.4936609268188477 4.154140472412109 0.2915581166744232 4523353 0 -1
-3.873102903366089 3.8130948543548584 -0.0833023190498352 4590430 0 -1
-3.9150941371917725 3.770658016204834 -0.0416511595249176 4657508 0 -1
-3.7898104190826416 3.8958895206451416 0.0833023190498352 4657508 0 -1
-3.875152349472046 3.408008337020874 1.7076975107192993 4724328 0 -1
-4.1895647048950195 3.513261318206787 -0.08380113542079926 4456788 0 -1
-3.9763450622558594 3.745391368865967 -0.25140342116355896 4456788 0 -1
-4.020564556121826 3.702627182006836 -0.1676022708415985 4523353 0 -1
-4.145110607147217 3.560427665710449 0.20950284600257874 4590430 0 -1
-3.938537836074829 3.79323673248291 0.04190056771039963 4590430 0 -1
-4.105170726776123 3.6102981567382812 0.12570171058177948 4657508 0 -1
2.8890743255615234 4.638214111328125 0.632249653339386 4456788 5 -1
2.9309449195861816 4.611869812011719 0.632249653339386 4456788 5 -1
2.883568286895752 4.629374980926514 0.7165495753288269 4456788 5 -1
2.886408567428589 4.63393497467041 0.6743996143341064 4456788 5 -1
2.877361536026001 4.619410514831543 0.8008495569229126 4456788 5 -1
2.877361536026001 4.619410514831543 0.8008495569229126 4456788 5 -1
-4.290643215179443 3.167119026184082 1.348799228668213 4456788 0 -1
-3.950853109359741 3.393570899963379 1.770298957824707 4456788 0 -1
-4.172357559204102 3.583831310272217 -0.0842999517917633 4456788 0 -1
-4.000013828277588 3.7676854133605957 -0.2528998553752899 4456788 0 -1
-4.476388931274414 2.857917308807373 -1.4330991506576538 4456788 0 -1
-4.001307964324951 3.768904447555542 -0.21074987947940826 4523353 0 -1
-4.1305766105651855 3.632641315460205 0.04214997589588165 4590430 0 -1
-4.084224700927734 3.6762309074401855 0.2528998553752899 4657508 0 -1
-3.5522217750549316 4.138574123382568 0.7165495753288269 4657508 0 -1
-3.5104310512542725 4.174080848693848 0.7165495753288269 4724328 0 -1
2.887434244155884 4.6355814933776855 0.8903870582580566 4456788 0 -1
2.9061694145202637 4.665659427642822 0.6359907388687134 4456788 5 -1
2.9034879207611084 4.6613545417785645 0.6783901453018188 4456788 5 -1
2.9482877254486084 4.639159202575684 0.6359907388687134 4456788 5 -1
2.9061694145202637 4.665659427642822 0.6359907388687134 4456788 5 -1
2.9034879207611084 4.6613545417785645 0.6783901453018188 4456788 5 -1
2.9455676078796387 4.634878635406494 0.6783901453018188 4456788 5 -1
2.9086756706237793 4.66968297958374 0.5935913920402527 4456788 5 -1
2.9006309509277344 4.65676736831665 0.7207895517349243 4456788 5 -1
2.8909997940063477 4.641305446624756 0.847987711429596 4456788 5 -1
2.9034879207611084 4.6613545417785645 0.6783901453018188 4456788 5 -1
-3.5165650844573975 4.267025470733643 0.211996927857399 4456788 0 -1
-3.4596128463745117 4.1136555671691895 1.3143808841705322 4456788 0 -1
-3.6376662254333496 4.152162551879883 0.3815944492816925 4456788 0 -1
-4.6502203941345215 2.9688987731933594 0.423993855714798 4456788 0 -1
-3.660919666290283 4.093425750732422 0.6783901453018188 4523353 0 -1
-4.633023738861084 2.9579195976257324 -0.6359907388687134 4590430 0 -1
-4.108391284942627 3.697983741760254 0.25439631938934326 4657508 0 -1
-3.6114983558654785 4.122293472290039 0.763188898563385 4657508 0 -1
-3.5613765716552734 4.149240493774414 0.847987711429596 4724328 0 -1
3.0022642612457275 4.630410671234131 0.725029468536377 4456788 5 -1
2.8359131813049316 4.740455150604248 0.6823806762695312 4456788 5 -1
2.8359131813049316 4.740455150604248 0.6823806762695312 4456788 5 -1
2.9114131927490234 4.674077987670898 0.8103270530700684 4456788 5 -1
2.9599788188934326 4.657555103302002 0.725029468536377 4456788 5 -1
2.9681880474090576 4.670472145080566 0.5970830917358398 4456788 5 -1
2.9599788188934326 4.657555103302002 0.725029468536377 4456788 5 -1
2.9176933765411377 4.684160232543945 0.725029468536377 4456788 5 -1
2.9681880474090576 4.670472145080566 0.5970830917358398 4456788 5 -1
2.9628944396972656 4.662142753601074 0.6823806762695312 4456788 5 -1
2.923264503479004 4.693104267120361 0.6397318840026855 4456788 5 -1
2.8856937885284424 4.727085113525391 0.5544342994689941 4456788 5 -1
2.956883430480957 4.652684211730957 0.7676782608032227 4456788 5 -1
2.9599788188934326 4.657555103302002 0.725029468536377 4456788 5 -1
-3.5394339561462402 4.294775009155273 -0.0852975845336914 4456788 0 -1
-3.4632656574249268 4.2023515701293945 1.151517391204834 4456788 0 -1
-4.629024982452393 3.0479769706726074 0.5117855072021484 4456788 0 -1
-3.7034671306610107 4.140999794006348 0.3411903381347656 4523353 0 -1
-3.782235622406006 4.056422710418701 -0.46913671493530273 4590430 0 -1
-3.5823259353637695 4.173647403717041 0.8529758453369141 4590430 0 -1
2.7447593212127686 4.877816200256348 -0.1286945939064026 4456788 5 -1
2.7447593212127686 4.877816200256348 -0.1286945939064026 4456788 5 -1
2.7454042434692383 4.878962516784668 0.04289820045232773 4456788 5 -1
2.6986961364746094 4.895939826965332 0.3002873957157135 4456788 5 -1
2.9855458736419678 4.697784900665283 0.600574791431427 4456788 5 -1
2.982973575592041 4.693737506866455 0.6434730291366577 4456788 5 -1
2.9376466274261475 4.716194152832031 0.6863712072372437 4456788 5 -1
2.940359592437744 4.720549583435059 0.6434730291366577 4456788 5 -1
2.9428951740264893 4.724620342254639 0.600574791431427 4456788 5 -1
2.9802212715148926 4.689406871795654 0.6863712072372437 4456788 5 -1
-3.374601125717163 4.437389850616455 0.5147783756256104 4456788 0 -1
-1.9600118398666382 4.955532550811768 1.7159279584884644 4456788 0 -1
4.81952428817749 2.7847542762756348 -0.600574791431427 4456788 0 -1
4.951441764831543 2.5525636672973633 -0.5576766133308411 4456788 0 -1
2.8025355339050293 4.87935733795166 -0.21573804318904877 4456788 5 -1
2.8045122623443604 4.88279914855957 -0.04314760863780975 4456788 5 -1
2.8045122623443604 4.88279914855957 -0.04314760863780975 4456788 5 -1
2.8045122623443604 4.88279914855957 -0.04314760863780975 4456788 5 -1
2.761122703552246 4.906896114349365 0.0862952172756195 4456788 5 -1
2.796349048614502 4.868586540222168 0.43147608637809753 4456788 5 -1
2.9119038581848145 4.770020008087158 0.690361738204956 4456788 5 -1
2.9171066284179688 4.778542518615723 0.6040664911270142 4456788 5 -1
2.914592981338501 4.774425506591797 0.6472141146659851 4456788 5 -1
2.954725980758667 4.7436137199401855 0.690361738204956 4456788 5 -1
4.994483947753906 2.4681830406188965 -0.8198045492172241 4456788 0 -1
-3.388991355895996 4.45631217956543 0.6040664911270142 4456788 0 -1
4.894362926483154 2.727536678314209 -0.560918927192688 4456788 0 -1
5.0117268562316895 2.367830753326416 -0.9923949837684631 4456788 0 -1
4.987312316894531 2.5710556507110596 -0.4746236801147461 4456788 0 -1
2.644418954849243 5.001575946807861 -0.2603820860385895 4456788 5 -1
2.729137897491455 4.75156831741333 -1.4321016073226929 4456788 0 -1
2.8200607299804688 4.90986967086792 -0.13019104301929474 4456788 5 -1
2.8178234100341797 4.905974388122559 -0.2603820860385895 4456788 5 -1
2.818735122680664 4.907561779022217 -0.2169850766658783 4456788 5 -1
2.777327537536621 4.935694694519043 -0.04339701682329178 4456788 5 -1
2.8208060264587402 4.911167621612549 0 4456788 5 -1
2.777327537536621 4.935694694519043 0.04339701682329178 4456788 5 -1
2.7320048809051514 4.956367492675781 0.2169850766658783 4456788 5 -1
2.731121063232422 4.954764366149902 0.2603820860385895 4456788 5 -1
2.7734110355377197 4.928734302520752 0.30377912521362305 4456788 5 -1
2.802112102508545 4.878620147705078 0.6509552597999573 4456788 5 -1
2.9314403533935547 4.802022933959961 0.6509552597999573 4456788 5 -1
2.942321300506592 4.819847106933594 0.4339701533317566 4456788 5 -1
2.7133874893188477 4.9225921630859375 0.6943522691726685 4456788 5 -1
2.8243815898895264 4.721179008483887 -1.345307469367981 4456788 0 -1
4.926301956176758 2.745335578918457 -0.520764172077179 4456788 0 -1
5.060359001159668 2.3908073902130127 -0.8679403066635132 4456788 0 -1
5.055941581726074 2.498554229736328 -0.520764172077179 4456788 0 -1
2.8776180744171143 4.908869743347168 -0.2618785500526428 4456788 5 -1
2.790417432785034 4.958957195281982 -0.2618785500526428 4456788 5 -1
2.834934711456299 4.935766220092773 -0.21823212504386902 4456788 5 -1
2.834934711456299 4.935766220092773 -0.21823212504386902 4456788 5 -1
2.836684465408325 4.938812255859375 0.08729285001754761 4456788 5 -1
2.749724864959717 4.9885149002075195 0 4456788 5 -1
2.7484328746795654 4.986171245574951 0.17458570003509521 4456788 5 -1
2.7893500328063965 4.95706033706665 0.3055249750614166 4456788 5 -1
2.9119222164154053 4.8675103187561035 0.5237571001052856 4456788 5 -1
2.7815375328063965 4.943176746368408 0.5237571001052856 4456788 5 -1
2.834017753601074 4.934169769287109 0.2618785500526428 4456788 5 -1
2.6574249267578125 5.026175498962402 0.34917140007019043 4456788 5 -1
2.8799028396606445 4.91276741027832 -0.1309392750263214 4456788 5 -1
2.8316824436187744 4.930103778839111 -0.34917140007019043 4456788 5 -1
2.618093490600586 5.0571441650390625 -0.1309392750263214 4456788 5 -1
2.8063628673553467 4.9872941970825195 -0.2633749842643738 4456788 5 -1
2.8478634357452393 4.95827579498291 -0.35116666555404663 4456788 5 -1
2.8448407649993896 4.953012943267822 -0.4389583170413971 4456788 5 -1
2.8511343002319336 4.96397066116333 -0.21947915852069855 4456788 5 -1
2.851888656616211 4.9652838706970215 -0.17558333277702332 4456788 5 -1
2.851888656616211 4.9652838706970215 -0.17558333277702332 4456788 5 -1
2.7651126384735107 5.0164313316345215 -0.08779166638851166 4456788 5 -1
2.8090033531188965 4.9919867515563965 0.08779166638851166 4456788 5 -1
2.72082257270813 5.039635181427002 0.1316874921321869 4456788 5 -1
2.7634072303771973 5.013337135314941 0.21947915852069855 4456788 5 -1
2.9285616874694824 4.895324230194092 0.5267499685287476 4456788 5 -1
2.8010740280151367 4.977895259857178 0.4389583170413971 4456788 5 -1
2.8090033531188965 4.9919867515563965 0.08779166638851166 4456788 5 -1
2.896784782409668 4.94156551361084 -0.08779166638851166 4456788 5 -1
2.71954345703125 5.037266254425049 -0.21947915852069855 4456788 5 -1
2.8199822902679443 5.011497974395752 -0.35316193103790283 4456788 5 -1
2.725410223007202 5.04813289642334 -0.5297428965568542 4456788 5 -1
2.9406635761260986 4.915553569793701 -0.6180333495140076 4456788 5 -1
2.774529218673706 5.033514499664307 -0.3973071575164795 4456788 5 -1
2.7782094478607178 5.040191650390625 -0.2648714482784271 4456788 5 -1
2.82230806350708 5.015631198883057 -0.2648714482784271 4456788 5 -1
2.8691036701202393 4.995255947113037 -0.08829048275947571 4456788 5 -1
2.7304890155792236 5.057539939880371 -0.3973071575164795 4456788 5 -1
2.9135003089904785 4.970080375671387 -0.044145241379737854 4456788 5 -1
2.7782094478607178 5.040191650390625 -0.2648714482784271 4456788 5 -1
2.7791082859039307 5.0418219566345215 -0.22072620689868927 4456788 5 -1
2.8664064407348633 4.990560054779053 0.2648714482784271 4456788 5 -1
2.8673338890075684 4.992175102233887 0.22072620689868927 4456788 5 -1
2.690882682800293 5.089456081390381 0.22072620689868927 4456788 5 -1
2.7729737758636475 5.030693054199219 0.44145241379737854 4456788 5 -1
2.9114468097686768 4.966577529907227 0.22072620689868927 4456788 5 -1
2.736281633377075 5.068269729614258 -0.13243572413921356 4456788 5 -1
2.7810685634613037 5.0453782081604 -0.044145241379737854 4456788 5 -1
2.912816047668457 4.9689130783081055 0.13243572413921356 4456788 5 -1
2.736924648284912 5.069460391998291 -0.044145241379737854 4456788 5 -1
2.912217140197754 4.967891216278076 -0.17658096551895142 4456788 5 -1
2.7341108322143555 5.064248561859131 -0.2648714482784271 4456788 5 -1
2.7341108322143555 5.064248561859131 -0.2648714482784271 4456788 5 -1
3.08980393409729 4.861835956573486 0.08829048275947571 4456788 5 -1
3.0387699604034424 4.878540515899658 -0.3973071575164795 4456788 5 -1
2.9962310791015625 4.9081573486328125 -0.35316193103790283 4456788 5 -1
2.9975552558898926 4.9103264808654785 -0.3090166747570038 4456788 5 -1
2.956341505050659 4.941760540008545 -0.17658096551895142 4456788 5 -1
2.7902045249938965 5.061952590942383 -0.3995518386363983 4456788 5 -1
2.8835337162017822 5.020379066467285 -0.2219732403755188 4456788 5 -1
2.837167501449585 5.042038440704346 -0.31076255440711975 4456788 5 -1
2.7485060691833496 5.090912342071533 -0.31076255440711975 4456788 5 -1
2.92453670501709 4.988907337188721 -0.35515719652175903 4456788 5 -1
2.792836904525757 5.066728115081787 -0.31076255440711975 4456788 5 -1
2.837167501449585 5.042038440704346 -0.31076255440711975 4456788 5 -1
2.8391716480255127 5.045599937438965 -0.2219732403755188 4456788 5 -1
2.882601022720337 5.0187554359436035 -0.2663678824901581 4456788 5 -1
2.8835337162017822 5.020379066467285 -0.2219732403755188 4456788 5 -1
2.692446708679199 5.092414379119873 -0.6215251088142395 4456788 5 -1
2.7504475116729736 5.094508171081543 -0.2219732403755188 4456788 5 -1
2.878782272338867 5.012106895446777 0.3995518386363983 4456788 5 -1
2.837167501449585 5.042038440704346 0.31076255440711975 4456788 5 -1
2.796123743057251 5.072691440582275 0.13318394124507904 4456788 5 -1
2.8382532596588135 5.0439677238464355 0.2663678824901581 4456788 5 -1
2.792836904525757 5.066728115081787 0.31076255440711975 4456788 5 -1
2.796862840652466 5.074032306671143 0 4456788 5 -1
2.961840867996216 4.950953006744385 0.5327357649803162 4456788 5 -1
2.9230713844299316 4.986407279968262 0.3995518386363983 4456788 5 -1
2.796534538269043 5.073436260223389 0.08878929913043976 4456788 5 -1
2.9214327335357666 4.983612060546875 0.4439464807510376 4456788 5 -1
2.7485060691833496 5.090912342071533 -0.31076255440711975 4456788 5 -1
3.018038511276245 4.943880081176758 -0.13318394124507904 4456788 5 -1
3.055938243865967 4.906103134155273 -0.3995518386363983 4456788 5 -1
2.9269485473632812 4.993021488189697 -0.2663678824901581 4456788 5 -1
2.896406650543213 5.042791843414307 -0.35715246200561523 4456788 5 -1
2.8096015453338623 5.097142696380615 -0.2678643465042114 4456788 5 -1
2.807286262512207 5.092942237854004 -0.35715246200561523 4456788 5 -1
2.853106737136841 5.070364475250244 -0.31250840425491333 4456788 5 -1
2.8105106353759766 5.09879207611084 -0.22322028875350952 4456788 5 -1
2.854198455810547 5.072304725646973 -0.2678643465042114 4456788 5 -1
2.896406650543213 5.042791843414307 -0.35715246200561523 4456788 5 -1
2.8112542629241943 5.1001410484313965 -0.17857623100280762 4456788 5 -1
2.767200231552124 5.125538349151611 -0.1339321732521057 4456788 5 -1
2.901096820831299 5.050957679748535 -0.1339321732521057 4456788 5 -1
2.946507692337036 5.0263872146606445 0 4456788 5 -1
2.9464213848114014 5.02623987197876 -0.044644057750701904 4456788 5 -1
2.9461617469787598 5.025796890258789 -0.08928811550140381 4456788 5 -1
2.854198455810547 5.072304725646973 0.2678643465042114 4456788 5 -1
2.857135772705078 5.077524662017822 0.044644057750701904 4456788 5 -1
2.9005002975463867 5.049919128417969 0.17857623100280762 4456788 5 -1
2.9879889488220215 4.994661808013916 0.2678643465042114 4456788 5 -1
2.6453440189361572 5.003325939178467 1.3839657306671143 4456788 0 -1
2.9183475971221924 4.978349208831787 -0.8035930395126343 4456788 5 -1
3.0268707275390625 4.958348751068115 -0.44644057750701904 4456788 5 -1
2.9558193683624268 4.940887928009033 -0.8928811550140381 4456788 5 -1
2.9962363243103027 4.90816593170166 -0.93752521276474 4456788 5 -1
3.0156772136688232 4.940012454986572 -0.6696608662605286 4456788 5 -1
2.9183475971221924 4.978349208831787 -0.8035930395126343 4456788 5 -1
2.9183475971221924 4.978349208831787 -0.8035930395126343 4456788 5 -1
3.0156772136688232 4.940012454986572 -0.6696608662605286 4456788 5 -1
2.952425241470337 5.0364813804626465 -0.4938281178474426 4456788 5 -1
2.8663415908813477 5.0938849449157715 -0.40404120087623596 4456788 5 -1
2.8215548992156982 5.118828296661377 -0.40404120087623596 4456788 5 -1
2.822969436645508 5.121394634246826 -0.35914772748947144 4456788 5 -1
2.822969436645508 5.121394634246826 -0.35914772748947144 4456788 5 -1
2.952425241470337 5.0364813804626465 -0.4938281178474426 4456788 5 -1
2.826211929321289 5.12727689743042 -0.22446732223033905 4456788 5 -1
2.914989709854126 5.075145721435547 -0.2693607807159424 4456788 5 -1
2.962185859680176 5.053132057189941 -0.1346803903579712 4456788 5 -1
2.9615767002105713 5.052093029022217 -0.17957386374473572 4456788 5 -1
2.962185859680176 5.053132057189941 -0.1346803903579712 4456788 5 -1
2.9159328937530518 5.076787948608398 -0.22446732223033905 4456788 5 -1
3.0866262912750244 4.955370903015137 -0.4938281178474426 4456788 5 -1
3.043780565261841 4.986048698425293 0.4489346444606781 4456788 5 -1
3.043780565261841 4.986048698425293 0.4489346444606781 4456788 5 -1
3.0022056102752686 5.018425941467285 -0.35914772748947144 4456788 5 -1
3.0943737030029297 4.967808723449707 -0.2693607807159424 4456788 5 -1
2.972332239151001 4.9684906005859375 -0.8978692889213562 4456788 5 -1
3.012974977493286 4.935585975646973 -0.9427627921104431 4456788 5 -1
3.029726505279541 4.963027000427246 -0.7182954549789429 4456788 5 -1
2.927969217300415 4.994762420654297 -0.8978692889213562 4456788 5 -1
3.068044424057007 4.925539016723633 -0.8080824017524719 4456788 5 -1
3.032524585723877 4.9676103591918945 -0.6734020113945007 4456788 5 -1
3.0797741413116455 4.944369792938232 -0.6285085082054138 4456788 5 -1
2.827589750289917 5.129776477813721 -0.632000207901001 4456788 5 -1
2.7921948432922363 5.171834945678711 -0.4062858521938324 4456788 5 -1
2.825153350830078 5.125356674194336 -0.6771430969238281 4456788 5 -1
3.0156803131103516 5.040950298309326 -0.45142874121665955 4456788 5 -1
2.9772422313690186 5.0788164138793945 -0.22571437060832977 4456788 5 -1
2.9273011684417725 5.096580505371094 -0.4062858521938324 4456788 5 -1
3.0993661880493164 4.975823879241943 -0.5868573784828186 4456788 5 -1
2.93351149559021 5.107393264770508 -0.13542862236499786 4456788 5 -1
2.93351149559021 5.107393264770508 -0.13542862236499786 4456788 5 -1
2.843249559402466 5.158186435699463 0.13542862236499786 4456788 5 -1
3.0231516361236572 5.053438663482666 0.18057149648666382 4456788 5 -1
3.114492416381836 5.000108242034912 0.09028574824333191 4456788 5 -1
3.2027909755706787 4.93968391418457 0.22571437060832977 4456788 5 -1
2.9762792587280273 5.077173709869385 -0.2708572447299957 4456788 5 -1
3.1090004444122314 4.991291046142578 -0.36114299297332764 4456788 5 -1
2.995666265487671 5.007494926452637 -0.8125717043876648 4456788 5 -1
2.995666265487671 5.007494926452637 -0.8125717043876648 4456788 5 -1
3.046558380126953 4.990599155426025 -0.7222859859466553 4456788 5 -1
3.0493719577789307 4.995207786560059 -0.6771430969238281 4456788 5 -1
2.972336530685425 5.07044792175293 -0.4062858521938324 4725613 5 -1
2.798081398010254 5.182737827301025 -0.6354919672012329 4456788 5 -1
2.950411796569824 5.136817455291748 0.04539228230714798 4456788 5 -1
2.9050207138061523 5.162622928619385 -0.04539228230714798 4456788 5 -1
3.032341718673706 5.068800926208496 -0.4539228081703186 4456788 5 -1
2.99448299407959 5.108227252960205 -0.18156912922859192 4456788 5 -1
3.2194442749023438 4.965368747711182 -0.2723536789417267 4456788 5 -1
2.950411796569824 5.136817455291748 0.04539228230714798 4456788 5 -1
2.950411796569824 5.136817455291748 0.04539228230714798 4456788 5 -1
3.1305959224700928 5.025960922241211 0.18156912922859192 4456788 5 -1
3.2213377952575684 4.968289375305176 0.18156912922859192 4456788 5 -1
2.9936909675598145 5.106876373291016 0.2269614040851593 4456788 5 -1
3.2204859256744385 4.966975212097168 0.2269614040851593 4456788 5 -1
3.0865845680236816 5.056166172027588 0.04539228230714798 4456788 5 -1
2.9950990676879883 5.109277725219727 -0.13617683947086334 4456788 5 -1
3.023733139038086 5.054410934448242 -0.6354919672012329 4456788 5 -1
3.012216806411743 5.035160541534424 -0.8170610666275024 4456788 5 -1
3.021127939224243 5.050055980682373 -0.6808842420578003 4456788 5 -1
-3.5732297897338867 4.698574066162109 0.4993151128292084 4590430 0 -1
-3.349153518676758 4.865285873413086 -0.4539228081703186 4590430 0 -1
-3.445186138153076 4.714585304260254 0.9986302256584167 4657508 0 -1
-5.446913719177246 2.328723192214966 0.04539228230714798 4726897 0 -1
-4.25885009765625 4.10173225402832 0.36313825845718384 4726897 0 -1
-3.897667169570923 4.358142852783203 0.9532378911972046 4726897 0 -1
-3.435595989227295 4.701461315155029 1.0894147157669067 4726897 0 -1
2.941823959350586 5.121865749359131 -0.4539228081703186 4726897 5 -1
5.7443060874938965 1.3592337369918823 -0.4993151128292084 4726897 0 -1
2.964531660079956 5.161401271820068 -0.22820845246315002 4456788 5 -1
2.9179794788360596 5.185652256011963 -0.27385014295578003 4456788 5 -1
2.9202961921691895 5.189769744873047 -0.13692507147789001 4456788 5 -1
2.9653160572052 5.162766456604004 -0.18256676197052002 4456788 5 -1
3.012263059616089 5.1385579109191895 -0.045641690492630005 4456788 5 -1
2.966622829437256 5.165041446685791 -0.045641690492630005 4456788 5 -1
2.9596469402313232 5.152896404266357 0.41077521443367004 4456788 5 -1
3.192572593688965 5.023543357849121 0.22820845246315002 4456788 5 -1
3.003495454788208 5.123600959777832 0.45641690492630005 4456788 5 -1
3.183549404144287 5.009345054626465 0.5020585656166077 4456788 5 -1
2.966709852218628 5.1651930809021 0 4456788 5 -1
3.149184226989746 5.055803298950195 0.045641690492630005 4456788 5 -1
-3.553356885910034 4.766646862030029 -0.36513352394104004 4523353 0 -1
-3.8247745037078857 4.5478515625 -0.41077521443367004 4590430 0 -1
-3.371133327484131 4.897216320037842 -0.36513352394104004 4590430 0 -1
-3.74250864982605 4.633803367614746 -0.045641690492630005 4724328 0 -1
-3.7421791553497314 4.633395195007324 0.09128338098526001 4726897 0 -1
2.8880820274353027 5.239521026611328 -0.275346577167511 4456788 5 -1
2.844913959503174 5.26948356628418 -0.09178219735622406 4456788 5 -1
3.0256097316741943 5.161325931549072 -0.275346577167511 4456788 5 -1
2.8897809982299805 5.242602825164795 0.18356439471244812 4456788 5 -1
3.0747034549713135 5.139612197875977 0 4456788 5 -1
3.0180346965789795 5.148403167724609 0.5048021078109741 4456788 5 -1
2.8788914680480957 5.2228474617004395 0.550693154335022 4456788 5 -1
3.16611385345459 5.082982540130615 0.09178219735622406 4456788 5 -1
2.981519937515259 5.190978527069092 0.18356439471244812 4456788 5 -1
3.2119996547698975 5.054111957550049 0.09178219735622406 4456788 5 -1
3.1205029487609863 5.111728668212891 0.04589109867811203 4456788 5 -1
3.1205029487609863 5.111728668212891 0.04589109867811203 4456788 5 -1
-3.7996859550476074 4.518019676208496 -1.0096042156219482 4456788 0 -1
-3.487313985824585 4.868227005004883 0.09178219735622406 4456788 0 -1
-3.708329439163208 4.684775352478027 -0.41301989555358887 4523353 0 -1
-3.5285279750823975 4.828634738922119 -0.3212376832962036 4523353 0 -1
-3.6625475883483887 4.720654010772705 0.41301989555358887 4590430 0 -1
-3.574352979660034 4.794812202453613 -0.3212376832962036 4657508 0 -1
-3.423133611679077 4.778632164001465 -1.1472774744033813 4725613 0 -1
-3.5529441833496094 4.399093151092529 1.973317265510559 4726897 0 -1
2.8464834690093994 5.272390365600586 0.5998265743255615 4456788 5 -1
3.039546489715576 5.185100078582764 0.36912405490875244 4456788 5 -1
2.95082426071167 5.244022369384766 -0.23070253431797028 4456788 5 -1
2.8442037105560303 5.268167495727539 0.6459670662879944 4456788 5 -1
3.076038360595703 5.141843318939209 0.5998265743255615 4456788 5 -1
2.882084608078003 5.228640556335449 0.7843886017799377 4456788 5 -1
3.016169309616089 5.14522123336792 0.8305290937423706 4456788 5 -1
2.9969310760498047 5.217809677124023 0.23070253431797028 4456788 5 -1
3.1828536987304688 5.109857082366943 0.13842152059078217 4456788 5 -1
-3.800772190093994 4.611884593963623 0.7382481098175049 4456788 0 -1
-3.5323095321655273 4.738412857055664 -1.1535125970840454 4456788 0 -1
-3.526815414428711 4.731042861938477 -1.199653148651123 4456788 0 -1
-3.7339155673980713 4.530760288238525 -1.3380746841430664 4456788 0 -1
-3.4107871055603027 4.95482063293457 -0.27684304118156433 4456788 0 -1
-4.61188268661499 3.8674063682556152 -0.18456202745437622 4456788 0 -1
-3.4983301162719727 4.883605480194092 -0.4152645468711853 4456788 0 -1
-3.718792676925659 4.697993755340576 -0.5998265743255615 4523353 0 -1
-3.491823196411133 4.874521732330322 -0.5536860823631287 4523353 0 -1
-3.6296582221984863 4.7727742195129395 -0.5536860823631287 4590430 0 -1
-3.5837132930755615 4.807368278503418 -0.5536860823631287 4657508 0 -1
-3.5682952404022217 4.786685943603516 -0.7843886017799377 4724328 0 -1
-3.547455072402954 4.758729934692383 -1.0150911808013916 4725613 0 -1
-3.552061080932617 4.764908790588379 -0.968950629234314 4726897 0 -1
