VERSION .7
FIELDS x y z rgb label object
SIZE 4 4 4 4 4 4
TYPE F F F I I I
COUNT 1 1 1 1 1 1
WIDTH 680
HEIGHT 1
POINTS 680
VIEWPOINT 0 0 0 1 0 0 0
DATA ascii
-1.3696045875549316 2.289403200149536 -0.08180586993694305 4471684 0 -1
-2.0386812686920166 1.668292760848999 -0.42948082089424133 3107982 0 -1
-1.9316779375076294 1.8194825649261475 -0.2863205373287201 3107982 0 -1
-1.5803864002227783 2.162688970565796 -0.3519148826599121 4456788 0 -1
-1.5377275943756104 2.1898036003112793 -0.3726157546043396 4456788 0 -1
-2.4676425457000732 1.0549930334091187 -0.31051313877105713 4456788 0 -1
-1.900899052619934 1.9125494956970215 -0.1656070053577423 4456788 0 -1
-1.5847694873809814 2.168686866760254 -0.28981226682662964 4456788 0 -1
-1.4676464796066284 2.2635600566864014 -0.14490613341331482 4456788 0 -1
-1.3245059251785278 2.353830099105835 0.062102627009153366 4456788 0 -1
-2.0114009380340576 1.768929362297058 -0.3519148826599121 4456788 0 -1
-1.5819430351257324 2.1648192405700684 -0.3312140107154846 4456788 0 -1
-1.3863071203231812 2.3173227310180664 -0.08280350267887115 4456788 0 -1
-1.5936274528503418 2.137769937515259 -0.43471840023994446 4456788 0 -1
-1.4069981575012207 2.3048183917999268 -0.08280350267887115 4456788 0 -1
-1.6888697147369385 2.0492868423461914 -0.49682101607322693 4456788 0 -1
-1.8810679912567139 1.9337202310562134 -0.14490613341331482 4456788 0 -1
-1.7996540069580078 2.012267589569092 -0.10350438207387924 4456788 0 -1
-2.04803204536438 1.7174270153045654 -0.3933166265487671 4456788 0 -1
-1.5787336826324463 2.1604273319244385 -0.3726157546043396 4456788 0 -1
-1.5787336826324463 2.1604273319244385 -0.3726157546043396 4456788 0 -1
-1.7181222438812256 2.0847818851470947 -0.02070087566971779 4456788 0 -1
-1.9979979991912842 1.798408031463623 -0.26911139488220215 4456788 0 -1
-1.5787336826324463 2.1604273319244385 -0.3726157546043396 4456788 0 -1
-1.996397852897644 1.7969677448272705 -0.28981226682662964 4456788 0 -1
-1.690280795097351 2.0928285121917725 0.24841050803661346 4456788 0 -1
-1.2161777019500732 2.3995609283447266 0.24841050803661346 4456788 0 -1
-1.5803864002227783 2.162688970565796 -0.3519148826599121 4456788 0 -1
-1.564188003540039 2.1835780143737793 -0.28981226682662964 4456788 0 -1
-1.6527748107910156 2.0879695415496826 -0.45541927218437195 4456788 0 -1
-1.4883174896240234 2.2500226497650146 -0.14490613341331482 4456788 0 -1
-1.5690186023712158 2.147132635116577 -0.47612014412879944 4456788 0 -1
-1.5527652502059937 2.1676321029663086 -0.43471840023994446 4523353 0 -1
-1.508988618850708 2.2362120151519775 -0.14490613341331482 4590430 0 -1
-1.6589059829711914 2.095715045928955 -0.3933166265487671 4657508 0 -1
-1.63448965549469 2.10669207572937 -0.43471840023994446 4536450 0 -1
-1.5047621726989746 2.2299487590789795 -0.24841050803661346 4536450 0 -1
-1.365615963935852 2.329576253890991 -0.08280350267887115 4536450 0 -1
-1.5422766208648682 2.196281671524048 -0.31051313877105713 4471684 0 -1
-1.366097331047058 2.330397367477417 -0.04140175133943558 4471684 0 -1
-1.5872149467468262 2.1720335483551025 -0.24841050803661346 3238030 0 -1
-1.9994785785675049 1.7997406721115112 -0.24841050803661346 2458766 0 -1
-1.344924807548523 2.341582775115967 0.08280350267887115 2458766 0 -1
-2.148554563522339 1.585945963859558 -0.5866079330444336 4456788 0 -1
-1.4231128692626953 2.3312160968780518 -0.12570171058177948 4456788 0 -1
-1.6128277778625488 2.1635260581970215 -0.4399559497833252 4456788 0 -1
-1.82262122631073 2.0379481315612793 -0.020950283855199814 4456788 0 -1
-1.2985743284225464 2.405280590057373 0.06285085529088974 4456788 0 -1
-2.018709897994995 1.8170509338378906 -0.3142542541027069 4456788 0 -1
-1.8221930265426636 2.0374696254730225 0.06285085529088974 4456788 0 -1
-1.423949956893921 2.332587242126465 -0.08380113542079926 4456788 0 -1
-2.056406259536743 1.7663427591323853 -0.35615482926368713 4456788 0 -1
-1.9437378644943237 1.913622498512268 -0.18855255842208862 4456788 0 -1
-1.5977545976638794 2.1864564418792725 -0.37710511684417725 4456788 0 -1
-2.097949981689453 1.7167935371398926 -0.35615482926368713 4456788 0 -1
-1.7116566896438599 2.076936721801758 -0.4818565249443054 4456788 0 -1
-1.563456416130066 2.226442813873291 -0.2723536789417267 4456788 0 -1
-1.4448904991149902 2.319674253463745 -0.08380113542079926 4456788 0 -1
-1.6861087083816528 2.087662696838379 -0.5237571001052856 4456788 0 -1
-1.58792245388031 2.173001766204834 -0.4818565249443054 4456788 0 -1
-1.569435477256775 2.190903425216675 -0.4609062373638153 4523353 0 -1
-2.1187217235565186 1.6910920143127441 -0.35615482926368713 4590430 0 -1
-1.5277535915374756 2.2640204429626465 -0.12570171058177948 4590430 0 -1
-1.3817036151885986 2.3570199012756348 0.10475142300128937 4590430 0 -1
-1.6602592468261719 2.0974247455596924 -0.5656576752662659 4657508 0 -1
-2.147648572921753 1.6281250715255737 -0.4609062373638153 4536450 0 -1
-1.6374386548995972 2.1531295776367188 -0.39805540442466736 4536450 0 -1
-1.5055837631225586 2.276125431060791 -0.1676022708415985 4536450 0 -1
-2.1034817695617676 1.6789278984069824 -0.4818565249443054 4471684 0 -1
-1.9803781509399414 1.865354061126709 -0.2723536789417267 4471684 0 -1
-1.5217642784118652 2.2551445960998535 -0.2723536789417267 4471684 0 -1
-1.3825563192367554 2.3584744930267334 -0.04190056771039963 4471684 0 -1
-2.1756930351257324 1.6493855714797974 0.1466519832611084 3238030 0 -1
-1.6965246200561523 2.1432392597198486 0.06285085529088974 3238030 0 -1
-1.5786553621292114 2.2037742137908936 0.35615482926368713 3238030 0 -1
-1.129187822341919 2.4844443798065186 0.1676022708415985 3238030 0 -1
-1.7794667482376099 2.1158764362335205 0.1059984639286995 4456788 0 -1
-1.689940333366394 2.1781623363494873 0.23319661617279053 4456788 0 -1
-0.618959367275238 2.6205105781555176 -0.6359907388687134 4456788 0 -1
-0.0399169884622097 2.604416608810425 0.9327864646911621 4456788 0 -1
2.3433752059936523 1.2573010921478271 0.763188898563385 4456788 0 -1
-1.8611315488815308 2.038248300552368 -0.19079722464084625 4456788 0 -1
-1.6064398288726807 2.242560863494873 0.211996927857399 4456788 0 -1
-1.8430191278457642 2.060755968093872 -0.1059984639286995 4456788 0 -1
-2.37262225151062 1.419189214706421 -0.1059984639286995 4456788 0 -1
-1.884777545928955 2.021411657333374 -0.12719815969467163 4456788 0 -1
-1.6200621128082275 2.2169835567474365 0.3391950726509094 4456788 0 -1
-1.9601943492889404 1.9298239946365356 -0.29679569602012634 4456788 0 -1
-1.1381773948669434 2.504223346710205 0.29679569602012634 4456788 0 -1
-2.0023491382598877 1.8860489130020142 -0.29679569602012634 4456788 0 -1
-1.9263949394226074 1.980315923690796 -0.14839784801006317 4456788 0 -1
-1.712126612663269 2.162949323654175 0.211996927857399 4456788 0 -1
-1.398152470588684 2.3850796222686768 -0.1059984639286995 4456788 0 -1
-1.8231199979782104 2.0809743404388428 -0.02119969204068184 4456788 0 -1
-1.7213693857192993 1.9648326635360718 -0.9115867614746094 4456788 0 -1
-1.585958480834961 2.2139692306518555 -0.4875929057598114 4456788 0 -1
-1.8014976978302002 2.0988643169403076 -0.06359907984733582 4523353 0 -1
-1.843885898590088 2.06172513961792 0.06359907984733582 4590430 0 -1
-1.9052257537841797 2.0006906986236572 -0.14839784801006317 4728182 0 -1
-1.7365366220474243 2.1501004695892334 0.12719815969467163 4728182 0 -1
-2.28896164894104 1.552829623222351 0.06359907984733582 4664956 0 -1
-1.944637656211853 1.9565562009811401 -0.211996927857399 4664956 0 -1
-1.7147032022476196 2.1662044525146484 0.14839784801006317 4664956 0 -1
-1.801973819732666 2.099419116973877 0 3887499 0 -1
-2.293975591659546 1.6019223928451538 0.08579640090465546 4456788 0 -1
-1.9069514274597168 2.0451929569244385 -0.1286945939064026 4456788 0 -1
-2.5547187328338623 1.0324136018753052 -0.49332931637763977 4456788 0 -1
-2.457869052886963 1.3187310695648193 -0.2359400987625122 4456788 0 -1
-1.177482008934021 2.5337584018707275 0.1715928018093109 4456788 0 -1
2.280244827270508 1.5469160079956055 -0.49332931637763977 4456788 0 -1
-2.5119009017944336 1.186767816543579 -0.3431856036186218 4456788 0 -1
-1.9498041868209839 2.004380464553833 -0.1286945939064026 4456788 0 -1
-1.7794389724731445 2.159183979034424 0.08579640090465546 4456788 0 -1
-1.5933080911636353 2.2689530849456787 0.38608381152153015 4456788 0 -1
-1.844406008720398 2.105271100997925 -0.04289820045232773 4456788 0 -1
-1.844406008720398 2.105271100997925 -0.04289820045232773 4456788 0 -1
-1.9301923513412476 2.0269081592559814 -0.04289820045232773 4523353 0 -1
-1.821834921836853 2.12255859375 -0.10724549740552902 4523353 0 -1
-1.8658525943756104 2.086287021636963 0.04289820045232773 4590430 0 -1
-2.0259060859680176 1.9082378149032593 -0.3002873957157135 4728182 0 -1
-1.7348761558532715 2.1916892528533936 0.15014369785785675 4728182 0 -1
-2.316502809524536 1.5715134143829346 0 4664956 0 -1
-1.7583614587783813 2.1771228313446045 0.0643472969532013 4664956 0 -1
-1.8658525943756104 2.129750967025757 -0.04339701682329178 4456788 0 -1
-1.8441566228866577 2.1485648155212402 -0.04339701682329178 4456788 0 -1
-1.9297493696212769 2.069643497467041 -0.10849253833293915 4523353 0 -1
-1.9297493696212769 2.069643497467041 -0.10849253833293915 4523353 0 -1
-2.0458219051361084 2.432586193084717 -0.2688619792461395 4456788 0 -1
-2.0422027111053467 2.528562307357788 -0.17458570003509521 4456788 0 -1
-1.989395260810852 2.51322603225708 0.7305164337158203 4456788 0 -1
-1.915713906288147 2.5698325634002686 0.7305164337158203 4456788 0 -1
-1.9820092916488647 2.5038952827453613 0.7808969020843506 4456788 0 -1
-2.013955593109131 2.4935879707336426 0.7305164337158203 4456788 0 -1
-1.9190831184387207 2.5743520259857178 0.7053261995315552 4456788 0 -1
-1.9648348093032837 2.532473564147949 0.7305164337158203 4523353 0 -1
-2.0102829933166504 2.4890406131744385 0.7557066679000854 4590430 0 -1
-2.0038223266601562 2.634901285171509 -0.25439631938934326 4456788 0 -1
-2.0111303329467773 2.592144012451172 -0.5087926387786865 4456788 0 -1
-2.115586042404175 2.4647982120513916 -0.6868700385093689 4456788 0 -1
-1.9653270244598389 2.636385917663574 -0.457913339138031 4456788 0 -1
-1.9198074340820312 2.5753235816955566 0.8395078182220459 4523353 0 -1
-1.8492258787155151 2.7404189109802246 -0.305275559425354 4523353 0 -1
-2.074012041091919 2.5679471492767334 -0.35615482926368713 4590430 0 -1
-1.8175246715545654 2.6403021812438965 0.8649474382400513 4536450 0 -1
-1.1921473741531372 3.088169813156128 -0.25439631938934326 4536450 0 -1
-1.9911398887634277 2.566378116607666 0.6868700385093689 4212104 0 -1
-2.600515365600586 2.075643301010132 -0.41102463006973267 4456788 0 -1
-1.870835304260254 2.772442579269409 -0.23120135068893433 4456788 0 -1
-2.484719753265381 2.185190439224243 -0.539469838142395 4456788 0 -1
-1.6182193756103516 2.9357526302337646 -0.05137807875871658 4456788 0 -1
-1.985527515411377 2.610844850540161 -0.693604052066803 4456788 0 -1
-1.8611531257629395 2.758094310760498 -0.41102463006973267 4456788 0 -1
-1.9470953941345215 2.6645140647888184 -0.590847909450531 4456788 0 -1
-1.791833758354187 2.819467544555664 -0.2825794219970703 4456788 0 -1
-2.010038375854492 2.6430749893188477 -0.46240270137786865 4456788 0 -1
-1.901571273803711 2.7079358100891113 -0.539469838142395 4456788 0 -1
-1.7450075149536133 2.8585150241851807 -0.15413422882556915 4456788 0 -1
-1.8491220474243164 2.795482873916626 -0.07706711441278458 4456788 0 -1
-1.8441729545593262 2.78800106048584 -0.2568903863430023 4456788 0 -1
-1.9440960884094238 2.7139229774475098 -0.3082684576511383 4523353 0 -1
-1.8487417697906494 2.794908046722412 -0.10275615751743317 4590430 0 -1
-1.9454195499420166 2.7157702445983887 -0.2825794219970703 4657508 0 -1
-1.9454195499420166 2.7157702445983887 -0.2825794219970703 4657508 0 -1
-1.8143579959869385 2.6887471675872803 0.8477382659912109 4536450 0 -1
-1.66703200340271 2.7307825088500977 1.0018725395202637 4536450 0 -1
-1.2045104503631592 3.120195150375366 -0.23120135068893433 4536450 0 -1
-2.5877950191497803 1.8071014881134033 -1.1303176879882812 4471684 0 -1
-1.8133968114852905 2.7968130111694336 -0.3596465289592743 4471684 0 -1
-2.6231791973114014 2.0937328338623047 -0.4409535825252533 4456788 0 -1
-1.86405611038208 2.8180601596832275 -0.20750758051872253 4456788 0 -1
-2.49198317527771 2.243046522140503 -0.4668920338153839 4456788 0 -1
-1.8362153768539429 2.8320062160491943 -0.2593844532966614 4456788 0 -1
-1.6341221332550049 2.9646031856536865 0 4456788 0 -1
-1.9049654006958008 2.767326593399048 -0.41501516103744507 4456788 0 -1
-1.9993001222610474 2.6819591522216797 -0.5187689065933228 4456788 0 -1
-1.8620775938034058 2.8150689601898193 -0.2593844532966614 4456788 0 -1
-2.379321336746216 2.393903970718384 -0.2593844532966614 4456788 0 -1
-1.880958080291748 2.7874438762664795 -0.38907670974731445 4456788 0 -1
-1.7114851474761963 2.9195873737335205 -0.07781533896923065 4456788 0 -1
-1.55406653881073 3.0018556118011475 0.18156912922859192 4456788 0 -1
-1.9456335306167603 2.716068983078003 -0.5447073578834534 4456788 0 -1
-1.8092302083969116 2.8468410968780518 -0.285322904586792 4456788 0 -1
-2.0038628578186035 2.688079595565796 -0.4668920338153839 4456788 0 -1
-1.811368703842163 2.850205898284912 -0.23344601690769196 4456788 0 -1
-1.6340742111206055 2.9645161628723145 0.025938447564840317 4456788 0 -1
-2.0621049404144287 2.605081081390381 -0.6484611630439758 4456788 0 -1
-1.9175432920455933 2.7306809425354004 -0.570645809173584 4456788 0 -1
-1.7619493007659912 2.88626766204834 -0.1556306779384613 4456788 0 -1
-1.866690754890442 2.8220431804656982 -0.10375379025936127 4456788 0 -1
-1.8609224557876587 2.8133227825164795 -0.285322904586792 4456788 0 -1
-2.8531453609466553 1.821569561958313 -0.025938447564840317 4523353 0 -1
-1.9629708528518677 2.74027156829834 -0.3112613558769226 4523353 0 -1
-1.8259384632110596 2.8161561489105225 -0.4409535825252533 4523353 0 -1
-1.8661969900131226 2.8212966918945312 -0.1296922266483307 4590430 0 -1
-1.9629708528518677 2.74027156829834 -0.3112613558769226 4657508 0 -1
-1.856791377067566 2.807077407836914 -0.36313825845718384 4657508 0 -1
-2.6253585815429688 1.990275502204895 0.7781534194946289 4726897 0 -1
-2.3949368000030518 2.1556947231292725 1.0375378131866455 4726897 0 -1
-1.8610913753509521 2.6502902507781982 0.985660970211029 4726897 0 -1
-2.637338876724243 1.789168357849121 -1.141291618347168 4471684 0 -1
-1.8551914691925049 2.8046586513519287 -0.38907670974731445 4471684 0 -1
-1.8733323812484741 2.7761430740356445 -0.4928304851055145 4147337 0 -1
-1.87881600856781 2.840373992919922 -0.28806641697883606 4456788 0 -1
-1.8799822330474854 2.842137098312378 -0.2618785500526428 4456788 0 -1
-1.6232179403305054 3.0066006183624268 0.07856356352567673 4456788 0 -1
-2.625605344772339 2.0956692695617676 -0.6285085082054138 4456788 0 -1
-1.9282629489898682 2.801170825958252 -0.34044212102890015 4456788 0 -1
-1.881036639213562 2.843731164932251 -0.23569069802761078 4456788 0 -1
-2.4283103942871094 2.3906872272491455 -0.2618785500526428 4456788 0 -1
-1.9690717458724976 2.748788356781006 -0.4975692331790924 4456788 0 -1
-1.7279417514801025 2.947660446166992 -0.07856356352567673 4456788 0 -1
-1.9760431051254272 2.704127788543701 -0.6808842420578003 4456788 0 -1
-1.8514610528945923 2.8555197715759277 -0.3142542541027069 4456788 0 -1
-1.9408886432647705 2.763925790786743 -0.5237571001052856 4456788 0 -1
-1.7782107591629028 2.91290545463562 -0.1833149790763855 4456788 0 -1
-1.9926457405090332 2.7268476486206055 -0.5237571001052856 4456788 0 -1
-1.8287856578826904 2.8776116371154785 -0.23569069802761078 4456788 0 -1
-1.973319172859192 2.7547178268432617 -0.4451935291290283 4456788 0 -1
-2.805953025817871 1.6783870458602905 -0.9951384663581848 4456788 0 -1
-1.9333471059799194 2.7531862258911133 -0.602320671081543 4456788 0 -1
-2.9047176837921143 1.7961419820785522 0.1309392750263214 4456788 0 -1
-1.884141206741333 2.8484246730804443 -0.1309392750263214 4456788 0 -1
-1.8799822330474854 2.842137098312378 -0.2618785500526428 4456788 0 -1
-2.8776180744171143 1.8371939659118652 0.15712712705135345 4523353 0 -1
-1.9831947088241577 2.7685036659240723 -0.28806641697883606 4523353 0 -1
-2.9244167804718018 1.74924635887146 0.2618785500526428 4590430 0 -1
-2.8503670692443848 1.876821517944336 0.1833149790763855 4590430 0 -1
-1.8835318088531494 2.847503423690796 -0.15712712705135345 4590430 0 -1
-1.9818456172943115 2.766620397567749 -0.3142542541027069 4657508 0 -1
-2.4491374492645264 2.153897523880005 1.0213263034820557 4726897 0 -1
-1.8921395540237427 2.694504499435425 0.9165748953819275 4726897 0 -1
-1.90361487865448 2.821019411087036 -0.3142542541027069 4536450 0 -1
-1.8730299472808838 2.8316266536712646 -0.39281782507896423 4471684 0 -1
-1.912648320198059 2.77848744392395 -0.5499449372291565 4147337 0 -1
-2.574122905731201 2.15859317779541 -0.6285085082054138 2912910 0 -1
-1.908961534500122 2.8289427757263184 -0.1833149790763855 2912910 0 -1
-1.8061130046844482 2.899592876434326 -0.10475142300128937 2912910 0 -1
3.140861988067627 0.8475592136383057 1.0475142002105713 2912910 0 -1
-2.113513231277466 2.6700258255004883 -0.5551825165748596 4456788 0 -1
-2.756801128387451 1.8152130842208862 -1.0046160221099854 4456788 0 -1
-2.5736818313598633 2.263428211212158 -0.396558940410614 4456788 0 -1
-1.8690940141677856 2.8827152252197266 -0.3172471523284912 4456788 0 -1
-2.9578425884246826 1.7692400217056274 0.1586235761642456 4456788 0 -1
-2.846830129623413 1.9312870502471924 0.2643726170063019 4456788 0 -1
-2.9290175437927246 1.81116783618927 0.21149811148643494 4456788 0 -1
-1.8999032974243164 2.872253656387329 -0.21149811148643494 4456788 0 -1
-2.9539241790771484 1.766896367073059 0.2379353642463684 4523353 0 -1
-2.873189687728882 1.8918489217758179 0.2643726170063019 4523353 0 -1
-2.9259088039398193 1.8092454671859741 0.2643726170063019 4590430 0 -1
-2.804492712020874 1.8466155529022217 -0.793117880821228 4657508 0 -1
-2.028425455093384 2.775810480117798 -0.29080989956855774 4657508 0 -1
-2.03261399269104 2.672760486602783 -0.793117880821228 4536450 0 -1
-1.9308639764785767 2.8049492835998535 -0.5551825165748596 4536450 0 -1
-2.810102939605713 1.9063712358474731 -0.7739134430885315 4456788 0 -1
-2.9242427349090576 1.7491421699523926 -0.7205401062965393 4456788 0 -1
-2.992845058441162 1.729286551475525 0.4269867241382599 4523353 0 -1
-2.810102939605713 1.9063712358474731 -0.7739134430885315 4523353 0 -1
-2.9398744106292725 1.8178812265396118 0.4269867241382599 4590430 0 -1
-3.227428913116455 0.9685103297233582 0.8806601762771606 4726897 0 -1
-2.59661602973938 2.124861717224121 0.9340335130691528 4729209 0 -1
-2.3328638076782227 2.554873466491699 -0.4003000557422638 4729209 0 -1
-2.198284387588501 2.667414426803589 -0.4269867241382599 4729209 0 -1
-2.8330061435699463 1.9219087362289429 0.640480101108551 4536450 0 -1
-2.584224224090576 2.0626401901245117 1.0941535234451294 4536450 0 -1
0.501644492149353 3.408977508544922 -0.5070467591285706 4536450 0 -1
2.8287041187286377 2.0316476821899414 -0.026686670258641243 4536450 0 -1
3.1643574237823486 1.2787809371948242 0.6938534379005432 4536450 0 -1
-3.0262129306793213 1.7485666275024414 -0.37710511684417725 4456788 0 -1
-2.9644298553466797 1.833065152168274 -0.457913339138031 4456788 0 -1
-3.1724801063537598 1.4988638162612915 -0.21548862755298615 4590430 0 -1
-2.9968478679656982 1.7925711870193481 -0.40404120087623596 4590430 0 -1
-3.0742814540863037 1.6494574546813965 -0.4309772551059723 4657508 0 -1
-2.970263957977295 2.4306252002716064 0.14715079963207245 4456788 0 -1
-2.8791697025299072 2.4730522632598877 -0.5886031985282898 4456788 0 -1
-3.045513868331909 2.308793783187866 -0.3825920820236206 4523353 0 -1
-2.8679823875427246 2.4634430408477783 -0.6768937110900879 4523353 0 -1
-3.435131311416626 1.6975793838500977 0.2648714482784271 4664956 0 -1
-2.599525213241577 2.7879738807678223 0.4708825647830963 4536450 0 -1
-3.172355890274048 2.215310573577881 -0.17807741463184357 4456788 0 -1
-3.0569956302642822 2.37864089012146 0 4456788 0 -1
-3.3841135501861572 1.7445757389068604 0.7123096585273743 4456788 0 -1
3.5486204624176025 0.8396844863891602 -1.305901050567627 4456788 0 -1
-2.9327516555786133 2.519076347351074 0.23743654787540436 4456788 0 -1
-2.9689877033233643 2.4295806884765625 0.5342322587966919 4456788 0 -1
-2.8838627338409424 2.477083444595337 0.7419891953468323 4456788 0 -1
-2.955383777618408 2.478308916091919 0.35615482926368713 4456788 0 -1
-2.942668914794922 2.467646598815918 0.5045526623725891 4523353 0 -1
-3.018415927886963 2.4091973304748535 0.29679569602012634 4536450 0 -1
-3.7099461555480957 1.1133075952529907 0 8705099 0 -1
-3.4873528480529785 1.6476279497146606 0.35615482926368713 8705099 0 -1
-2.7044243812561035 2.7209994792938232 0.5342322587966919 8705099 0 -1
-3.2155237197875977 2.0529274940490723 0.8380113840103149 4456788 0 -1
-3.3922150135040283 1.8904176950454712 -0.41900569200515747 4456788 0 -1
-3.2308108806610107 2.191779136657715 -0.11971590667963028 4456788 0 -1
-3.076887369155884 2.394118547439575 0.23943181335926056 4456788 0 -1
-2.918452024459839 2.566636800765991 0.38907670974731445 4456788 0 -1
-2.664613723754883 2.7391977310180664 0.8080824017524719 4456788 0 -1
-3.0696253776550293 2.388468027114868 0.35914772748947144 4456788 0 -1
-2.9260571002960205 2.5733251571655273 0.2693607807159424 4456788 0 -1
-3.026745319366455 2.4158456325531006 0.5087926387786865 4456788 0 -1
-2.9575445652008057 2.480120897293091 0.5985795259475708 4456788 0 -1
-2.9756271839141846 2.4952845573425293 0.41900569200515747 4456788 0 -1
-2.9730632305145264 2.4931344985961914 0.4489346444606781 4523353 0 -1
-3.6460790634155273 1.3851292133331299 0.20950284600257874 2912910 0 -1
-3.29957914352417 1.973650574684143 0.6883664727210999 2912910 0 -1
-2.5139548778533936 2.869518280029297 0.8380113840103149 2912910 0 -1
-3.4752745628356934 1.717417597770691 0.4788636267185211 2468738 0 -1
-3.1806979179382324 2.094327449798584 0.8679403066635132 2468738 0 -1
-2.543186902999878 2.8436427116394043 0.8380113840103149 2468738 0 -1
-3.710757255554199 1.2178113460540771 0.05985795333981514 8705099 0 -1
-3.516658306121826 1.6614736318588257 0.35914772748947144 8705099 0 -1
-2.7271506786346436 2.7438650131225586 0.5387215614318848 8705099 0 -1
-3.2476675510406494 2.2032148838043213 0.3319622278213501 4456788 0 -1
-2.3314173221588135 3.1274774074554443 0.5432109236717224 4456788 0 -1
-1.8531779050827026 3.4325432777404785 0.5432109236717224 4456788 0 -1
2.171494960784912 3.217998504638672 -0.6639244556427002 4456788 0 -1
-3.39047908782959 1.9590421915054321 -0.42249739170074463 4456788 0 -1
-3.227570056915283 2.2538676261901855 -0.12071353942155838 4456788 0 -1
-2.946957588195801 2.5917062759399414 0.3319622278213501 4456788 0 -1
-2.3514249324798584 3.1543166637420654 0.18107031285762787 4456788 0 -1
3.7311179637908936 1.224493384361267 -0.30178385972976685 4456788 0 -1
-3.1038992404937744 2.4151363372802734 0.21124869585037231 4456788 0 -1
-2.9504408836364746 2.5947694778442383 0.2716054618358612 4456788 0 -1
-2.7069320678710938 2.782700777053833 0.6639244556427002 4456788 0 -1
-3.0877740383148193 2.4025893211364746 0.45267578959465027 4456788 0 -1
-2.948786973953247 2.5933148860931396 0.30178385972976685 4456788 0 -1
-3.054974317550659 2.4383771419525146 0.4828541576862335 4456788 0 -1
-2.985685110092163 2.503718852996826 0.5733892917633057 4456788 0 -1
-3.0004241466522217 2.516078472137451 0.42249739170074463 4456788 0 -1
-3.035104513168335 2.4836854934692383 0.36214062571525574 4523353 0 -1
-3.069145441055298 2.449688196182251 0.30178385972976685 4590430 0 -1
-2.948727607727051 2.532799005508423 0.6337460875511169 4725613 0 -1
-3.677870035171509 1.397206425666809 0.18107031285762787 2912910 0 -1
-3.3955047130584717 1.8922510147094727 0.6337460875511169 2912910 0 -1
-2.4917449951171875 2.903048515319824 0.9355299472808838 2912910 0 -1
-3.704960823059082 1.3140312433242798 0.24142707884311676 2468738 0 -1
-3.4708657264709473 1.789298176765442 0.5130325555801392 2468738 0 -1
-3.2366275787353516 2.0664010047912598 0.8751731514930725 2468738 0 -1
-2.779766798019409 2.7366983890533447 0.5432109236717224 2468738 0 -1
-2.564380168914795 2.867339849472046 0.8449947834014893 2468738 0 -1
-3.348206043243408 1.8658922910690308 0.9053515791893005 2994813 0 -1
-3.110333204269409 2.1100473403930664 1.1769570112228394 2994813 0 -1
3.5913138389587402 1.2737243175506592 0.9958866834640503 2994813 0 -1
-3.7393722534179688 1.227202296257019 0.15089192986488342 8705099 0 -1
-3.5007870197296143 1.730025291442871 0.5130325555801392 8705099 0 -1
-2.815368413925171 2.711503505706787 0.4828541576862335 8705099 0 -1
-2.0803465843200684 3.2734451293945312 0.8519781827926636 4456788 0 -1
-3.0806121826171875 2.397016763687134 0.7302670478820801 4456788 0 -1
-2.4369773864746094 3.0173540115356445 0.8519781827926636 4456788 0 -1
-3.0705676078796387 2.4508230686187744 0.5781280994415283 4456788 0 -1
-3.156956911087036 2.393278121948242 0.27385014295578003 4456788 0 -1
-2.9866855144500732 2.5654025077819824 0.5172724723815918 4456788 0 -1
-2.767263889312744 2.6651735305786133 1.0041171312332153 4456788 0 -1
-2.811432361602783 2.7077126502990723 0.7302670478820801 4456788 0 -1
-2.811432361602783 2.7077126502990723 0.7302670478820801 4523353 0 -1
-2.8830034732818604 2.655021905899048 0.6389836668968201 4590430 0 -1
-3.6460790634155273 1.558810830116272 0.2129945456981659 4664956 0 -1
-3.476006507873535 1.8649967908859253 0.45641690492630005 4664956 0 -1
-2.912480354309082 2.6821677684783936 0.3042779266834259 4664956 0 -1
-2.9593100547790527 2.602569580078125 -0.7055756449699402 4456788 0 -1
-2.1397626399993896 3.3669369220733643 -0.33744922280311584 4456788 0 -1
-2.25506854057312 3.275918483734131 -0.46015802025794983 4456788 0 -1
-3.1224277019500732 2.429553270339966 -0.6135440468788147 4456788 0 -1
-2.781163454055786 2.6196281909942627 1.196410894393921 4456788 0 -1
-3.2330188751220703 2.3220369815826416 -0.42948082089424133 4456788 0 -1
-2.1783885955810547 3.102138042449951 1.2884424924850464 4456788 0 -1
-2.883012533187866 2.5354695320129395 1.135056495666504 4523353 0 -1
-2.825368642807007 2.6612658500671387 0.9816704392433167 4523353 0 -1
-3.1098742485046387 2.295539617538452 1.0430248975753784 4590430 0 -1
-1.747441291809082 3.3753809928894043 -1.257765293121338 4536450 0 -1
-3.1311140060424805 2.436312198638916 -0.7422386407852173 4456788 0 -1
-2.9800004959106445 2.6823132038116455 -0.4638991355895996 4456788 0 -1
-2.4418883323669434 3.1473472118377686 -0.6494588255882263 4456788 0 -1
-2.1879756450653076 3.374528408050537 -0.3401927053928375 4456788 0 -1
-2.954188108444214 2.7205774784088135 -0.40204593539237976 4456788 0 -1
-2.2713048458099365 3.2995047569274902 -0.4948257505893707 4456788 0 -1
-2.1020214557647705 3.443343162536621 -0.12370643764734268 4456788 0 -1
-2.1020214557647705 3.443343162536621 -0.12370643764734268 4456788 0 -1
-2.318406105041504 3.301530122756958 0.12370643764734268 4456788 0 -1
-2.319427728652954 3.3029849529266357 -0.03092660941183567 4456788 0 -1
-2.294782876968384 3.2678894996643066 -0.5876055955886841 4523353 0 -1
-2.319223403930664 3.3026938438415527 0.06185321882367134 4590430 0 -1
-2.2892701625823975 3.2600390911102295 -0.6494588255882263 4657508 0 -1
-1.8536344766616821 3.580505132675171 0.18555966019630432 4536450 0 -1
-2.4440853595733643 3.150179386138916 -0.8105764389038086 4456788 0 -1
-2.359339952468872 3.293595790863037 -0.37411221861839294 4456788 0 -1
-2.333804130554199 3.323457717895508 0.24940814077854156 4456788 0 -1
-2.2740097045898438 3.303434133529663 -0.6858723759651184 4523353 0 -1
-3.1992292404174805 2.106529474258423 -1.3717447519302368 4590430 0 -1
-2.336484670639038 3.327275037765503 0.15588009357452393 4590430 0 -1
-2.961021661758423 2.6652302742004395 0.9741882085800171 4456788 0 -1
-2.9766385555267334 2.8037497997283936 0.3142542541027069 4456788 0 -1
-3.3286495208740234 2.390721321105957 -0.15712712705135345 4456788 0 -1
-3.36094069480896 2.3470025062561035 -0.12570171058177948 4523353 0 -1
-3.420440673828125 2.252185821533203 -0.2199779748916626 4590430 0 -1
-3.328925132751465 2.3909194469451904 -0.5384721755981445 4456788 0 -1
-2.820049524307251 2.89898419380188 0.8552204966545105 4456788 0 -1
-3.3210699558258057 2.451432943344116 -0.22172383964061737 4456788 0 -1
-1.9792786836624146 4.354818344116211 0.1099889874458313 3757452 4 -1
-1.9783482551574707 4.352771282196045 0.1833149790763855 3432845 4 -1
-1.9777084589004517 4.351363658905029 0.2199779748916626 3302798 4 -1
-1.9410841464996338 4.367824077606201 0.2199779748916626 2782862 4 -1
-1.9792786836624146 4.354818344116211 0.1099889874458313 2718350 4 -1
-2.0473392009735107 4.309707164764404 -0.6644232869148254 4726897 0 -1
-2.086080312728882 4.2966413497924805 -0.6275109052658081 4728182 0 -1
-1.9930357933044434 4.385087013244629 0.07382480800151825 4212104 4 -1
-1.9563000202178955 4.402062892913818 -0.036912404000759125 3887499 4 -1
-1.9535412788391113 4.395854949951172 0.2583868205547333 3302798 4 -1
-2.026364326477051 4.360421657562256 0.295299232006073 2912910 4 -1
-1.8824774026870728 4.434134006500244 0.036912404000759125 2912910 4 -1
-1.9558404684066772 4.401028633117676 0.11073721200227737 2458766 4 -1
-1.9194450378417969 4.418411731719971 0 2264205 4 -1
-1.9192196130752563 4.4178924560546875 0.07382480800151825 2072968 4 -1
-1.9563000202178955 4.402062892913818 0.036912404000759125 2271109 4 -1
-1.9189378023147583 4.417243957519531 -0.11073721200227737 2994813 4 -1
-1.8455660343170166 4.449624061584473 -0.036912404000759125 4505456 4 -1
-1.9193886518478394 4.4182820320129395 0.036912404000759125 4899181 4 -1
-1.8789924383163452 4.425925254821777 -0.295299232006073 10016830 4 -1
-2.0722455978393555 4.362135410308838 -0.4459417462348938 4726897 4 -1
-2.0284812450408936 4.364976406097412 -0.5945889949798584 4728182 4 -1
-2.1041855812072754 4.333932399749756 -0.557427167892456 4729209 4 -1
-1.9047597646713257 4.384606838226318 -0.8175598978996277 4729209 0 -1
-1.9693448543548584 4.431416034698486 0.0743236243724823 3887499 4 -1
-2.043839693069458 4.398025989532471 0.03716181218624115 3302798 4 -1
-2.0805115699768066 4.379535675048828 -0.11148543655872345 3238030 4 -1
-1.8601539134979248 4.381551742553711 -0.9290453195571899 3107982 0 -1
-1.7719457149505615 4.480041980743408 0.557427167892456 3107982 4 -1
-1.9315063953399658 4.446176052093506 0.1486472487449646 2977934 4 -1
-1.9315063953399658 4.446176052093506 0.1486472487449646 2458766 4 -1
-1.9321873188018799 4.4477434158325195 0.0743236243724823 2264205 4 -1
-1.8575996160507202 4.478636741638184 0.11148543655872345 2199437 4 -1
-1.9321873188018799 4.4477434158325195 0.0743236243724823 2072968 4 -1
-1.9690556526184082 4.430765628814697 0.11148543655872345 2271109 4 -1
-1.9693448543548584 4.431416034698486 0.0743236243724823 4045940 4 -1
-1.9324142932891846 4.448265552520752 0 4899181 4 -1
-1.969576120376587 4.431936740875244 0 5424489 4 -1
-1.9986817836761475 4.397509574890137 -0.7108132243156433 4523353 4 -1
-2.002993106842041 4.4069952964782715 -0.6359907388687134 4725613 4 -1
-2.087573289871216 4.3944010734558105 -0.4115234315395355 4726897 4 -1
-2.0473833084106445 4.405651092529297 -0.48634588718414307 4728182 4 -1
-2.1261703968048096 4.379213809967041 -0.37411221861839294 4729209 4 -1
-1.9267911911010742 4.435321807861328 -0.6734020113945007 4729209 4 -1
-2.092813014984131 4.405430793762207 -0.22446732223033905 4147337 4 -1
-2.0180697441101074 4.44016695022583 0.22446732223033905 3302798 4 -1
-1.9032953977584839 4.381236553192139 -1.0101029872894287 3107982 0 -1
-1.8225716352462769 4.499109268188477 0.5237571001052856 3107982 4 -1
-1.943326473236084 4.473384857177734 0.22446732223033905 2977934 4 -1
-1.899889588356018 4.4751482009887695 0.4489346444606781 2782862 4 -1
-1.9769654273986816 4.448564052581787 0.37411221861839294 2588302 4 -1
-1.9059548377990723 4.489434719085693 0.22446732223033905 2523534 4 -1
-1.9813389778137207 4.458405494689941 0.18705610930919647 2458766 4 -1
-1.935707926750183 4.455847263336182 0.48634588718414307 2328718 4 -1
-2.0199687480926514 4.444344997406006 0.07482244074344635 2271109 4 -1
-2.0561065673828125 4.424421787261963 0.18705610930919647 2468738 4 -1
-2.0561065673828125 4.424421787261963 0.18705610930919647 2468738 4 -1
-2.019256830215454 4.442778587341309 0.1496448814868927 4045940 4 -1
-1.9451550245285034 4.477593898773193 0.07482244074344635 4899181 4 -1
-1.8667062520980835 4.200459003448486 -1.646093726158142 5424489 0 -1
-1.9747470617294312 4.443572044372559 -0.7155519723892212 4523353 4 -1
-2.1014904975891113 4.423696994781494 -0.4142669141292572 4726897 4 -1
-2.102794885635376 4.426442623138428 -0.376606285572052 4728182 4 -1
-2.070361375808716 4.455096244812012 -0.1506425142288208 4471684 4 -1
-2.108995199203491 4.439494609832764 0 4341894 4 -1
-1.953690528869629 4.497241973876953 -0.3389456570148468 4341894 4 -1
-2.0321810245513916 4.471214294433594 -0.188303142786026 4212104 4 -1
-2.0698139667510986 4.453917980194092 -0.188303142786026 4147337 4 -1
-1.9922597408294678 4.4829792976379395 -0.3012850284576416 4017546 4 -1
-1.9583526849746704 4.507974147796631 0 3238030 4 -1
-1.9574326276779175 4.505856037139893 -0.1506425142288208 2782862 4 -1
-1.9486126899719238 4.48555326461792 0.4895881712436676 2588302 4 -1
-1.994547963142395 4.488128185272217 0.188303142786026 2458766 4 -1
-1.7658356428146362 4.57426643371582 0.3389456570148468 2070155 4 -1
-2.033435106277466 4.473973751068115 0.0753212571144104 2271109 4 -1
-1.8453166484832764 4.555256366729736 -0.0376606285572052 2271109 4 -1
-1.9950755834579468 4.489315509796143 0.1506425142288208 2468738 4 -1
-1.9574326276779175 4.505856037139893 0.1506425142288208 2666112 4 -1
-2.070361375808716 4.455096244812012 0.1506425142288208 2994813 4 -1
-2.070361375808716 4.455096244812012 0.1506425142288208 2994813 4 -1
-1.8829761743545532 4.539819240570068 0.0376606285572052 3651704 4 -1
-1.9960134029388428 4.491425514221191 0 4505456 4 -1
-1.9555336236953735 4.5014848709106445 0.2636243999004364 4899181 4 -1
-1.985498309135437 4.467764854431152 -0.7582007646560669 4523353 4 -1
-1.7815625667572021 4.615005970001221 0.07582007348537445 4725613 4 -1
-2.160618305206299 4.450165748596191 -0.07582007348537445 4728182 4 -1
-2.004448652267456 4.510406494140625 -0.3411903381347656 4728182 4 -1
-2.04708194732666 4.503999710083008 0.037910036742687225 4471684 4 -1
-2.122401237487793 4.467714309692383 -0.11373011022806168 4341894 4 -1
-2.0466010570526123 4.502941608428955 -0.11373011022806168 4212104 4 -1
-2.122401237487793 4.467714309692383 -0.11373011022806168 4147337 4 -1
-2.0441951751708984 4.497648239135742 -0.26537024974823 3887499 4 -1
-2.0082881450653076 4.519046306610107 -0.1516401469707489 2782862 4 -1
-1.7337987422943115 4.6032867431640625 0.53074049949646 2782862 4 -1
-1.9252214431762695 4.534816741943359 0.4549204409122467 2588302 4 -1
-1.7387348413467407 4.616392135620117 0.37910038232803345 2588302 4 -1
-2.0828473567962646 4.481964111328125 0.22746022045612335 2139270 4 -1
-1.9329010248184204 4.552906036376953 0.11373011022806168 2139270 4 -1
-1.8909893035888672 4.559138298034668 0.3411903381347656 2271109 4 -1
-2.0063397884368896 4.514662265777588 0.26537024974823 2666112 4 -1
-1.8950010538101196 4.56881046295166 0.11373011022806168 3651704 4 -1
-1.9708009958267212 4.5366291999816895 0.11373011022806168 4505456 4 -1
-1.6785719394683838 4.687261581420898 0.11447833478450775 4724328 4 -1
-2.098214864730835 4.515032768249512 0.11447833478450775 4212104 4 -1
-1.9079163074493408 4.599948883056641 -0.03815944492816925 4212104 4 -1
-2.1366779804229736 4.497767925262451 -0.0763188898563385 4147337 4 -1
-2.136364221572876 4.49710750579834 -0.11447833478450775 3302798 4 -1
-1.9424718618392944 4.5754499435424805 -0.305275559425354 3302798 4 -1
-2.060368061065674 4.533231735229492 -0.0763188898563385 2977934 4 -1
-1.9433302879333496 4.577471733093262 -0.26711612939834595 2912910 4 -1
-2.06054949760437 4.533631324768066 0.03815944492816925 2782862 4 -1
-2.098769426345825 4.516226291656494 0 2718350 4 -1
-1.7871118783950806 4.62938117980957 0.41975390911102295 2718350 4 -1
-1.8953279256820679 4.56959867477417 0.5723916888237 2588302 4 -1
-2.0590972900390625 4.530435562133789 0.19079722464084625 2139270 4 -1
-1.8064686059951782 4.355360507965088 -1.6026967763900757 2271109 0 -1
-1.9814348220825195 4.561107158660889 0.26711612939834595 2468738 4 -1
-2.0176358222961426 4.540080547332764 0.34343501925468445 2666112 4 -1
-1.8631591796875 4.599301815032959 0.41975390911102295 2666112 4 -1
-1.9833589792251587 4.565536022186279 0.152637779712677 5424489 4 -1
-1.7659772634506226 4.688721656799316 0.1536354124546051 4590430 4 -1
-2.1487605571746826 4.425742149353027 -0.9602213501930237 4728182 0 -1
-2.074017286300659 4.563262939453125 -0.038408853113651276 2977934 4 -1
-2.1124870777130127 4.545743942260742 0 2912910 4 -1
-2.074017286300659 4.563262939453125 -0.038408853113651276 2782862 4 -1
-2.0735299587249756 4.562191009521484 -0.11522655934095383 2718350 4 -1
-2.0735299587249756 4.562191009521484 0.11522655934095383 2139270 4 -1
-1.950553297996521 4.594485282897949 0.4609062373638153 3257723 4 -1
-1.7637419700622559 4.4593000411987305 -1.4595364332199097 10672695 0 -1
-1.7356846332550049 4.388362407684326 1.6899895668029785 11197490 0 -1
-2.330298662185669 4.407458305358887 0.773165225982666 4725613 4 -1
-2.2997329235076904 4.442194938659668 0.6571904420852661 4726897 4 -1
-2.1824615001678467 4.495155334472656 0.6958487033843994 4728182 4 -1
-2.194186210632324 4.519304275512695 0.4638991355895996 4536450 4 -1
-2.124643325805664 4.571902751922607 -0.1932913064956665 2912910 4 -1
-2.124643325805664 4.571902751922607 -0.1932913064956665 2782862 4 -1
-2.0869944095611572 4.59181547164917 -0.1159747838973999 2718350 4 -1
-2.087301015853882 4.592489719390869 0.0773165225982666 2139270 4 -1
-2.045034885406494 4.601733684539795 0.3092660903930664 2271109 4 -1
-1.963219165802002 4.624320030212402 0.4638991355895996 4505456 4 -1
-1.9657750129699707 4.630340099334717 0.386582612991333 4899181 4 -1
-1.8160847425460815 4.704432964324951 0.1546330451965332 11197490 4 -1
-2.292248010635376 4.522685527801514 0.2723536789417267 4456788 4 -1
-2.2938671112060547 4.525879859924316 0.19453835487365723 4456788 4 -1
-2.209845542907715 4.5515570640563965 0.427984356880188 4728182 4 -1
-2.209845542907715 4.5515570640563965 0.427984356880188 4536450 4 -1
-2.1348273754119873 4.593817234039307 0.35016903281211853 3302798 4 -1
-2.1257402896881104 4.574263095855713 0.5836150646209717 2718350 4 -1
-2.123779058456421 4.570042610168457 0.6225227117538452 2264205 4 -1
-2.085164785385132 4.587789535522461 0.6225227117538452 2199437 4 -1
-1.7821708917617798 4.731716156005859 0.4668920338153839 2199437 4 -1
-2.056044101715088 4.626506805419922 0.38907670974731445 2271109 4 -1
-1.9396641254425049 4.676492691040039 0.38907670974731445 4505456 4 -1
-1.9795671701431274 4.662827014923096 0.35016903281211853 4899181 4 -1
-1.9821929931640625 4.669012069702148 0.23344601690769196 10016830 4 -1
-1.9821929931640625 4.669012069702148 0.23344601690769196 10016830 4 -1
-2.267841339111328 4.571284294128418 0.27409955859184265 4456788 4 -1
-2.3069419860839844 4.5516767501831055 0.27409955859184265 4456788 4 -1
-2.3078248500823975 4.5534186363220215 0.2349424660205841 4456788 4 -1
-2.2694430351257324 4.574512958526611 0.19578538835048676 4590430 4 -1
-2.1849935054779053 4.599472999572754 0.43072786927223206 3887499 4 -1
-2.1849935054779053 4.599472999572754 0.43072786927223206 3302798 4 -1
-2.137392997741699 4.599337577819824 0.6265132427215576 2718350 4 -1
-2.1105058193206787 4.643545150756836 0.3132566213607788 2264205 4 -1
-2.0692238807678223 4.656163692474365 -0.3915707767009735 2199437 4 -1
-1.9391424655914307 4.675234794616699 0.7048274278640747 2199437 4 -1
-1.9159349203109741 4.729581356048584 -0.27409955859184265 11197490 4 -1
-1.5254487991333008 4.609810829162598 -1.6944788694381714 4456788 0 -1
-2.2853078842163086 4.606491565704346 -0.07881297171115875 4456788 4 -1
-2.403160572052002 4.545267105102539 0.11821945756673813 4456788 0 -1
-2.2461698055267334 4.626373291015625 0 4456788 4 -1
-2.283898115158081 4.603650093078613 0.19703243672847748 4456788 4 -1
-2.2437946796417236 4.621481418609619 0.23643891513347626 4590430 4 -1
-2.1974146366119385 4.625620365142822 0.4728778302669525 3887499 4 -1
-2.1957876682281494 4.622195243835449 0.5122843384742737 3302798 4 -1
-2.1529934406280518 4.632907390594482 0.5910972952842712 2718350 4 -1
-2.9331912994384766 4.177015781402588 0.63050377368927 3651704 0 -1
-1.9300106763839722 4.7643280029296875 0.1576259434223175 3651704 4 -1
-1.9688777923583984 4.7469258308410645 -0.19703243672847748 10672695 4 -1
-1.8501464128494263 4.792667388916016 -0.23643891513347626 11197490 4 -1
-2.3394229412078857 4.615763187408447 0.0793117880821228 4456788 4 -1
-2.299771785736084 4.635646820068359 -0.0793117880821228 4456788 4 -1
-2.378725051879883 4.594776630401611 0.1189676821231842 4456788 4 -1
-2.2204692363739014 4.6741509437561035 0.0793117880821228 4456788 4 -1
-2.297609806060791 4.631289005279541 0.2379353642463684 4456788 4 -1
-2.33412766456604 4.605315208435059 0.3569030463695526 4523353 4 -1
-2.257132053375244 4.648952484130859 0.2775912582874298 4590430 4 -1
-2.372358560562134 4.582479476928711 0.396558940410614 4725613 4 -1
-2.2096850872039795 4.651449680328369 0.5155266523361206 4725613 4 -1
-2.2096850872039795 4.651449680328369 0.5155266523361206 3692940 4 -1
-1.987958312034607 4.682592391967773 0.9517414569854736 2134668 4 -1
-1.9813389778137207 4.776969909667969 0.198279470205307 3651704 4 -1
-1.8624587059020996 4.824561595916748 -0.198279470205307 9360965 4 -1
-1.8637722730636597 4.8279643058776855 -0.0396558940410614 10016830 4 -1
-2.0215003490448 4.761600017547607 -0.1586235761642456 10672695 4 -1
-1.8241711854934692 4.843228340148926 0 10672695 4 -1
-1.9825618267059326 4.779918193817139 0.0793117880821228 11918891 4 -1
-2.314439535140991 4.665212631225586 0.039905302226543427 4456788 4 -1
-2.261476755142212 4.657900333404541 0.5586742162704468 3692940 4 -1
-2.1406056880950928 4.709770679473877 0.5985795259475708 2588302 4 -1
-2.0033159255981445 4.718766689300537 0.9178219437599182 2134668 4 -1
-1.988165020942688 4.793427467346191 0.4389583170413971 3651704 4 -1
-1.9152295589447021 4.84230899810791 -0.07981060445308685 5949540 4 -1
-1.855566382408142 4.806707382202148 -0.7582007646560669 9360965 4 -1
-1.9553598165512085 4.826903820037842 0 11918891 4 -1
-1.9153982400894165 4.842735767364502 0.039905302226543427 12640037 4 -1
-2.269317150115967 4.674049377441406 0.6826300621032715 3692940 4 -1
-2.068089246749878 4.760578632354736 0.7227848172187805 2977934 4 -1
-2.015836715698242 4.7482590675354 0.9235583543777466 2134668 4 -1
-1.9298382997512817 4.65280294418335 -1.445569634437561 3651704 0 -1
-1.8671636581420898 4.836749076843262 -0.7629395127296448 3651704 4 -1
-1.967580795288086 4.857071876525879 0 6343264 4 -1
-2.1505985260009766 4.731757640838623 0.8888906240463257 3238030 4 -1
-3.2858824729919434 4.068429946899414 -0.894377589225769 4456788 0 -1
-3.411285400390625 4.056191921234131 -0.243921160697937 4456788 0 -1
-4.593713760375977 2.6542794704437256 -0.0406535267829895 4456788 0 -1
-1.934743046760559 4.891645431518555 -0.6911099553108215 4726897 4 -1
4.7043137550354 2.4251644611358643 0.6953498721122742 4456788 0 -1
-3.369333267211914 4.088373184204102 0.6544469594955444 4456788 0 -1
-3.432213544845581 4.081076145172119 -0.24541760981082916 4456788 0 -1
-4.62148904800415 2.670328140258789 -0.08180586993694305 4456788 0 -1
-3.3933486938476562 4.117513656616211 0.1636117398738861 4456788 0 -1
-4.650078296661377 2.68684720993042 -0.04115234315395355 4456788 0 -1
-3.5735208988189697 3.995701789855957 0.3292187452316284 4456788 0 -1
-4.74021053314209 2.3425257205963135 -1.5173991918563843 3757452 0 -1
-4.93030309677124 2.2199769020080566 -1.0115994215011597 2588302 0 -1
-4.92481803894043 2.326770067214966 -0.9751858115196228 3107982 0 -1
-4.917800426483154 2.3234546184539795 -1.017585277557373 2912910 0 -1
-4.966978073120117 2.346688747406006 -0.8956246376037598 2912910 0 -1
-1.8678009510040283 5.084707736968994 1.279463768005371 2912910 0 -1
-4.904807090759277 2.4238665103912354 -1.0235710144042969 2271109 0 -1
-5.009070873260498 2.255443572998047 -0.8956246376037598 2994813 0 -1
-1.3992886543273926 5.3540120124816895 0.5970830917358398 2994813 0 -1
-4.917410850524902 2.535020112991333 -0.8579639792442322 2588302 0 -1
-4.814479351043701 2.481956958770752 1.4156405925750732 2006409 0 -1
-4.898303985595703 2.525170087814331 -0.9866586327552795 3651704 0 -1
-4.955073356628418 2.341064214706421 -1.2944282293319702 3562893 0 -1
-4.890964508056641 2.6241703033447266 -0.9492473602294922 2588302 0 -1
-4.769457817077637 2.5589776039123535 1.5533138513565063 2070922 0 -1
-4.8968377113342285 2.524414300918579 -1.1649854183197021 2006409 0 -1
-1.9202899932861328 5.098426818847656 1.4238710403442383 2006409 0 -1
-4.89731502532959 2.627577543258667 -0.906099796295166 2072968 0 -1
-1.9316387176513672 5.1285576820373535 1.2944282293319702 2072968 0 -1
-4.9051079750061035 2.7335243225097656 -0.7377492785453796 2070922 0 -1
-4.899978160858154 2.730665922164917 -0.7811462879180908 2072968 0 -1
-4.9051079750061035 2.7335243225097656 -0.7377492785453796 2139270 0 -1
-1.9921631813049316 5.16055154800415 1.2151165008544922 2139270 0 -1
-4.938157558441162 2.7519423961639404 -0.6983428001403809 2072968 0 -1
-4.942717552185059 2.754483699798584 -0.6546963453292847 4899181 0 -1
-2.018282175064087 5.102858543395996 1.5276248455047607 4899181 0 -1
-5.118892669677734 2.3048932552337646 -1.141291618347168 4045940 0 -1
-4.8205246925354 2.980787515640259 -0.8340208530426025 4045940 0 -1
-4.912823677062988 2.838663101196289 -0.7901250123977661 4505456 0 -1
-3.37188458442688 4.801738262176514 -0.8170610666275024 4456788 0 -1
-3.496335983276367 4.597463607788086 -1.3163762092590332 4456788 0 -1
-3.4579663276672363 4.73207426071167 0.8624533414840698 4456788 0 -1
-3.3944122791290283 4.833818435668945 0.4539228081703186 4456788 0 -1
-3.4028217792510986 4.845794200897217 0.18156912922859192 4523353 0 -1
-3.3754143714904785 4.806764602661133 -0.7716687917709351 4657508 0 -1
-4.138614177703857 4.254456520080566 -0.5020585656166077 4456788 0 -1
-3.179028034210205 5.002231121063232 -0.5933419466018677 4456788 0 -1
-4.268980503082275 4.1114888191223145 -0.5933419466018677 4456788 0 -1
-3.97036075592041 4.439424991607666 -0.09128338098526001 4456788 0 -1
-3.4808223247528076 4.763351917266846 -0.8215504288673401 4456788 0 -1
-3.448751926422119 4.814394950866699 0.6389836668968201 4523353 0 -1
-3.435616970062256 4.796058654785156 -0.8215504288673401 4657508 0 -1
-3.1447432041168213 5.048673629760742 -0.31949183344841003 4664956 0 -1
-3.2161142826080322 4.960232734680176 -0.7302670478820801 4536450 0 -1
-2.6578521728515625 5.357428550720215 0.3212376832962036 4456788 0 -1
-4.227083683013916 4.161591053009033 -0.8260397911071777 4456788 0 -1
-3.227128267288208 4.977219581604004 -0.8260397911071777 4456788 0 -1
1.1099941730499268 5.687170028686523 1.5144062042236328 4456788 0 -1
1.3138229846954346 5.562379837036133 1.7897528409957886 4456788 0 -1
-4.489552974700928 3.8562848567962646 -0.9178219437599182 4456788 0 -1
-3.0743424892425537 5.139008522033691 -0.09178219735622406 4456788 0 -1
-3.457165479660034 4.730978012084961 -1.2390596866607666 4456788 0 -1
-3.752006769180298 4.64556360244751 0.4589109718799591 4456788 0 -1
-3.6483397483825684 4.608989715576172 -1.1472774744033813 4456788 0 -1
-3.53286075592041 4.739152431488037 -0.9637130498886108 4456788 0 -1
-3.7014319896698 4.676061630249023 -0.550693154335022 4456788 0 -1
-3.5069580078125 4.799117088317871 -0.7342575788497925 4456788 0 -1
-3.6501026153564453 4.70461368560791 -0.6424753665924072 4523353 0 -1
