VERSION .7
FIELDS x y z rgb label object
SIZE 4 4 4 4 4 4
TYPE F F F I I I
COUNT 1 1 1 1 1 1
WIDTH 682
HEIGHT 1
POINTS 682
VIEWPOINT 0 0 0 1 0 0 0
DATA ascii
-1.8549178838729858 1.631310224533081 -0.132685124874115 4523353 0 -1
-1.8575372695922852 1.6336138248443604 0.018955018371343613 4590430 0 -1
-1.8815364837646484 1.6547200679779053 -0.05761327967047691 4456788 0 -1
-1.8815364837646484 1.6547200679779053 -0.05761327967047691 4456788 0 -1
-1.8815364837646484 1.6547200679779053 -0.05761327967047691 4456788 0 -1
-1.8800437450408936 1.6534072160720825 -0.11522655934095383 4523353 0 -1
-1.8819786310195923 1.6551088094711304 -0.019204426556825638 4590430 0 -1
-1.8820338249206543 1.655157446861267 0 4728182 0 -1
-1.9062519073486328 1.676456093788147 -0.038907669484615326 4456788 0 -1
-1.9059721231460571 1.6762099266052246 -0.05836150422692299 4456788 0 -1
-1.9059721231460571 1.6762099266052246 -0.05836150422692299 4456788 0 -1
-1.9062519073486328 1.676456093788147 -0.038907669484615326 4456788 0 -1
-1.9055801630020142 1.6758651733398438 -0.07781533896923065 4523353 0 -1
-1.9062519073486328 1.676456093788147 -0.038907669484615326 4590430 0 -1
-1.9842329025268555 1.5837476253509521 -0.019453834742307663 4471684 0 -1
-1.9295002222061157 1.696901798248291 -0.09851621836423874 4456788 0 -1
-1.5576995611190796 2.3549134731292725 -0.2169850766658783 4456788 0 -1
-1.5383764505386353 2.372647285461426 -0.15188956260681152 4456788 0 -1
-1.629607081413269 2.274901866912842 -0.4339701533317566 4456788 0 -1
-1.7136374711990356 2.164858102798462 -0.6292567253112793 4456788 0 -1
-1.4314287900924683 2.441844940185547 -0.08679403364658356 4456788 0 -1
-1.7010835409164429 2.1925249099731445 -0.5641612410545349 4456788 0 -1
-1.5704950094223022 2.327360153198242 -0.3688746392726898 4456788 0 -1
-1.410361647605896 2.4555115699768066 -0.02169850841164589 4456788 0 -1
-1.5456472635269165 2.336693048477173 -0.412271648645401 4456788 0 -1
-1.4100303649902344 2.45493483543396 -0.06509552150964737 4456788 0 -1
-1.556733250617981 2.353452682495117 -0.23868359625339508 4456788 0 -1
-1.5401870012283325 2.3754398822784424 -0.06509552150964737 4456788 0 -1
-1.5473614931106567 2.339284658432007 -0.3905731439590454 4724328 0 -1
-1.5340676307678223 2.366002082824707 -0.2603820860385895 4725613 0 -1
-1.5167090892791748 2.386556386947632 -0.15188956260681152 4471684 0 -1
-1.5329318046569824 2.3642501831054688 -0.28208062052726746 4017546 0 -1
-1.7425878047943115 2.2460198402404785 -0.35116666555404663 4456788 0 -1
-1.547974944114685 2.387451410293579 -0.3292187452316284 4456788 0 -1
-1.6679672002792358 2.2825393676757812 -0.4609062373638153 4456788 0 -1
-1.5505516529083252 2.391425371170044 -0.285322904586792 4456788 0 -1
-1.578579068183899 2.386478900909424 -0.1316874921321869 4456788 0 -1
-1.6463053226470947 2.2982122898101807 -0.4609062373638153 4456788 0 -1
-1.7363828420639038 2.1935925483703613 -0.6145416498184204 4456788 0 -1
-1.7363828420639038 2.1935925483703613 -0.6145416498184204 4456788 0 -1
-1.4701218605041504 2.457425832748413 -0.06584374606609344 4456788 0 -1
-1.7393192052841187 2.1973021030426025 -0.5925937294960022 4456788 0 -1
-1.5667858123779297 2.368649959564209 -0.37311458587646484 4456788 0 -1
-1.4264470338821411 2.4835171699523926 -0.04389583319425583 4456788 0 -1
-1.563413381576538 2.363551616668701 -0.41701042652130127 4456788 0 -1
-1.5723904371261597 2.3771231174468994 -0.285322904586792 4456788 0 -1
-1.5555158853530884 2.3516123294830322 -0.5048021078109741 4456788 0 -1
-1.573555588722229 2.3788845539093018 -0.2633749842643738 4523353 0 -1
-1.563413381576538 2.363551616668701 -0.41701042652130127 4724328 0 -1
-1.5723904371261597 2.3771231174468994 -0.285322904586792 4725613 0 -1
-2.08904767036438 1.923850417137146 -0.37311458587646484 4471684 0 -1
-1.9943853616714478 2.0502092838287354 -0.1536354124546051 4471684 0 -1
-1.4889051914215088 2.438991069793701 -0.19753125309944153 4471684 0 -1
-1.33846914768219 2.531541109085083 0.06584374606609344 4471684 0 -1
-1.5723904371261597 2.3771231174468994 -0.285322904586792 4017546 0 -1
-1.711887240409851 2.2964093685150146 0.021947916597127914 10672695 0 -1
-1.7807997465133667 2.2497048377990723 -0.3995518386363983 4456788 0 -1
-1.6608359813690186 2.3651163578033447 -0.19977591931819916 4456788 0 -1
-1.6664619445800781 2.280479669570923 -0.643722414970398 4456788 0 -1
-1.5122027397155762 2.379465341567993 0.6659197211265564 4456788 0 -1
-1.597456455230713 2.41501784324646 -0.08878929913043976 4456788 0 -1
-1.6628541946411133 2.3213143348693848 -0.48834115266799927 4456788 0 -1
-1.5981605052947998 2.4160819053649902 0.02219732478260994 4456788 0 -1
-1.6506147384643555 2.3505606651306152 -0.37735453248023987 4456788 0 -1
-1.5090192556381226 2.471940040588379 -0.06659197062253952 4456788 0 -1
-1.6690226793289185 2.329925298690796 -0.42174917459487915 4456788 0 -1
-1.564121127128601 2.412353515625 -0.35515719652175903 4456788 0 -1
-1.562582015991211 2.409979820251465 -0.37735453248023987 4456788 0 -1
-1.5681716203689575 2.4186007976531982 -0.2885652184486389 4456788 0 -1
-1.5731922388076782 2.3783352375030518 -0.5105384588241577 4456788 0 -1
-1.5861510038375854 2.397926092147827 -0.35515719652175903 4523353 0 -1
-1.5753356218338013 2.381575584411621 -0.48834115266799927 4724328 0 -1
-1.6031402349472046 2.3757379055023193 -0.42174917459487915 4725613 0 -1
-2.1127870082855225 1.9457123279571533 -0.37735453248023987 4471684 0 -1
-1.625101089477539 2.3607702255249023 -0.42174917459487915 4471684 0 -1
-1.5065795183181763 2.4679436683654785 -0.17757859826087952 4471684 0 -1
-1.56363046169281 2.363879680633545 -0.5993277430534363 3757452 0 -1
-1.7214583158493042 2.1747381687164307 0.9427627921104431 4456788 0 -1
-1.5907208919525146 2.453378677368164 -0.17957386374473572 4456788 0 -1
-1.6304616928100586 2.416226387023926 -0.29180753231048584 4456788 0 -1
-1.5729501247406006 2.4259707927703857 -0.47138139605522156 4456788 0 -1
-1.7208001613616943 2.4022059440612793 0.2042652666568756 4456788 0 -1
-1.9873268604278564 2.176453113555908 -0.29504984617233276 4456788 0 -1
-1.8148382902145386 2.3391432762145996 0.09078456461429596 4456788 0 -1
-1.8608649969100952 2.3040380477905273 0.04539228230714798 4456788 0 -1
-1.7450871467590332 2.3880746364593506 -0.15887299180030823 4456788 0 -1
-1.7694672346115112 2.373650074005127 0.09078456461429596 4590430 0 -1
-1.8837796449661255 2.2857918739318848 0 4600703 0 -1
-1.7397100925445557 2.4286036491394043 0.20650994777679443 4456788 0 -1
-1.8583712577819824 2.3477017879486084 -0.04589109867811203 4456788 0 -1
-1.9489398002624512 2.270644187927246 -0.11472774296998978 4456788 0 -1
-1.8507159948349 2.3380308151245117 0.275346577167511 4456788 0 -1
-1.9498562812805176 2.271712064743042 -0.06883664429187775 4456788 0 -1
-1.8580983877182007 2.3473572731018066 -0.06883664429187775 4456788 0 -1
-1.8583712577819824 2.3477017879486084 0.04589109867811203 4456788 0 -1
-1.8585349321365356 2.3479087352752686 0.022945549339056015 4456788 0 -1
-1.8815350532531738 2.3296308517456055 0 4456788 0 -1
-1.8814797401428223 2.3295624256134033 -0.022945549339056015 4456788 0 -1
-1.8814797401428223 2.3295624256134033 -0.022945549339056015 4456788 0 -1
-1.8814797401428223 2.3295624256134033 -0.022945549339056015 4523353 0 -1
-1.8770556449890137 2.324084758758545 0.20650994777679443 4590430 0 -1
-1.973317265510559 2.2524149417877197 0 4600703 0 -1
-1.8814797401428223 2.3295624256134033 -0.022945549339056015 4600703 0 -1
-1.8779966831207275 2.325249671936035 0.18356439471244812 3302798 0 -1
-1.8813140392303467 2.329357147216797 0.04589109867811203 2328718 0 -1
-2.1197941303253174 2.0869510173797607 -0.3441832363605499 2994813 0 -1
-1.9704766273498535 2.2491724491119385 -0.1606188416481018 2994813 0 -1
-1.7279486656188965 2.3179550170898438 -0.7801486849784851 5949540 0 -1
-2.0869944095611572 2.1915674209594727 -0.06958486884832382 4456788 0 -1
-1.9289166927337646 2.2473161220550537 0.6262638568878174 4456788 0 -1
-1.854234218597412 2.389920711517334 -0.1159747838973999 4456788 0 -1
-1.854234218597412 2.389920711517334 -0.1159747838973999 4456788 0 -1
-1.9701238870620728 2.2953250408172607 -0.1159747838973999 4456788 0 -1
-1.8752583265304565 2.369035482406616 0.18555966019630432 4456788 0 -1
-1.8787363767623901 2.373429536819458 -0.02319495752453804 4456788 0 -1
-1.968733310699463 2.2937049865722656 -0.16236470639705658 4456788 0 -1
-1.8782950639724731 2.3728718757629395 -0.06958486884832382 4456788 0 -1
-1.8782950639724731 2.3728718757629395 -0.06958486884832382 4456788 0 -1
-1.9694865942001343 2.2945826053619385 -0.13916973769664764 4456788 0 -1
-1.8782950639724731 2.3728718757629395 -0.06958486884832382 4456788 0 -1
-1.9706450700759888 2.2959322929382324 -0.09277983009815216 4523353 0 -1
-1.8785709142684937 2.373220443725586 -0.04638991504907608 4523353 0 -1
-1.8785709142684937 2.373220443725586 0.04638991504907608 4590430 0 -1
-1.9713398218154907 2.2967417240142822 0.04638991504907608 4600703 0 -1
-1.8735660314559937 2.41483736038208 0.1406661868095398 4456788 0 -1
-1.875494122505188 2.4173226356506348 0.023444365710020065 4456788 0 -1
-1.9918348789215088 2.320619821548462 -0.09377746284008026 4456788 0 -1
-1.992537021636963 2.3214378356933594 -0.04688873142004013 4456788 0 -1
-1.8741722106933594 2.415618658065796 0.11722182482481003 4456788 0 -1
-1.9922444820404053 2.3210971355438232 0.0703330934047699 4456788 0 -1
-1.9828598499298096 2.3101632595062256 -0.30477675795555115 4456788 0 -1
-1.9913079738616943 2.3200061321258545 -0.11722182482481003 4456788 0 -1
-1.9918348789215088 2.320619821548462 -0.09377746284008026 4456788 0 -1
-1.9913079738616943 2.3200061321258545 -0.11722182482481003 4523353 0 -1
-1.8975993394851685 2.39725923538208 0.11722182482481003 4590430 0 -1
-1.9922444820404053 2.3210971355438232 -0.0703330934047699 4600703 0 -1
-1.8984917402267456 2.3983867168426514 0.0703330934047699 3302798 0 -1
-2.0159785747528076 2.30111026763916 0.04688873142004013 2328718 0 -1
-2.082624673843384 2.2336013317108154 -0.18755492568016052 2994813 0 -1
-1.896985650062561 2.396483898162842 0.1406661868095398 5949540 0 -1
-1.984425663948059 2.3595829010009766 -0.2369377315044403 4456788 0 -1
-1.8682880401611328 2.4566822052001953 0.18955019116401672 4456788 0 -1
-1.8954461812973022 2.4430387020111084 -0.02369377389550209 4456788 0 -1
-2.013911724090576 2.3463406562805176 -0.02369377389550209 4456788 0 -1
-2.0130245685577393 2.3453073501586914 -0.09477509558200836 4456788 0 -1
-2.0848071575164795 2.283210277557373 -0.04738754779100418 4456788 0 -1
-2.0848071575164795 2.283210277557373 -0.04738754779100418 4456788 0 -1
-1.8946113586425781 2.441962718963623 0.09477509558200836 4456788 0 -1
-2.0361685752868652 2.324155569076538 -0.11846886575222015 4456788 0 -1
-2.0130245685577393 2.3453073501586914 0.09477509558200836 4456788 0 -1
-2.008049726486206 2.3395113945007324 -0.2369377315044403 4456788 0 -1
-2.011841297149658 2.343928575515747 -0.14216263592243195 4456788 0 -1
-2.0124921798706055 2.344686985015869 -0.11846886575222015 4456788 0 -1
-2.0124921798706055 2.344686985015869 -0.11846886575222015 4523353 0 -1
-1.9968111515045166 2.3264174461364746 -0.40279415249824524 4590430 0 -1
-2.010183334350586 2.3419971466064453 -0.18955019116401672 4657508 0 -1
-2.0134384632110596 2.345789670944214 -0.07108131796121597 4600703 0 -1
-2.0374252796173096 2.325590133666992 0.04738754779100418 2328718 0 -1
-2.1301848888397217 2.236921787261963 -0.14216263592243195 2994813 0 -1
-2.0585694313049316 2.3497250080108643 -0.07182954251766205 4456788 0 -1
-2.0825064182281494 2.3285365104675293 -0.07182954251766205 4456788 0 -1
-2.0585694313049316 2.3497250080108643 -0.07182954251766205 4456788 0 -1
-2.0585694313049316 2.3497250080108643 -0.07182954251766205 4523353 0 -1
-2.0581462383270264 2.3492417335510254 -0.09577272832393646 4590430 0 -1
-2.0590531826019287 2.3502769470214844 -0.023943182080984116 4600703 0 -1
-2.1528875827789307 2.308957815170288 -0.04838518053293228 4456788 0 -1
-1.9044135808944702 2.5041849613189697 0.26611849665641785 4456788 0 -1
-2.8906571865081787 1.729053020477295 0.3371998071670532 4456788 0 -1
-2.6707823276519775 1.9182243347167969 0.8040918707847595 4664956 0 -1
-3.0615687370300293 1.0047580003738403 1.0375378131866455 2912910 0 -1
-2.812121629714966 1.7388849258422852 0.7262765169143677 2912910 0 -1
-2.506269693374634 2.050929546356201 0.985660970211029 2912910 0 -1
-2.832474708557129 1.6942510604858398 0.7522149682044983 2328718 0 -1
-2.757505416870117 1.8706891536712646 0.5965842604637146 2328718 0 -1
-2.8672494888305664 1.715051531791687 0.5447073578834534 2139270 0 -1
-2.8106985092163086 1.6812254190444946 0.855968713760376 4045940 0 -1
-2.8983936309814453 1.7336806058883667 0.5237571001052856 4456788 0 -1
-2.916114568710327 1.744280457496643 0.366629958152771 4456788 0 -1
-3.1391687393188477 0.9420245885848999 0.968950629234314 2912910 0 -1
-2.874244451522827 1.7192356586456299 0.6808842420578003 2912910 0 -1
-2.5364484786987305 2.075625419616699 0.968950629234314 2912910 0 -1
-2.86958384513855 1.7164479494094849 0.7070720791816711 2328718 0 -1
-2.927698850631714 1.6916444301605225 0.4975692331790924 2139270 0 -1
-2.9176025390625 1.8041092157363892 0.37012168765068054 4456788 0 -1
-2.000117301940918 2.905553102493286 -0.3805968165397644 4456788 0 -1
-1.71248459815979 3.106767177581787 0.05437097325921059 4456788 0 -1
-2.0340576171875 2.8966031074523926 -0.24466939270496368 4456788 0 -1
-2.949988603591919 1.6439732313156128 -1.0874195098876953 4456788 0 -1
-2.0379536151885986 2.902151346206665 -0.10874194651842117 4456788 0 -1
-2.230250358581543 2.8175010681152344 -0.6145416498184204 4456788 0 -1
-0.4154356122016907 3.590529203414917 0.4748730957508087 4456788 0 -1
-2.319074869155884 2.701876163482666 -0.7821439504623413 4456788 0 -1
-2.259373664855957 2.854292869567871 -0.19553598761558533 4456788 0 -1
-1.926011085510254 3.092081069946289 -0.1396685540676117 4456788 0 -1
-2.534494400024414 2.6054365634918213 -0.2793371081352234 4456788 0 -1
-2.2604761123657227 2.6878209114074707 -0.9776799082756042 4456788 0 -1
-2.5507428646087646 2.4025909900665283 -1.0056136846542358 4523353 0 -1
-2.0450708866119385 2.9708569049835205 -0.53074049949646 4523353 0 -1
-2.529325008392334 2.6001224517822266 -0.36313825845718384 4590430 0 -1
-2.720165967941284 2.448435068130493 0.36638057231903076 4456788 0 -1
-2.722181558609009 2.450249195098877 0.3381974399089813 4456788 0 -1
-2.670102834701538 2.4033727645874023 -0.7891273498535156 4456788 0 -1
-2.797696352005005 2.2330265045166016 -0.8454936146736145 4590430 0 -1
-2.7014706134796143 2.431607246398926 0.5636624097824097 4725613 0 -1
-2.7131400108337402 2.442110776901245 0.4509299099445343 3562893 0 -1
-2.7442383766174316 2.470102548599243 0.3696228563785553 4456788 0 -1
-2.7679219245910645 2.434252977371216 0.42648792266845703 4456788 0 -1
-2.776472568511963 2.441772699356079 0.31275781989097595 4456788 0 -1
-2.7597577571868896 2.4270730018615723 0.5117855072021484 4456788 0 -1
-2.7653682231903076 2.432007074356079 0.4549204409122467 4456788 0 -1
-2.796165943145752 2.401756525039673 0.42648792266845703 4456788 0 -1
-2.7626469135284424 2.4296138286590576 0.48335298895835876 4456788 0 -1
-2.7427752017974854 2.412137508392334 0.6539481282234192 4590430 0 -1
-2.7626469135284424 2.4296138286590576 0.48335298895835876 4725613 0 -1
-2.8028957843780518 2.4075372219085693 0.3411903381347656 3562893 0 -1
-2.8312079906463623 2.374178171157837 0.3411903381347656 2271109 0 -1
-2.888124942779541 2.1894776821136475 0.7961108088493347 5949540 0 -1
-2.8253891468048096 2.4268577098846436 0.3728651702404022 4456788 0 -1
-2.8008275032043457 2.4631917476654053 0.31550130248069763 4456788 0 -1
-2.670335054397583 2.5718207359313965 0.5162748694419861 4456788 0 -1
-2.8231263160705566 2.4249141216278076 0.4015471041202545 4456788 0 -1
-2.8294074535369873 2.430309295654297 0.31550130248069763 4456788 0 -1
-2.8153181076049805 2.4182074069976807 0.4875929057598114 4456788 0 -1
-2.8153181076049805 2.4182074069976807 0.4875929057598114 4456788 0 -1
-2.8123741149902344 2.4156785011291504 0.5162748694419861 4456788 0 -1
-2.8153181076049805 2.4182074069976807 0.4875929057598114 4456788 0 -1
-2.809258460998535 2.4130022525787354 0.5449568033218384 4456788 0 -1
-2.7910845279693604 2.3973920345306396 0.6883664727210999 4590430 0 -1
-2.8153181076049805 2.4182074069976807 0.4875929057598114 4725613 0 -1
-2.7910845279693604 2.3973920345306396 0.6883664727210999 4536450 0 -1
-2.8253891468048096 2.4268577098846436 0.3728651702404022 3562893 0 -1
-2.918386459350586 2.212418794631958 0.7744122743606567 5949540 0 -1
-2.857384204864502 2.4543397426605225 0.2603820860385895 4456788 0 -1
-2.857384204864502 2.4543397426605225 0.2603820860385895 4456788 0 -1
-2.845221519470215 2.44389271736145 0.4339701533317566 4456788 0 -1
-2.7925944328308105 2.398688793182373 -0.8390089869499207 4456788 0 -1
-2.8303701877593994 2.431136131286621 0.5786268711090088 4456788 0 -1
-2.833686590194702 2.4339847564697266 0.5496955513954163 4456788 0 -1
-2.833686590194702 2.4339847564697266 0.5496955513954163 4456788 0 -1
-2.8303701877593994 2.431136131286621 0.5786268711090088 4456788 0 -1
-2.815355062484741 2.418238878250122 0.6943522691726685 4590430 0 -1
-2.833686590194702 2.4339847564697266 0.5496955513954163 4725613 0 -1
-2.836829423904419 2.4366843700408936 0.520764172077179 3562893 0 -1
-2.938793897628784 2.2278897762298584 0.8100776672363281 5949540 0 -1
-2.9088501930236816 2.380368947982788 0.6127958297729492 4456788 0 -1
-2.8109421730041504 2.4720871448516846 0.7003380656242371 4456788 0 -1
-2.9158546924591064 2.386101007461548 0.5544342994689941 4456788 0 -1
-2.814953565597534 2.4756147861480713 0.6711573004722595 4456788 0 -1
-2.818788766860962 2.478987693786621 0.641976535320282 4456788 0 -1
-2.814953565597534 2.4756147861480713 0.6711573004722595 4456788 0 -1
-2.896991491317749 2.3706648349761963 0.7003380656242371 4523353 0 -1
-2.818788766860962 2.478987693786621 0.641976535320282 4523353 0 -1
-2.8023884296417236 2.464564561843872 0.7586995959281921 4590430 0 -1
-3.627974033355713 0.9790060520172119 -0.794614315032959 4456788 0 -1
3.1670241355895996 1.958340048789978 -0.9417651295661926 4456788 0 -1
-3.286324977874756 1.8988611698150635 -0.5886031985282898 4456788 0 -1
-2.6591014862060547 2.5610015392303467 1.0594857931137085 4456788 0 -1
-3.309067964553833 1.9120022058486938 -0.3825920820236206 4456788 0 -1
3.185075044631958 1.9695018529891968 -0.8534746766090393 4456788 0 -1
-2.821004629135132 2.5392003059387207 0.5886031985282898 4590430 0 -1
-2.604466199874878 2.5083818435668945 1.2949271202087402 4724328 0 -1
-2.6183924674987793 2.691682815551758 0.9497461915016174 4456788 0 -1
-2.470240831375122 2.7620785236358643 1.1278235912322998 4456788 0 -1
3.2226369380950928 1.927627444267273 -0.9497461915016174 4456788 0 -1
-3.65254282951355 0.9856359362602234 0.8310279250144958 4456788 0 -1
-3.284846305847168 1.9648380279541016 -0.5935913920402527 4456788 0 -1
-2.5960521697998047 2.6687171459198 1.0684645175933838 4590430 0 -1
-2.409917116165161 2.750765800476074 1.276221513748169 4590430 0 -1
-2.8488543033599854 2.3889760971069336 1.1971590518951416 4456788 0 -1
-2.8176698684692383 2.362825393676758 -1.3168749809265137 4456788 0 -1
-2.4894328117370605 3.339447021484375 0.09577272832393646 4456788 0 -1
-2.5410468578338623 3.341317892074585 0.09652095288038254 4456788 0 -1
-2.5416438579559326 3.3421027660369873 -0.03217364847660065 4456788 0 -1
-2.5405242443084717 3.3406307697296143 0.1286945939064026 4456788 0 -1
-2.5417184829711914 3.342200994491577 0 4456788 0 -1
-2.5390307903289795 3.3386669158935547 0.19304190576076508 4590430 0 -1
-2.5613465309143066 3.3680105209350586 0.03242305666208267 4456788 0 -1
-2.5607447624206543 3.3672194480895996 0.09726917743682861 4456788 0 -1
-2.5607447624206543 3.3672194480895996 0.09726917743682861 4523353 0 -1
-3.9367153644561768 3.142153024673462 1.6667946577072144 4456788 0 -1
-4.53699254989624 2.7138121128082275 -0.4471887946128845 4456788 0 -1
4.760928153991699 2.2493388652801514 0.650456428527832 4657508 0 -1
-4.295591354370117 2.914125442504883 1.0976452827453613 4664956 0 -1
4.831799507141113 2.0657427310943604 0.731763482093811 4664956 0 -1
-4.107008457183838 3.113509178161621 1.3906997442245483 4456788 0 -1
4.9187445640563965 1.8686091899871826 0.8998645544052124 4456788 0 -1
-4.06751823425293 3.1649258136749268 1.3906997442245483 4456788 0 -1
5.039697170257568 1.512349009513855 0.8998645544052124 4456788 0 -1
-4.537346363067627 2.7140235900878906 -0.7362528443336487 4456788 0 -1
-4.088860034942627 3.0997507572174072 1.4725056886672974 4657508 0 -1
-4.3289642333984375 2.936765432357788 1.063476324081421 4664956 0 -1
-4.06751823425293 3.1649258136749268 1.3906997442245483 4664956 0 -1
-5.076764106750488 1.2012780904769897 1.275722622871399 4456788 0 -1
-4.0437726974487305 3.227602481842041 1.440332055091858 4456788 0 -1
-4.533451080322266 2.8032748699188232 -0.6584374904632568 4456788 0 -1
-4.109297275543213 3.197434186935425 1.3168749809265137 4664956 0 -1
-3.2315833568573 4.082496643066406 1.3168749809265137 4664956 0 -1
-5.076923370361328 1.3700039386749268 1.2420525550842285 4456788 0 -1
-4.059133052825928 3.2398629188537598 1.4904630184173584 4456788 0 -1
-3.291306495666504 4.075145721435547 1.3248560428619385 4456788 0 -1
0.24676425755023956 5.361733436584473 -0.6210262775421143 4456788 0 -1
4.898378372192383 2.205601930618286 0.5796245336532593 4456788 0 -1
5.1200127601623535 1.38163161277771 1.0350438356399536 4456788 0 -1
-4.5761260986328125 2.829663038253784 -0.49682101607322693 4456788 0 -1
-4.407703399658203 2.9022481441497803 1.1592490673065186 4726897 0 -1
-3.940915107727051 3.3047502040863037 1.6560701131820679 4726897 0 -1
5.030905723571777 1.6510628461837769 1.0764455795288086 4726897 0 -1
4.889642238616943 2.2016682624816895 0.6624280214309692 4664956 0 -1
-5.076228618621826 1.5233116149902344 1.207883596420288 4456788 0 -1
-4.509915828704834 2.8793222904205322 0.9579766988754272 4456788 0 -1
-4.616623401641846 2.8547046184539795 0.2915581166744232 4456788 0 -1
-4.474937438964844 2.8569905757904053 1.1662324666976929 4726897 0 -1
-4.231249809265137 3.1232779026031494 1.3744882345199585 4726897 0 -1
4.778480052947998 2.5638184547424316 0.3748604357242584 4726897 0 -1
5.0444746017456055 1.6555160284042358 1.1662324666976929 4726897 0 -1
-5.026606559753418 1.508420705795288 1.4161394834518433 4664956 0 -1
-3.6965878009796143 3.5602128505706787 1.7909998893737793 4664956 0 -1
4.927886486053467 2.218888759613037 0.5831162333488464 4664956 0 -1
-4.606513023376465 2.8484528064727783 0.7542102336883545 4456788 0 -1
-4.647548198699951 2.8738272190093994 0.20950284600257874 4456788 0 -1
-4.49383020401001 2.8690526485443115 1.2151165008544922 4726897 0 -1
-4.017694473266602 3.2877578735351562 1.7179232835769653 4726897 0 -1
-4.994085788726807 1.6389793157577515 1.508420467376709 4664956 0 -1
4.990138053894043 2.133437395095825 0.670409083366394 4664956 0 -1
5.155592441558838 1.5471277236938477 0.9637130498886108 4664956 0 -1
-4.678097724914551 2.8927175998687744 0.0842999517917633 4456788 0 -1
-4.543811321258545 2.8096811771392822 -1.4415791034698486 4456788 0 -1
-4.494025707244873 3.952277421951294 -0.22945548593997955 4456788 0 -1
-4.449345111846924 4.004878044128418 -0.18356439471244812 4523353 0 -1
-3.693380832672119 4.5729756355285645 1.1472774744033813 4728182 0 -1
-4.490853786468506 3.9494879245758057 0.3212376832962036 4471684 0 -1
-4.518449783325195 3.973757266998291 -0.23070253431797028 4456788 0 -1
-4.518449783325195 3.973757266998291 -0.23070253431797028 4456788 0 -1
-4.521238803863525 3.976209878921509 -0.09228101372718811 4523353 0 -1
-4.521238803863525 3.976209878921509 0.09228101372718811 4728182 0 -1
-4.521238803863525 3.976209878921509 0.09228101372718811 4471684 0 -1
-4.539667129516602 3.992417097091675 -0.32472941279411316 4456788 0 -1
-4.354374885559082 4.193732738494873 -0.32472941279411316 4456788 0 -1
-4.542873859405518 3.995237112045288 -0.2319495677947998 4456788 0 -1
-4.638991355895996 3.890138864517212 0 4456788 0 -1
-4.298910140991211 4.232304573059082 -0.5102890729904175 4456788 0 -1
-4.542873859405518 3.995237112045288 -0.2319495677947998 4523353 0 -1
-4.350270748138428 4.189779758453369 -0.4175092279911041 4523353 0 -1
-4.541404724121094 3.9939448833465576 -0.2783394753932953 4590430 0 -1
-4.359499454498291 4.198668479919434 -0.13916973769664764 4590430 0 -1
-4.546078205108643 3.9980549812316895 -0.04638991504907608 4724328 0 -1
-4.358603477478027 4.197804927825928 -0.18555966019630432 4724328 0 -1
-4.592061996459961 3.9443349838256836 0.09277983009815216 3562893 0 -1
-4.6626996994018555 3.910020112991333 0.13991796970367432 4456788 0 -1
-4.659000873565674 3.9069180488586426 -0.27983593940734863 4456788 0 -1
-4.427482604980469 4.170326232910156 -0.23319661617279053 4456788 0 -1
-4.6626996994018555 3.910020112991333 -0.13991796970367432 4456788 0 -1
-4.426050662994385 4.1689772605896 -0.27983593940734863 4456788 0 -1
-4.663795471191406 3.9109387397766113 -0.046639323234558105 4456788 0 -1
-4.427482604980469 4.170326232910156 -0.23319661617279053 4456788 0 -1
-4.661741256713867 3.9092161655426025 -0.18655729293823242 4523353 0 -1
-4.420187473297119 4.163454532623291 -0.41975390911102295 4523353 0 -1
-4.663795471191406 3.9109387397766113 0.046639323234558105 4590430 0 -1
-4.430605411529541 4.173267841339111 0.046639323234558105 4590430 0 -1
-4.430605411529541 4.173267841339111 -0.046639323234558105 4724328 0 -1
-4.327558994293213 4.076206684112549 1.305901050567627 4471684 0 -1
-4.647336006164551 3.8971364498138428 0.5130325555801392 5949540 0 -1
-4.637075901031494 3.982999563217163 -0.2813323736190796 4456788 0 -1
-4.45233678817749 4.193736553192139 -0.18755492568016052 4456788 0 -1
-4.637075901031494 3.982999563217163 -0.2813323736190796 4456788 0 -1
-4.45233678817749 4.193736553192139 -0.18755492568016052 4456788 0 -1
-4.638576507568359 3.984288215637207 -0.23444364964962006 4456788 0 -1
-4.4511590003967285 4.192627429962158 -0.23444364964962006 4456788 0 -1
-4.639803409576416 3.985342264175415 -0.18755492568016052 4523353 0 -1
-4.4511590003967285 4.192627429962158 -0.23444364964962006 4523353 0 -1
-5.393771171569824 4.0889997482299805 0.1556306779384613 4456788 0 -1
-5.393771171569824 4.0889997482299805 -0.1556306779384613 4456788 0 -1
-5.391235828399658 4.087077617645264 -0.2593844532966614 4523353 0 -1
-5.389492034912109 4.085755825042725 0.3112613558769226 4590430 0 -1
-5.2507171630859375 3.98055100440979 1.5563068389892578 4664956 0 -1
-5.413331508636475 4.103828430175781 -0.3648841083049774 4456788 0 -1
-5.419703006744385 4.108658313751221 -0.15637890994548798 4456788 0 -1
-5.4171552658081055 4.106727123260498 -0.2606315016746521 4456788 0 -1
-5.4171552658081055 4.106727123260498 -0.2606315016746521 4456788 0 -1
-5.415402889251709 4.105398654937744 -0.31275781989097595 4523353 0 -1
-5.418588638305664 4.107813358306885 0.20850521326065063 4590430 0 -1
-5.419703006744385 4.108658313751221 0.15637890994548798 4724328 0 -1
-5.244964122772217 3.976189374923706 1.7201679944992065 4664956 0 -1
-6.460624694824219 2.1202738285064697 0.20850521326065063 2666112 0 -1
-6.085369110107422 2.875081777572632 0.9903997182846069 2666112 0 -1
-5.405197620391846 4.097661972045898 0.5212630033493042 2666112 0 -1
-3.0632238388061523 5.793691158294678 1.8244205713272095 2666112 0 -1
-5.443074703216553 4.126376628875732 -0.2618785500526428 4456788 0 -1
-5.443074703216553 4.126376628875732 -0.2618785500526428 4456788 0 -1
-5.441314220428467 4.125041961669922 -0.3142542541027069 4456788 0 -1
-5.441314220428467 4.125041961669922 -0.3142542541027069 4523353 0 -1
-5.444514751434326 4.127468109130859 0.20950284600257874 4590430 0 -1
-5.331568241119385 3.9354734420776367 1.6760227680206299 4664956 0 -1
-6.487720489501953 2.1291663646698 0.3142542541027069 2666112 0 -1
-6.062668323516846 2.996060371398926 0.9951384663581848 2666112 0 -1
-5.706038475036621 3.528347969055176 1.3093926906585693 2666112 0 -1
-5.523041248321533 4.076808452606201 -0.21050047874450684 4456788 0 -1
-5.521580696105957 4.075729846954346 -0.26312559843063354 4456788 0 -1
-5.521580696105957 4.075729846954346 -0.26312559843063354 4523353 0 -1
-5.524177074432373 4.077646732330322 0.15787535905838013 4590430 0 -1
-5.524177074432373 4.077646732330322 0.15787535905838013 4724328 0 -1
-5.547749042510986 4.095046043395996 -0.2643726170063019 4456788 0 -1
-5.816197872161865 4.177342414855957 0 4600703 0 -1
-5.123579025268555 4.934559345245361 -0.823046863079071 4600703 0 -1
-4.770166873931885 5.33372163772583 -0.2743489444255829 4600703 0 -1
-5.842463493347168 4.196207046508789 0.05511919781565666 4456788 0 -1
-4.418943405151367 5.6955718994140625 -0.4983174800872803 4456788 0 -1
-6.004500865936279 4.1930460929870605 0 4456788 0 -1
-5.647631645202637 4.621567249298096 -0.6172851324081421 4456788 0 -1
-6.087375164031982 4.129669666290283 0.05636623874306679 4456788 0 -1
-5.865503311157227 4.681646347045898 -0.4609062373638153 4456788 0 -1
-5.893498420715332 4.703990936279297 -0.40503883361816406 4456788 0 -1
-5.858283996582031 4.793948650360107 -0.4648967683315277 4456788 0 -1
-5.96539306640625 5.002425193786621 -0.9617177844047546 4456788 0 -1
-4.719537734985352 6.083007335662842 -1.5026839971542358 4456788 0 -1
-4.259597301483154 6.569602966308594 -0.4808588922023773 4456788 0 -1
-6.051058292388916 4.829750061035156 -1.2622545957565308 4456788 0 -1
-4.203066349029541 6.613564968109131 -0.3606441617012024 4456788 0 -1
-4.507919788360596 6.419510841369629 -0.060107361525297165 4456788 0 -1
-5.971370220184326 5.007437705993652 -1.1467785835266113 4456788 0 -1
-4.6935529708862305 6.17172908782959 -1.3882057666778564 4456788 0 -1
-4.275128364562988 6.593557357788086 -0.5432109236717224 4456788 0 -1
-6.031084060668945 4.935354232788086 -1.1467785835266113 4456788 0 -1
-4.667716026306152 6.261502742767334 -1.0260651111602783 4456788 0 -1
-4.275128364562988 6.593557357788086 -0.5432109236717224 4456788 0 -1
-4.526226043701172 6.445580005645752 -0.12071353942155838 4456788 0 -1
-6.619965553283691 3.959747076034546 -2.147404193878174 4456788 0 -1
-4.884949684143066 6.171213626861572 -1.4725056886672974 4456788 0 -1
-4.46570348739624 6.617849826812744 -0.6135440468788147 4456788 0 -1
-4.474135398864746 6.630345344543457 -0.36812642216682434 4456788 0 -1
-4.687461853027344 6.414584159851074 -1.2320761680603027 4456788 0 -1
-4.247542381286621 6.819142818450928 -0.3080190420150757 4456788 0 -1
-6.600670337677002 3.9482057094573975 -2.340944766998291 4456788 0 -1
-6.366745471954346 4.572759628295898 -1.7865104675292969 4456788 0 -1
-4.864083766937256 6.269312858581543 -1.2936800718307495 4456788 0 -1
-4.597306251525879 6.546802043914795 -0.8008495569229126 4456788 0 -1
-4.49232292175293 6.6572980880737305 -0.3696228563785553 4456788 0 -1
-4.420535087585449 6.682917594909668 -2.723536968231201 2072968 0 -1
-2.760507345199585 7.708469390869141 -2.1399219036102295 2072968 0 -1
-2.358386754989624 7.9772233963012695 -1.5563068389892578 2072968 0 -1
-2.929518461227417 7.588701248168945 -2.3344602584838867 2994813 0 -1
-4.528655529022217 6.711140155792236 -2.4641523361206055 3257723 0 -1
-2.7661290168762207 7.724167346954346 -2.075075626373291 3257723 0 -1
-2.5020534992218018 7.990111827850342 -1.2320761680603027 7589974 0 -1
-1.4694701433181763 8.2075834274292 -1.6273881196975708 4456788 0 -1
-4.783315181732178 6.545755863189697 -2.5387253761291504 4456788 0 -1
1.732426643371582 8.192675590515137 -1.4321016073226929 4456788 0 -1
-4.560801982879639 6.625437259674072 -2.7340121269226074 5949540 0 -1
-4.219666957855225 7.0535101890563965 -2.1481523513793945 5949540 0 -1
-2.88470196723938 7.658968448638916 -2.278343439102173 5949540 0 -1
-2.828143358230591 7.699044704437256 -2.213247776031494 6933851 0 -1
-2.3995237350463867 8.116368293762207 -1.0455188751220703 2458766 0 -1
-2.8389792442321777 7.728543281555176 -2.2217276096343994 2070922 0 -1
-4.5117926597595215 6.820879936218262 -2.417762517929077 5949540 0 -1
-3.287936210632324 7.398508548736572 -2.6791422367095947 5949540 0 -1
-2.964188575744629 7.494410991668701 2.886151075363159 4456788 0 -1
-3.1596648693084717 7.9886369705200195 -0.19753125309944153 4456788 6 -1
-3.15901517868042 7.98699426651001 -0.2633749842643738 4456788 6 -1
-3.1596648693084717 7.9886369705200195 -0.19753125309944153 4456788 6 -1
-3.15901517868042 7.98699426651001 -0.2633749842643738 4456788 6 -1
-3.15901517868042 7.98699426651001 -0.2633749842643738 4456788 6 -1
-3.0710649490356445 7.581077575683594 -2.6337499618530273 2328718 0 -1
-3.4813578128814697 7.328356742858887 -2.8312811851501465 2139270 0 -1
-3.2505249977111816 7.482452869415283 -2.6995937824249268 2666112 0 -1
-3.169116973876953 8.012535095214844 -0.396558940410614 4456788 6 -1
-3.2370431423187256 7.990803241729736 -0.2643726170063019 4456788 6 -1
-3.2370431423187256 7.990803241729736 -0.2643726170063019 4456788 6 -1
-3.236186981201172 7.98868989944458 -0.33046579360961914 4456788 6 -1
-3.235140323638916 7.986105918884277 -0.396558940410614 4456788 6 -1
-3.2377090454101562 7.992446422576904 -0.198279470205307 4456788 6 -1
-3.236186981201172 7.98868989944458 -0.33046579360961914 4456788 6 -1
-3.2339026927948 7.98305082321167 -0.4626521170139313 4456788 6 -1
-3.2339026927948 7.98305082321167 -0.4626521170139313 4456788 6 -1
-3.235140323638916 7.986105918884277 -0.396558940410614 4456788 6 -1
-3.235140323638916 7.986105918884277 -0.396558940410614 4456788 6 -1
-3.2339026927948 7.98305082321167 -0.4626521170139313 4456788 6 -1
-3.2308547496795654 7.975526332855225 -0.5948384404182434 4456788 6 -1
-3.164918899536133 8.001920700073242 -0.5948384404182434 4456788 6 -1
-3.6021008491516113 7.582524299621582 -1.9827947616577148 2199437 0 -1
-3.6432852745056152 7.66921854019165 -1.520142674446106 2666112 0 -1
-3.330934762954712 7.845943450927734 -1.3218631744384766 3257723 0 -1
-3.248399019241333 8.01883602142334 -0.33171284198760986 4456788 6 -1
-3.1810760498046875 8.042771339416504 -0.39805540442466736 4456788 6 -1
-3.2461061477661133 8.013175964355469 -0.46439796686172485 4456788 6 -1
-3.2461061477661133 8.013175964355469 -0.46439796686172485 4456788 6 -1
-3.2412285804748535 8.001134872436523 -0.6634256839752197 4456788 6 -1
-3.248399019241333 8.01883602142334 -0.33171284198760986 4456788 6 -1
-3.243046522140503 8.005622863769531 -0.5970830917358398 4456788 6 -1
-3.2461061477661133 8.013175964355469 -0.46439796686172485 4456788 6 -1
-3.2446722984313965 8.009635925292969 -0.53074049949646 4456788 6 -1
-3.2446722984313965 8.009635925292969 -0.53074049949646 4456788 6 -1
-3.2370145320892334 7.990732192993164 -0.7961108088493347 4456788 6 -1
-3.2473483085632324 8.016242027282715 -0.39805540442466736 4456788 6 -1
-0.724263072013855 8.562274932861328 -1.06148099899292 4590430 0 -1
-0.7249319553375244 8.570182800292969 -0.9951384663581848 4728182 0 -1
-3.640709638595581 7.663796901702881 -1.7249066829681396 2264205 0 -1
-3.2626235485076904 8.053949356079102 -0.13318394124507904 4456788 6 -1
-3.195570230484009 8.079416275024414 -0.19977591931819916 4456788 6 -1
-3.2491836547851562 8.020772933959961 -0.7991036772727966 4456788 6 -1
-3.2491836547851562 8.020772933959961 -0.7991036772727966 4456788 6 -1
-3.2441775798797607 8.008414268493652 -0.9322876334190369 4456788 6 -1
-3.2552385330200195 8.03571891784668 -0.5993277430534363 4456788 6 -1
-3.1870174407958984 8.057792663574219 -0.6659197211265564 4456788 6 -1
-3.2513954639434814 8.026232719421387 -0.7325116991996765 4456788 6 -1
-3.2441775798797607 8.008414268493652 -0.9322876334190369 4456788 6 -1
-3.2491836547851562 8.020772933959961 -0.7991036772727966 4456788 6 -1
-3.2568702697753906 8.03974723815918 -0.5327357649803162 4456788 6 -1
-3.2491836547851562 8.020772933959961 -0.7991036772727966 4456788 6 -1
-0.7282847762107849 8.609819412231445 -0.9322876334190369 4728182 0 -1
-3.265598773956299 8.061293601989746 -0.6684138178825378 4456788 6 -1
-3.376331090927124 7.952873706817627 -1.203144907951355 4456788 0 -1
-3.1871237754821777 8.058061599731445 -1.0026206970214844 4456788 6 -1
-3.263572931289673 8.056293487548828 -0.7352551817893982 4456788 6 -1
-3.1947946548461914 8.0774564743042 -0.8020966053009033 4456788 6 -1
-3.2589380741119385 8.044851303100586 -0.8689379692077637 4456788 6 -1
-0.7310124039649963 8.64206600189209 -0.935779333114624 4726897 0 -1
-0.7351688742637634 8.691204071044922 -0.1336827576160431 5949540 4 -1
-0.6704153418540955 8.723664283752441 -0.33545395731925964 5424489 4 -1
-0.7379986643791199 8.724658012390137 0 6933851 4 -1
-0.7378036975860596 8.722352981567383 0.2012723684310913 8180304 4 -1
-0.7379986643791199 8.724658012390137 0 8705099 4 -1
-0.7379770278930664 8.72440242767334 -0.06709078699350357 9360965 4 -1
-0.6724326014518738 8.749914169311523 -0.47138139605522156 2994813 4 -1
-0.6733822226524353 8.762269973754883 -0.0673401951789856 4899181 4 -1
-0.6732240319252014 8.760211944580078 -0.20202060043811798 5424489 4 -1
-0.7407422065734863 8.757092475891113 0 6933851 4 -1
-0.7406551837921143 8.756063461303711 0.1346803903579712 7589974 4 -1
-0.7406551837921143 8.756063461303711 -0.1346803903579712 10672695 4 -1
-0.6751813888549805 8.78568172454834 -0.4055376350879669 2994813 4 -1
-0.6757174730300903 8.792656898498535 0.20276881754398346 4899181 4 -1
-0.6757174730300903 8.792656898498535 0.20276881754398346 5424489 4 -1
-0.6757174730300903 8.792656898498535 -0.20276881754398346 7589974 4 -1
-0.6751813888549805 8.78568172454834 -0.4055376350879669 8705099 4 -1
-0.7433983683586121 8.788493156433105 -0.13517920672893524 9360965 4 -1
-0.7434638738632202 8.789267539978027 -0.06758960336446762 10016830 4 -1
-0.7434638738632202 8.789267539978027 0.06758960336446762 10672695 4 -1
-0.8109800219535828 8.782515525817871 0.13517920672893524 11918891 4 -1
-0.8110514879226685 8.783288955688477 0.06758960336446762 12640037 4 -1
-0.6101028919219971 8.825901985168457 0.3391950726509094 4899181 4 -1
-0.7458785772323608 8.817814826965332 -0.2713560461997986 6933851 4 -1
-0.7462291717529297 8.821959495544434 0 8180304 4 -1
-0.6125078797340393 8.86069393157959 0.2723536789417267 4899181 4 -1
-0.7484227418899536 8.847892761230469 0.34044212102890015 6343264 4 -1
-0.7481806874275208 8.845030784606934 -0.4085305333137512 6933851 4 -1
-0.6808642148971558 8.859628677368164 -0.06808841973543167 8180304 4 -1
-0.9527900815010071 8.830586433410645 0.2723536789417267 11918891 4 -1
-3.3980941772460938 8.004136085510254 -1.9817970991134644 4456788 0 -1
-1.2219290733337402 8.774786949157715 -1.0250674486160278 4456788 0 -1
-3.8580288887023926 7.946274757385254 -1.2300809621810913 4456788 0 -1
-0.7495061159133911 8.860699653625488 0.683378279209137 6343264 4 -1
-0.7453113198280334 8.811108589172363 1.1617431640625 6933851 4 -1
-1.0250674486160278 8.859457969665527 0 11197490 4 -1
-0.9553524255752563 8.854333877563477 0.47836482524871826 11918891 4 -1
-3.494250535964966 8.230630874633789 -0.4115234315395355 4456788 0 -1
-0.6150885820388794 8.898026466369629 0.7544596195220947 4899181 4 -1
2.7431674003601074 8.519309043884277 -0.13717447221279144 4899181 5 -1
-0.6855501532554626 8.92060375213623 0.2743489444255829 7589974 4 -1
-2.1178383827209473 8.660709381103516 -1.101386308670044 4456788 0 -1
-0.8922455310821533 8.912700653076172 -0.6883664727210999 4899181 4 -1
2.7534658908843994 8.551292419433594 0 4899181 5 -1
-0.9564431309700012 8.864442825317383 1.101386308670044 5424489 4 -1
-0.551892876625061 8.98630142211914 0.483602374792099 4456788 4 -1
-0.48358818888664246 9.002968788146973 -0.06908605247735977 4456788 4 -1
-3.437122344970703 8.286835670471191 -0.8981187343597412 4456788 0 -1
-1.8608827590942383 8.80014705657959 -0.6217744946479797 4456788 0 -1
-1.3816804885864258 8.90944766998291 0.06908605247735977 4456788 0 -1
-0.06905359774827957 9.011711120605469 -0.2763442099094391 4456788 0 -1
-3.1756253242492676 8.431379318237305 -0.34543028473854065 4456788 0 -1
-1.7246651649475098 8.83650016784668 -0.483602374792099 4456788 0 -1
-1.3120183944702148 8.915958404541016 0.2763442099094391 4456788 0 -1
-0.892936110496521 8.919599533081055 0.967204749584198 4456788 4 -1
-4.490593433380127 7.818352699279785 0 4456788 0 -1
-0.8300447463989258 8.98897647857666 0.6240191459655762 4456788 4 -1
2.759624719619751 8.570420265197754 -0.9013610482215881 4729209 5 -1
-0.8330305218696594 9.021310806274414 0.6262638568878174 4456788 4 -1
2.6981499195098877 8.61633014678955 -0.9741882085800171 4728182 5 -1
2.700312614440918 8.623236656188965 -0.9046033024787903 4729209 5 -1
2.700312614440918 8.623236656188965 -0.9046033024787903 4664956 5 -1
2.704153060913086 8.63550090789795 -0.7654336094856262 2588302 5 -1
2.6442251205444336 8.687823295593262 0 4899181 5 -1
-0.755459189414978 8.931077003479004 1.4612822532653809 13164576 0 -1
2.7054877281188965 8.639762878417969 -1.0475142002105713 4728182 5 -1
2.7078206539154053 8.647212982177734 -0.9776799082756042 4729209 5 -1
2.709991216659546 8.654144287109375 -0.9078456163406372 4664956 5 -1
2.709991216659546 8.654144287109375 -0.9078456163406372 4017546 5 -1
2.7155299186706543 8.671831130981445 -0.6983428001403809 2588302 5 -1
2.7119991779327393 8.66055679321289 -0.8380113840103149 2328718 5 -1
2.7138452529907227 8.666452407836914 -0.7681770920753479 2264205 5 -1
2.7206571102142334 8.688204765319824 -0.41900569200515747 4505456 5 -1
2.653390884399414 8.717938423156738 -0.1396685540676117 4899181 5 -1
-0.4891435205936432 9.106391906738281 0.7008368968963623 4456788 4 -1
-5.464463233947754 7.185428142547607 -1.471757411956787 4456788 0 -1
-3.419552803039551 8.441337585449219 -0.8410042524337769 4456788 0 -1
-0.8385317325592041 9.080886840820312 0.7008368968963623 4456788 4 -1
2.802030563354492 8.702116966247559 -0.2803347408771515 3651704 5 -1
2.80301833152771 8.705184936523438 0.14016737043857574 4045940 5 -1
2.731257200241089 8.722055435180664 -0.35041844844818115 8180304 5 -1
2.728123664855957 8.712048530578613 -0.560669481754303 9360965 5 -1
2.6581718921661377 8.733646392822266 -0.560669481754303 10672695 5 -1
-3.6879382133483887 8.298591613769531 -1.3363288640975952 4456788 0 -1
-3.2959370613098145 8.537880897521973 -0.703330934047699 4456788 0 -1
-2.368471145629883 8.777294158935547 1.265995740890503 4456788 0 -1
-4.492853164672852 7.984420299530029 -0.5626647472381592 4456788 0 -1
2.8132412433624268 8.736933708190918 -0.0703330934047699 3257723 5 -1
2.7422659397125244 8.757210731506348 -0.2109992951154709 3651704 5 -1
2.8132412433624268 8.736933708190918 0.0703330934047699 4045940 5 -1
2.7378323078155518 8.74305248260498 -0.5626647472381592 8180304 5 -1
2.666294813156128 8.760334968566895 -0.6329978704452515 11197490 5 -1
2.6648001670837402 8.755424499511719 -0.703330934047699 11918891 5 -1
2.752394437789917 8.789555549621582 -0.14116500318050385 2271109 5 -1
2.8219738006591797 8.764054298400879 -0.2823300063610077 3257723 5 -1
2.752394437789917 8.789555549621582 -0.14116500318050385 3651704 5 -1
2.678274154663086 8.799694061279297 -0.49407753348350525 8180304 5 -1
2.672590970993042 8.781021118164062 -0.7764075398445129 11197490 5 -1
2.664360284805298 8.753978729248047 -1.0587375164031982 11918891 5 -1
-7.221460819244385 5.763925552368164 0.2833276391029358 4456788 0 -1
2.8302805423736572 8.789852142333984 -0.4249914586544037 3257723 5 -1
2.8332765102386475 8.799156188964844 0 3651704 5 -1
2.6915335655212402 8.843259811401367 -0.07083190977573395 6343264 5 -1
2.833193302154541 8.798897743225098 -0.07083190977573395 6933851 5 -1
2.6912965774536133 8.842480659484863 0.1416638195514679 8180304 5 -1
-7.16887903213501 5.866434097290039 0.4975692331790924 4456788 0 -1
2.9135639667510986 8.804607391357422 0.21324396133422852 3651704 5 -1
2.601987600326538 8.801200866699219 -1.350545048713684 12640037 5 -1
-7.190855026245117 5.884417533874512 0.570645809173584 4456788 0 -1
2.6391594409942627 8.926934242248535 -0.071330726146698 3651704 5 -1
2.567830801010132 8.947712898254395 0.071330726146698 5949540 5 -1
2.566699743270874 8.943771362304688 -0.285322904586792 8180304 5 -1
2.6014671325683594 8.799440383911133 -1.569275975227356 12640037 0 -1
2.664339780807495 8.753911972045898 -1.711937427520752 13164576 0 -1
-3.985356569290161 8.389288902282715 -1.002121925354004 2006409 0 -1
2.4652302265167236 8.59019660949707 -2.7200450897216797 2006409 0 -1
2.4652302265167236 8.59019660949707 -2.7200450897216797 2006409 0 -1
2.6481540203094482 8.957358360290527 0.14316026866436005 3651704 5 -1
2.5762040615081787 8.976889610290527 -0.21474041044712067 5949540 5 -1
2.6446526050567627 8.945514678955078 -0.501060962677002 6343264 5 -1
2.5050106048583984 8.998438835144043 -0.14316026866436005 6933851 5 -1
2.5050106048583984 8.998438835144043 -0.14316026866436005 6933851 5 -1
2.576582193374634 8.9782075881958 0.14316026866436005 7589974 5 -1
2.6465206146240234 8.95183277130127 -0.3579006791114807 8180304 5 -1
2.653867483139038 8.976683616638184 -0.5028068423271179 5949540 5 -1
2.6557419300079346 8.983024597167969 -0.35914772748947144 6343264 5 -1
2.512852907180786 9.026610374450684 0.2873181700706482 6933851 5 -1
2.585787773132324 9.010284423828125 -0.07182954251766205 8180304 5 -1
2.8457224369049072 8.837808609008789 -1.2929317951202393 10672695 5 -1
2.805792808532715 8.960079193115234 -0.5766316056251526 3238030 5 -1
2.805792808532715 8.960079193115234 -0.5766316056251526 3107982 5 -1
2.804386854171753 8.955589294433594 -0.6487105488777161 2977934 5 -1
2.8028147220611572 8.950569152832031 -0.7207895517349243 2912910 5 -1
2.8709442615509033 8.916138648986816 -0.8649474382400513 2666112 5 -1
2.6641013622283936 9.011300086975098 0.43247371912002563 5424489 5 -1
2.5872135162353516 9.015252113342285 -0.7207895517349243 6343264 5 -1
2.4134535789489746 8.669550895690918 -2.7390003204345703 6933851 0 -1
2.8585927486419678 8.877779960632324 -1.2253421545028687 10672695 5 -1
2.8010761737823486 8.945016860961914 -0.7928684949874878 11197490 5 -1
2.8109965324401855 8.976696968078613 0.07207895070314407 12640037 5 -1
2.8140904903411865 8.986577033996582 -0.6509552597999573 3238030 5 -1
2.8140904903411865 8.986577033996582 -0.6509552597999573 3107982 5 -1
2.8125131130218506 8.981539726257324 -0.723283588886261 2977934 5 -1
2.8125131130218506 8.981539726257324 -0.723283588886261 2912910 5 -1
2.8125131130218506 8.981539726257324 -0.723283588886261 2782862 5 -1
2.8107683658599854 8.975968360900879 -0.7956119775772095 2468738 5 -1
2.8684840202331543 8.908498764038086 -1.2295821905136108 2666112 5 -1
2.5516252517700195 8.891243934631348 -1.8805373907089233 6343264 0 -1
2.7766547203063965 8.867029190063477 -1.6635522842407227 10672695 0 -1
2.8178234100341797 8.99849796295166 -0.4339701533317566 11197490 5 -1
2.4301557540893555 8.729547500610352 -2.757955312728882 4341894 0 -1
2.822211265563965 9.012510299682617 -0.7257776856422424 3238030 5 -1
2.823794364929199 9.017565727233887 -0.6531999111175537 3107982 5 -1
2.822211265563965 9.012510299682617 -0.7257776856422424 2977934 5 -1
2.822211265563965 9.012510299682617 -0.7257776856422424 2912910 5 -1
2.822211265563965 9.012510299682617 -0.7257776856422424 2782862 5 -1
2.612722873687744 9.104141235351562 -0.07257776707410812 7589974 5 -1
2.837256669998169 9.060556411743164 0.4369630515575409 5424489 5 -1
2.618004322052002 9.122544288635254 0.5097902417182922 6933851 5 -1
2.7935612201690674 8.675814628601074 -2.694605588912964 6933851 0 -1
2.545529842376709 8.610233306884766 -3.215369701385498 2199437 0 -1
2.845884323120117 9.08810806274414 0.5115361213684082 4899181 5 -1
2.8446271419525146 9.084094047546387 0.5846126675605774 5949540 5 -1
2.845884323120117 9.08810806274414 0.5115361213684082 6343264 5 -1
3.0619096755981445 9.008140563964844 0.6576892733573914 6343264 5 -1
2.9939403533935547 9.047499656677246 0.36538293957710266 6933851 5 -1
