VERSION .7
FIELDS x y z rgb label object
SIZE 4 4 4 4 4 4
TYPE F F F I I I
COUNT 1 1 1 1 1 1
WIDTH 678
HEIGHT 1
POINTS 678
VIEWPOINT 0 0 0 1 0 0 0
DATA ascii
0.5127392411231995 0.4509292542934418 -0.03142542764544487 4456788 0 -1
0.5080443620681763 0.457293301820755 0 4456788 0 -1
0.6232526302337646 0.2806331217288971 -0.0052375709637999535 4456788 0 -1
0.6534651517868042 0.19609658420085907 0.04190056771039963 4456788 0 -1
0.6083599328994751 0.2874245345592499 -0.12046413123607635 4456788 0 -1
0.5000924468040466 0.450135737657547 -0.12046413123607635 4456788 0 -1
0.5423998236656189 0.411191463470459 -0.06285085529088974 4456788 0 -1
-0.6648589968681335 0.1573207974433899 -0.020950283855199814 4456788 0 -1
-0.6280471086502075 0.2685094177722931 0.026187855750322342 4456788 0 -1
-0.6410171389579773 0.22734829783439636 0.06808841973543167 4456788 0 -1
0.5511809587478638 0.36292457580566406 0.17807741463184357 4724328 0 -1
0.5575163960456848 0.3447421193122864 0.19379012286663055 4726897 0 -1
-0.6271501779556274 0.23825156688690186 0.1309392750263214 4664956 0 -1
0.5504522323608398 0.3953488767147064 0.08903870731592178 4664956 0 -1
0.5810936093330383 0.32383254170417786 0.15712712705135345 4664956 0 -1
-0.6639205813407898 0.15709875524044037 -0.04190056771039963 4536450 0 -1
-0.6125078797340393 0.3026902675628662 0.020950283855199814 4536450 0 -1
0.5528306365013123 0.39705708622932434 -0.06285085529088974 4536450 0 -1
-0.6703303456306458 0.13331817090511322 -0.010475141927599907 3107982 0 -1
-0.5300286412239075 0.4661344587802887 0.12071353942155838 4456788 0 -1
0.5018891096115112 0.5049651861190796 -0.07681770622730255 4456788 0 -1
0.5367127060890198 0.47201278805732727 -0.04389583319425583 4456788 0 -1
0.6581281423568726 0.28137001395225525 -0.021947916597127914 4456788 0 -1
0.5946295261383057 0.391533225774765 -0.07681770622730255 4456788 0 -1
0.641976535320282 0.31725314259529114 0 4456788 0 -1
-0.6851471662521362 0.2056039422750473 -0.03292187303304672 4456788 0 -1
-0.6851471662521362 0.2056039422750473 -0.03292187303304672 4456788 0 -1
0.619864821434021 0.35816213488578796 0.01646093651652336 4456788 0 -1
0.6092126965522766 0.32686349749565125 0.18655729293823242 4456788 0 -1
-0.6715417504310608 0.2381744086742401 0.071330726146698 4456788 0 -1
-0.6251009702682495 0.26724985241889954 0.2249661386013031 4726897 0 -1
0.5814574956893921 0.3712272346019745 0.19204427301883698 4726897 0 -1
-0.5905874967575073 0.329123318195343 0.2359400987625122 4664956 0 -1
0.5779173374176025 0.4035695791244507 0.12620052695274353 4664956 0 -1
0.6051881313323975 0.337259978055954 0.18107031285762787 4664956 0 -1
-0.6794059872627258 0.22297020256519318 -0.038408853113651276 4536450 0 -1
-0.6361905336380005 0.3279685080051422 0.021947916597127914 4536450 0 -1
0.6309285163879395 0.3385147750377655 -0.010973958298563957 4536450 0 -1
0.5818482041358948 0.3480337858200073 0.23045311868190765 3887499 0 -1
-0.6051031351089478 0.4105014204978943 -0.1606188416481018 4456788 0 -1
-0.6935932636260986 0.28029510378837585 0.028681935742497444 4456788 0 -1
0.6065205931663513 0.3872286081314087 0.20650994777679443 4726897 0 -1
0.604040801525116 0.40978074073791504 0.16635523736476898 4664956 0 -1
0.629540205001831 0.33776992559432983 0.22371910512447357 4664956 0 -1
0.631862461566925 0.312254935503006 0.25240105390548706 3887499 0 -1
0.632891058921814 0.4040646255016327 0.21548862755298615 4724328 0 -1
0.1256684809923172 0.7708045244216919 0.017957385629415512 4726897 0 -1
0.6356342434883118 0.3930465877056122 0.22746022045612335 4726897 0 -1
0.5085601210594177 0.5569579005241394 0.20351704955101013 4664956 0 -1
0.6664319634437561 0.39862775802612305 0.24317294359207153 4724328 0 -1
0.09350334107875824 0.8081311583518982 -0.018705610185861588 4341894 0 -1
0.01295970194041729 0.8455663919448853 0.03242305666208267 4724328 0 -1
0.18103532493114471 0.8241497874259949 0.06484611332416534 4724328 0 -1
0.16194386780261993 0.8297361135482788 0.038907669484615326 4726897 0 -1
0.7079741954803467 0.37985244393348694 0.2658690810203552 4726897 0 -1
-0.16104093194007874 1.6086487770080566 -0.18705610930919647 4724328 0 -1
0.17425738275051117 1.6150407791137695 -0.09976325929164886 4724328 0 -1
0.24937885999679565 1.6080619096755981 0.024940814822912216 4724328 0 -1
0.3234587013721466 1.591054081916809 0.11223366111516953 4724328 0 -1
-0.09952574968338013 1.6205471754074097 -0.11223366111516953 4726897 0 -1
0.1867043375968933 1.6136491298675537 -0.09976325929164886 4726897 0 -1
0.27414754033088684 1.6030066013336182 -0.06235203519463539 4664956 0 -1
-0.151486337184906 1.6405224800109863 -0.20351704955101013 4724328 0 -1
0.177443727850914 1.6445722579956055 -0.13991796970367432 4724328 0 -1
0.2670847475528717 1.6382001638412476 0.025439631193876266 4724328 0 -1
-0.18917158246040344 1.634973168373108 -0.21623685956001282 4726897 0 -1
-0.13980169594287872 1.6527427434921265 -0.3371998071670532 4456788 0 -1
-0.01296884287148714 1.692474603652954 -0.012969223782420158 4724328 0 -1
0.34966495633125305 1.6535717248916626 0.09078456461429596 4724328 0 -1
-0.012914282269775867 1.685354232788086 0.1556306779384613 4664956 0 -1
-0.3598109781742096 1.5787529945373535 -0.4928304851055145 4341894 0 -1
0.08971218764781952 1.6701730489730835 -0.2593844532966614 4341894 0 -1
-0.09292709827423096 1.7300251722335815 0.2962968647480011 4456788 0 -1
0.34788092970848083 1.6451349258422852 0.5117855072021484 4456788 0 -1
-0.17495597898960114 1.7476470470428467 0.0673401951789856 4456788 0 -1
0.4112837314605713 1.6261515617370605 0.5252535343170166 4456788 0 -1
-0.052953384816646576 1.7268847227096558 0.3232329487800598 4456788 0 -1
0.3120709955692291 1.6680351495742798 0.457913339138031 4456788 0 -1
0.381479948759079 1.6150853633880615 0.579125702381134 4456788 0 -1
-0.03977171331644058 1.729704737663269 0.30976492166519165 4664956 0 -1
0.2541969120502472 1.727421760559082 0.20202060043811798 4664956 0 -1
0.3420148193836212 1.6823292970657349 0.37710511684417725 4664956 0 -1
0.36264142394065857 1.6508980989456177 0.5898502469062805 4456788 0 -1
-0.068569116294384 1.788435459136963 -0.04115234315395355 4724328 0 -1
0.23302540183067322 1.7736661434173584 -0.06858723610639572 4724328 0 -1
0.32913175225257874 1.759225845336914 0.04115234315395355 4724328 0 -1
-0.039731260389089584 1.7279454469680786 0.46639323234558105 4664956 0 -1
0.26748988032341003 1.7248467206954956 -0.39780598878860474 4664956 0 -1
0.35758134722709656 1.691008448600769 0.46639323234558105 4664956 0 -1
0.16429981589317322 1.77928626537323 -0.10973957926034927 4341894 0 -1
-0.06982608139514923 1.8212199211120605 -0.02793371118605137 4724328 0 -1
0.2513960301876068 1.8052985668182373 -0.013966855593025684 4724328 0 -1
-0.18019942939281464 1.8000242710113525 -0.22346968948841095 4726897 0 -1
0.19496111571788788 1.8069257736206055 -0.1396685540676117 4726897 0 -1
-0.1462411880493164 1.7288708686828613 -0.5586742162704468 4664956 0 -1
-0.05474751442670822 1.7853938341140747 -0.36313825845718384 4664956 0 -1
0.15824353694915771 1.7136996984481812 -0.600574791431427 4664956 0 -1
0.30287352204322815 1.7709742784500122 -0.3072708249092102 4664956 0 -1
0.3891269266605377 1.771471381187439 -0.18156912922859192 4664956 0 -1
-2.227216958999634 1.0522665977478027 0.22746022045612335 4456788 0 -1
-1.7729099988937378 1.7075035572052002 0.24641524255275726 4456788 0 -1
-1.4174468517303467 2.0185177326202393 0.18955019116401672 4456788 0 -1
-2.4256012439727783 0.4824139475822449 -0.05686505511403084 4456788 0 -1
-1.829492211341858 1.6467350721359253 0.24641524255275726 4456788 0 -1
-1.8573737144470215 1.6334699392318726 -0.037910036742687225 4456788 0 -1
-1.8573737144470215 1.6334699392318726 -0.037910036742687225 4456788 0 -1
-1.852130651473999 1.6288589239120483 0.18955019116401672 4725613 0 -1
-1.8037395477294922 1.5493155717849731 -0.6823806762695312 4664956 0 -1
-1.497373104095459 1.8539791107177734 0.6634256839752197 4341894 0 -1
-2.3423209190368652 0.8898373246192932 -0.05761327967047691 4456788 0 -1
-1.7962377071380615 1.7299706935882568 0.2496575564146042 4456788 0 -1
-2.264458656311035 1.0698617696762085 -0.09602213650941849 4456788 0 -1
-2.264458656311035 1.0698617696762085 -0.09602213650941849 4456788 0 -1
-1.8640469312667847 1.6393388509750366 0.3456796705722809 4456788 0 -1
-1.4851824045181274 1.9922963380813599 0.32647526264190674 4456788 0 -1
-1.8815364837646484 1.6547200679779053 -0.05761327967047691 4456788 0 -1
-1.8818128108978271 1.6549630165100098 -0.038408853113651276 4456788 0 -1
-1.897662878036499 1.629990577697754 0.1536354124546051 4725613 0 -1
-1.8170430660247803 1.5980011224746704 -0.6529505252838135 4664956 0 -1
-2.1228673458099365 1.2697978019714355 0.4032929539680481 4341894 0 -1
-1.8080048561096191 1.5161463022232056 0.8449947834014893 4341894 0 -1
-1.5728405714035034 1.8701874017715454 0.5569283962249756 4341894 0 -1
-2.2754971981048584 1.124509334564209 -0.05836150422692299 4456788 0 -1
-1.6259946823120117 1.9333903789520264 0.2528998553752899 4456788 0 -1
-1.9055801630020142 1.6758651733398438 -0.07781533896923065 4456788 0 -1
-1.9059721231460571 1.6762099266052246 -0.05836150422692299 4456788 0 -1
-1.9064198732376099 1.6766036748886108 -0.019453834742307663 4523353 0 -1
-1.9028905630111694 1.6734998226165771 0.1556306779384613 4664956 0 -1
-1.495613932609558 2.4011075496673584 -0.13019104301929474 4456788 0 -1
-2.0987439155578613 1.8457432985305786 -0.45566868782043457 4456788 0 -1
-1.5920087099075317 2.312697172164917 -0.3688746392726898 4456788 0 -1
0.42775967717170715 2.7583093643188477 0.47736719250679016 4456788 0 -1
-2.218158483505249 1.6815783977508545 -0.520764172077179 4456788 0 -1
-1.6395705938339233 2.2888107299804688 -0.30377912521362305 4456788 0 -1
-1.5152795314788818 2.3843069076538086 -0.1952865719795227 4456788 0 -1
-1.3446754217147827 2.490671157836914 0.08679403364658356 4456788 0 -1
-1.5160391330718994 2.3855020999908447 -0.17358806729316711 4456788 0 -1
-1.0378221273422241 2.6239442825317383 -0.23868359625339508 4456788 0 -1
-1.6333260536193848 2.2800934314727783 -0.3905731439590454 4456788 0 -1
-1.6333260536193848 2.2800934314727783 -0.3905731439590454 4456788 0 -1
-1.7250301837921143 2.179250717163086 -0.5424627065658569 4456788 0 -1
-1.5935767889022827 2.3149750232696533 -0.34717613458633423 4456788 0 -1
-1.4727237224578857 2.4124841690063477 -0.17358806729316711 4456788 0 -1
-1.7110387086868286 2.2053561210632324 -0.47736719250679016 4456788 0 -1
-1.530975103378296 2.314512014389038 -0.5641612410545349 4456788 0 -1
-1.5996334552764893 2.277960777282715 -0.520764172077179 4724328 0 -1
-1.482888102531433 2.3806769847869873 -0.3905731439590454 4724328 0 -1
-1.4454108476638794 2.4161195755004883 -0.30377912521362305 4664956 0 -1
-2.144529342651367 1.8420355319976807 -0.4609062373638153 4456788 0 -1
-1.4908802509307861 2.4422264099121094 -0.1316874921321869 4456788 0 -1
-1.5341426134109497 2.4139881134033203 -0.1536354124546051 4456788 0 -1
-1.613382339477539 2.3437464237213135 -0.3292187452316284 4456788 0 -1
-1.1146018505096436 2.625420331954956 -0.2633749842643738 4456788 0 -1
-1.6584162712097168 2.3151190280914307 -0.3072708249092102 4456788 0 -1
-1.5334649085998535 2.412921667098999 -0.17558333277702332 4456788 0 -1
-1.3825563192367554 2.5082156658172607 0.04389583319425583 4456788 0 -1
-1.6520999670028687 2.3063015937805176 -0.39506250619888306 4456788 0 -1
-1.5122262239456177 2.4277775287628174 -0.1536354124546051 4456788 0 -1
-1.7728937864303589 2.151242256164551 -0.6584374904632568 4456788 0 -1
-1.6679672002792358 2.2825393676757812 -0.4609062373638153 4456788 0 -1
-1.5318373441696167 2.41036057472229 -0.21947915852069855 4456788 0 -1
-1.6700268983840942 2.28535795211792 -0.4389583170413971 4456788 0 -1
-1.4896516799926758 2.440213918685913 -0.17558333277702332 4456788 0 -1
-1.5555158853530884 2.3516123294830322 -0.5048021078109741 4456788 0 -1
-2.110654592514038 1.8129390478134155 -0.680385410785675 4724328 0 -1
-1.6156094074249268 2.300711154937744 -0.5486978888511658 4724328 0 -1
-1.498271107673645 2.4053733348846436 -0.41701042652130127 4724328 0 -1
-1.4589296579360962 2.3422133922576904 0.7681770920753479 4536450 0 -1
-2.1727800369262695 1.866301417350769 0.021947916597127914 2072968 0 -1
-1.6882026195526123 2.3102307319641113 0.1316874921321869 2072968 0 -1
-1.5537207126617432 2.396312952041626 0.21947915852069855 2072968 0 -1
-1.4129801988601685 2.4600706100463867 0.39506250619888306 2072968 0 -1
-2.171577215194702 1.8652682304382324 -0.4439464807510376 4456788 0 -1
-1.690983533859253 2.3140363693237305 -0.42174917459487915 4456788 0 -1
-1.507822036743164 2.4699790477752686 -0.13318394124507904 4456788 0 -1
-1.7746738195419312 2.1973202228546143 -0.643722414970398 4456788 0 -1
-1.5472303628921509 2.434581756591797 -0.2663678824901581 4456788 0 -1
-1.6331233978271484 2.3724241256713867 -0.31076255440711975 4456788 0 -1
-1.670873761177063 2.3325095176696777 -0.3995518386363983 4456788 0 -1
-2.196988344192505 1.7978386878967285 -0.5771304368972778 4456788 0 -1
-1.5460846424102783 2.43277907371521 -0.2885652184486389 4456788 0 -1
-1.6847338676452637 2.305483818054199 -0.48834115266799927 4456788 0 -1
-1.5072453022003174 2.469034194946289 -0.15538127720355988 4456788 0 -1
-1.5072453022003174 2.469034194946289 -0.15538127720355988 4456788 0 -1
-1.5072453022003174 2.469034194946289 -0.15538127720355988 4456788 0 -1
-1.637772798538208 2.379178285598755 -0.2219732403755188 4456788 0 -1
-1.637772798538208 2.379178285598755 -0.2219732403755188 4456788 0 -1
-1.5876158475875854 2.4001407623291016 -0.3329598605632782 4456788 0 -1
-1.5731922388076782 2.3783352375030518 -0.5105384588241577 4456788 0 -1
-2.0956497192382812 1.843022108078003 -0.7769063711166382 4724328 0 -1
-1.6231772899627686 2.311488389968872 -0.643722414970398 4724328 0 -1
-1.444057583808899 2.463388204574585 -0.48834115266799927 4724328 0 -1
-1.5534559488296509 2.395904541015625 -0.48834115266799927 4664956 0 -1
-1.7651128768920898 2.275052070617676 -0.5387215614318848 4456788 0 -1
-1.5465949773788452 2.482954263687134 -0.15712712705135345 4456788 0 -1
-1.5729501247406006 2.4259707927703857 -0.47138139605522156 4456788 0 -1
-2.1192986965179443 2.0411131381988525 -0.34044212102890015 4456788 0 -1
-1.883281946182251 2.2851879596710205 0.06808841973543167 4456788 0 -1
-1.314481258392334 2.6495978832244873 0.15887299180030823 4456788 0 -1
-2.1602652072906494 1.9894362688064575 -0.38583439588546753 4456788 0 -1
-1.974042534828186 2.207258701324463 -0.06808841973543167 4456788 0 -1
-1.4521691799163818 2.580705165863037 -0.06808841973543167 4456788 0 -1
-1.8262041807174683 2.3070647716522217 -0.34044212102890015 4456788 0 -1
-1.1558369398117065 2.722548723220825 -0.15887299180030823 4456788 0 -1
-1.82661771774292 2.2616348266601562 -0.5674034953117371 4456788 0 -1
-1.974042534828186 2.207258701324463 -0.06808841973543167 4590430 0 -1
-2.121126174926758 2.0428733825683594 -0.31774598360061646 4657508 0 -1
-2.158994197845459 2.0335958003997803 -0.41301989555358887 4456788 0 -1
-1.9953248500823975 2.231055498123169 -0.09178219735622406 4456788 0 -1
-1.7550983428955078 2.4017746448516846 0.3441832363605499 4456788 0 -1
-2.210968017578125 1.9901034832000732 -0.3441832363605499 4456788 0 -1
-2.062915802001953 2.1662821769714355 -0.1376732885837555 4456788 0 -1
-1.8566242456436157 2.3454949855804443 0.1376732885837555 4456788 0 -1
-1.8566242456436157 2.3454949855804443 0.1376732885837555 4456788 0 -1
-1.4912855625152588 2.5964043140411377 -0.04589109867811203 4456788 0 -1
-1.9498562812805176 2.271712064743042 -0.06883664429187775 4456788 0 -1
-1.761612892150879 2.410689353942871 0.22945548593997955 4456788 0 -1
-2.2295408248901367 1.9150559902191162 -0.5736387372016907 4456788 0 -1
-1.5969198942184448 2.5127687454223633 -0.3212376832962036 4456788 0 -1
-2.161254405975342 2.035724639892578 -0.39007434248924255 4456788 0 -1
-1.9953248500823975 2.231055498123169 -0.09178219735622406 4456788 0 -1
-1.4225822687149048 2.6349737644195557 0.022945549339056015 4456788 0 -1
-1.85858952999115 2.347977638244629 0 4456788 0 -1
-1.9718683958053589 2.2507612705230713 -0.11472774296998978 4456788 0 -1
-1.8815350532531738 2.3296308517456055 0 4456788 0 -1
-1.9723901748657227 2.251356601715088 -0.09178219735622406 4590430 0 -1
-2.2595601081848145 1.8490421772003174 -0.6654209494590759 4657508 0 -1
-2.136267900466919 2.0574564933776855 -0.41301989555358887 4657508 0 -1
-1.9941519498825073 2.2297439575195312 -0.1376732885837555 4212104 0 -1
-1.8351588249206543 2.3653345108032227 0.06883664429187775 4212104 0 -1
-1.8768049478530884 2.3709893226623535 -0.13916973769664764 4456788 0 -1
-1.8732680082321167 2.366521120071411 0.2319495677947998 4456788 0 -1
-1.8785709142684937 2.373220443725586 -0.04638991504907608 4456788 0 -1
-1.9694865942001343 2.2945826053619385 -0.13916973769664764 4590430 0 -1
-2.6004140377044678 1.6079747676849365 -0.11722182482481003 4456788 0 -1
-2.172567367553711 2.138906478881836 -0.2578880190849304 4456788 0 -1
-1.9449681043624878 2.3600385189056396 0.09377746284008026 4456788 0 -1
-2.531322479248047 1.7172468900680542 0.0703330934047699 4456788 0 -1
-2.0159785747528076 2.30111026763916 0.04688873142004013 4456788 0 -1
-1.7122756242752075 2.487407922744751 0.49233168363571167 4456788 0 -1
-2.129425048828125 2.1890289783477783 -0.18755492568016052 4456788 0 -1
-1.9678808450698853 2.3399102687835693 0.11722182482481003 4456788 0 -1
-1.6119048595428467 2.5878047943115234 -0.2578880190849304 4456788 0 -1
-2.27558970451355 2.0012707710266113 -0.4219985902309418 4456788 0 -1
-2.0159785747528076 2.30111026763916 0.04688873142004013 4456788 0 -1
-2.1069555282592773 2.2125284671783447 -0.16411055624485016 4456788 0 -1
-1.8975993394851685 2.39725923538208 0.11722182482481003 4456788 0 -1
-1.9922444820404053 2.3210971355438232 -0.0703330934047699 4456788 0 -1
-1.9913079738616943 2.3200061321258545 -0.11722182482481003 4590430 0 -1
-2.713765859603882 1.34109365940094 -0.44544294476509094 4725613 0 -1
-2.1024844646453857 2.2078335285186768 -0.2578880190849304 4725613 0 -1
-1.9456537961959839 2.360870361328125 0.04688873142004013 4725613 0 -1
-1.9927124977111816 2.3216423988342285 0.023444365710020065 4212104 0 -1
-1.406001091003418 2.715850353240967 0.09377746284008026 4212104 0 -1
-2.2552220821380615 2.0768840312957764 -0.40279415249824524 4456788 0 -1
-1.9902769327163696 2.3665404319763184 0 4456788 0 -1
-1.3716545104980469 2.7648420333862305 0.18955019116401672 4456788 0 -1
-2.674565315246582 1.5453822612762451 -0.14216263592243195 4456788 0 -1
-2.413285970687866 1.9262032508850098 0.16585642099380493 4456788 0 -1
-2.2177796363830566 2.1359610557556152 -0.2843252718448639 4456788 0 -1
-1.9392356872558594 2.4010732173919678 0.18955019116401672 4456788 0 -1
-2.009176015853882 2.3408236503601074 -0.21324396133422852 4456788 0 -1
-2.153853416442871 2.2141411304473877 -0.14216263592243195 4456788 0 -1
-2.0130245685577393 2.3453073501586914 0.09477509558200836 4456788 0 -1
-2.037126064300537 2.3252487182617188 0.07108131796121597 4456788 0 -1
-2.1653811931610107 2.17865252494812 -0.35540661215782166 4456788 0 -1
-1.9888157844543457 2.3648030757904053 -0.11846886575222015 4456788 0 -1
-2.0124921798706055 2.344686985015869 -0.11846886575222015 4456788 0 -1
-2.1071975231170654 2.259955644607544 -0.11846886575222015 4456788 0 -1
-1.9164329767227173 2.4210519790649414 0.16585642099380493 4456788 0 -1
-2.011841297149658 2.343928575515747 -0.14216263592243195 4456788 0 -1
-2.0124921798706055 2.344686985015869 -0.11846886575222015 4523353 0 -1
-2.0130245685577393 2.3453073501586914 -0.09477509558200836 4590430 0 -1
-1.7384002208709717 2.5253589153289795 0.40279415249824524 4725613 0 -1
-2.060389757156372 2.303807258605957 0.09477509558200836 4341894 0 -1
-1.938264012336731 2.399869918823242 0.21324396133422852 4341894 0 -1
-2.013911724090576 2.3463406562805176 -0.02369377389550209 4212104 0 -1
-2.0828120708465576 2.32887864112854 -0.04788636416196823 4456788 0 -1
-2.76484751701355 1.8756701946258545 0.5447073578834534 4456788 0 -1
-2.5042734146118164 2.1000192165374756 0.8819071650505066 4456788 0 -1
-2.857448101043701 1.766912579536438 0.41501516103744507 4212104 0 -1
-2.8672494888305664 1.715051531791687 0.5447073578834534 3887499 0 -1
-3.059523582458496 1.0851153135299683 0.9597225189208984 3302798 0 -1
-2.481455087661743 2.0808844566345215 0.985660970211029 3302798 0 -1
3.1975362300872803 0.8628527522087097 0.7003380656242371 3302798 0 -1
-2.388643264770508 2.1500298976898193 1.063476324081421 2912910 0 -1
3.212505340576172 0.8668921589851379 0.6225227117538452 2912910 0 -1
-3.1684749126434326 0.8550105690956116 0.8300303220748901 2588302 0 -1
-2.9550225734710693 1.263363003730774 1.063476324081421 2588302 0 -1
-2.4566404819488525 2.1101224422454834 0.985660970211029 2588302 0 -1
-2.7263338565826416 1.849542498588562 0.7781534194946289 2072968 0 -1
-2.5183873176574707 2.010091543197632 1.0375378131866455 2072968 0 -1
3.174703598022461 0.8566913604736328 0.8040918707847595 2072968 0 -1
-2.7619998455047607 1.928751826286316 0.5761328339576721 4456788 0 -1
-2.5536365509033203 2.089690685272217 0.8903870582580566 4456788 0 -1
3.217653512954712 0.9655768871307373 0.6285085082054138 4456788 0 -1
-2.918452024459839 1.7456785440444946 0.34044212102890015 4523353 0 -1
-2.8910653591156006 1.729297161102295 0.5761328339576721 3887499 0 -1
-2.5053153038024902 2.100893020629883 0.9951384663581848 3302798 0 -1
3.2427070140838623 0.7672984004020691 0.7594478130340576 3302798 0 -1
-3.1603336334228516 1.0371710062026978 0.7856356501579285 2912910 0 -1
-3.063828706741333 1.1639349460601807 0.968950629234314 2588302 0 -1
-2.7202670574188232 1.9537655115127563 0.6808842420578003 2588302 0 -1
-2.4862215518951416 2.135530948638916 0.968950629234314 2588302 0 -1
3.1830573081970215 1.128928780555725 0.5237571001052856 2588302 0 -1
-3.024949312210083 1.1491647958755493 1.099889874458313 2199437 0 -1
-2.549102306365967 2.034607172012329 1.0213263034820557 2199437 0 -1
3.171675682067871 1.040893316268921 0.733259916305542 2199437 0 -1
-2.822918653488159 1.8022716045379639 0.6808842420578003 2072968 0 -1
-2.549102306365967 2.034607172012329 1.0213263034820557 2072968 0 -1
3.2177767753601074 0.7613993287086487 0.8641992211341858 2072968 0 -1
-2.915088653564453 1.8025548458099365 0.396558940410614 4523353 0 -1
-2.5925111770629883 2.3875012397766113 -0.40778231620788574 4456788 0 -1
-2.000117301940918 2.905553102493286 -0.3805968165397644 4456788 0 -1
-1.821213722229004 3.0443038940429688 -0.05437097325921059 4456788 0 -1
-2.1196672916412354 2.7872300148010254 -0.570895254611969 4456788 0 -1
-1.9002448320388794 2.990053415298462 -0.1902984082698822 4456788 0 -1
-2.8348238468170166 1.8665870428085327 -1.0330485105514526 4456788 0 -1
-2.6387157440185547 2.320622444152832 -0.48933878540992737 4456788 0 -1
-2.140798330307007 2.759272813796997 -0.6252661943435669 4456788 0 -1
-2.81210994720459 2.2445311546325684 -0.5866079330444336 4456788 0 -1
-2.178006649017334 2.863942861557007 -0.5866079330444336 4456788 0 -1
-2.7373757362365723 2.2954928874969482 -0.7262765169143677 4456788 0 -1
-2.081144332885742 2.9636571407318115 -0.41900569200515747 4456788 0 -1
-2.6530649662017822 2.4432666301727295 0.53074049949646 4523353 0 -1
-3.353158950805664 1.4335784912109375 0.47911304235458374 4456788 0 -1
-2.78375506401062 2.1660330295562744 -1.0427753925323486 4456788 0 -1
-2.607747793197632 2.511542320251465 0.6482117772102356 4456788 0 -1
-2.761215925216675 2.4283554553985596 0.08454935997724533 4456788 0 -1
-2.7411105632781982 2.4106736183166504 0.4509299099445343 4456788 0 -1
-2.7538256645202637 2.421856164932251 0.28183120489120483 4725613 0 -1
-2.7240347862243652 2.4519171714782715 0.3100143074989319 4664956 0 -1
-3.043687582015991 2.0648348331451416 -0.028183119371533394 4536450 0 -1
-2.8397185802459717 2.3237972259521484 0.2536480724811554 4536450 0 -1
-3.1113369464874268 1.8610531091690063 0.6200286149978638 4341894 0 -1
-3.491011619567871 1.1456942558288574 0.16909871995449066 2912910 0 -1
-2.7740285396575928 2.382741689682007 0.3945636749267578 2912910 0 -1
3.3740267753601074 1.1073017120361328 0.9582260847091675 2912910 0 -1
-3.4358162879943848 1.3052513599395752 0.14091560244560242 8705099 0 -1
-2.842397689819336 2.3259894847869873 0.1972818374633789 8705099 0 -1
-2.626641273498535 2.5297389030456543 0.47911304235458374 8705099 0 -1
-2.0157368183135986 3.0473697185516357 0.42274680733680725 8705099 0 -1
-2.7004411220550537 2.486896276473999 0.5402180552482605 4456788 0 -1
-3.0130515098571777 2.164050817489624 -0.0852975845336914 4456788 0 -1
-3.366642713546753 1.5159045457839966 0.3696228563785553 4456788 0 -1
-3.1786444187164307 1.8366426229476929 0.5402180552482605 4456788 0 -1
-2.55979323387146 2.631443500518799 0.5402180552482605 4456788 0 -1
-2.9548120498657227 2.240032911300659 0.14216263592243195 4456788 0 -1
-2.7597577571868896 2.4270730018615723 0.5117855072021484 4456788 0 -1
3.377107858657837 1.5206166505813599 -0.22746022045612335 4456788 0 -1
-3.0987815856933594 2.0403897762298584 -0.05686505511403084 4456788 0 -1
-2.8632426261901855 2.343047618865967 0.2843252718448639 4456788 0 -1
-2.2713279724121094 2.9275124073028564 0.19902770221233368 4456788 0 -1
-3.3997623920440674 1.453502893447876 0.31275781989097595 4456788 0 -1
-2.7420403957366943 2.4681243896484375 0.39805540442466736 4456788 0 -1
-2.4479308128356934 2.6808910369873047 0.7676782608032227 4456788 0 -1
-2.6572351455688477 2.5592041015625 0.39805540442466736 4456788 0 -1
-2.455726146697998 2.6894283294677734 0.7108132243156433 4456788 0 -1
-2.8118438720703125 2.4152231216430664 0.1705951690673828 4456788 0 -1
-2.7679219245910645 2.434252977371216 0.42648792266845703 4456788 0 -1
-2.8095266819000244 2.4132328033447266 0.22746022045612335 4725613 0 -1
-2.776472568511963 2.441772699356079 0.31275781989097595 4664956 0 -1
-3.3435041904449463 1.5054858922958374 0.5686505436897278 4536450 0 -1
-2.350327253341675 2.6827478408813477 1.0235710144042969 4536450 0 -1
-3.3511345386505127 1.5089216232299805 0.5117855072021484 3107982 0 -1
-2.612990617752075 2.5725061893463135 0.5686505436897278 3107982 0 -1
-3.6393635272979736 0.7238121628761292 0 3107982 0 -1
-2.734257221221924 2.3485801219940186 0.8814083933830261 2718350 0 -1
-3.4686665534973145 1.3177310228347778 0.02843252755701542 2072968 0 -1
-2.600698232650757 2.616637706756592 0.39805540442466736 2072968 0 -1
-2.6572351455688477 2.5592041015625 0.39805540442466736 8705099 0 -1
-3.3229737281799316 1.5699657201766968 0.5117855072021484 11918891 0 -1
-3.0534493923187256 1.888110637664795 0.9382734298706055 11918891 0 -1
-2.826591968536377 2.0864362716674805 1.1941661834716797 11918891 0 -1
-2.317603349685669 2.700161933898926 1.0520035028457642 11918891 0 -1
-2.8123741149902344 2.4156785011291504 0.5162748694419861 4456788 0 -1
-2.794609785079956 2.457723617553711 0.4015471041202545 4456788 0 -1
-3.398691415786743 1.5303350687026978 0.3441832363605499 4456788 0 -1
-3.2134439945220947 1.8567500114440918 0.4875929057598114 4456788 0 -1
-2.6673765182495117 2.5689713954925537 0.5449568033218384 4456788 0 -1
-2.505418539047241 2.687044858932495 0.7170484066009521 4456788 0 -1
-1.5230317115783691 3.2773277759552 0.9751858115196228 4456788 0 -1
-3.125504970550537 2.057985782623291 -0.08604580909013748 4456788 0 -1
-2.918592691421509 2.329521894454956 0.25813743472099304 4456788 0 -1
3.585136890411377 1.075853943824768 -0.028681935742497444 4456788 0 -1
-3.55488920211792 1.16665780544281 0.11472774296998978 4456788 0 -1
-3.55488920211792 1.16665780544281 0.11472774296998978 4456788 0 -1
-2.7397713661193848 2.523116111755371 0.3728651702404022 4456788 0 -1
-2.954152822494507 2.298619031906128 0.028681935742497444 4456788 0 -1
-2.680544137954712 2.581653118133545 0.4015471041202545 4456788 0 -1
-2.81809139251709 2.4205892086029053 0.4589109718799591 4456788 0 -1
-2.8153181076049805 2.4182074069976807 0.4875929057598114 4456788 0 -1
-2.809258460998535 2.4130022525787354 0.5449568033218384 4523353 0 -1
-2.832751750946045 2.4331817626953125 0.25813743472099304 4725613 0 -1
-2.834171772003174 2.434401512145996 0.22945548593997955 4664956 0 -1
-3.419022798538208 1.4617372751235962 0.4302290380001068 4536450 0 -1
-3.188143730163574 1.906995177268982 0.4589109718799591 4341894 0 -1
-2.918386459350586 2.212418794631958 0.7744122743606567 4341894 0 -1
-2.3328795433044434 2.830733060836792 0.7457303404808044 4341894 0 -1
-3.0359086990356445 2.180467367172241 -0.20077355206012726 3107982 0 -1
-2.706726312637329 2.5495147705078125 0.4302290380001068 3107982 0 -1
3.6399316787719727 0.8612908124923706 -0.14340968430042267 3107982 0 -1
-3.5278780460357666 1.2512257099151611 0 2072968 0 -1
-3.6112706661224365 0.9744986891746521 0.14340968430042267 4045940 0 -1
-3.3556318283081055 1.585395336151123 0.4875929057598114 4045940 0 -1
-3.1857833862304688 1.8407676219940186 0.6883664727210999 4045940 0 -1
-2.5937352180480957 2.6096320152282715 0.6883664727210999 4045940 0 -1
-2.353776216506958 2.7423055171966553 0.9751858115196228 4045940 0 -1
-3.3415703773498535 1.6513433456420898 0.3441832363605499 8705099 0 -1
-2.680544137954712 2.581653118133545 0.4015471041202545 8705099 0 -1
-3.030468702316284 1.8739005327224731 1.1472774744033813 11918891 0 -1
-2.28110933303833 2.712354898452759 -1.204641342163086 11918891 0 -1
-2.8425965309143066 2.4416377544403076 0.4629015028476715 4456788 0 -1
-3.4774930477142334 1.4053254127502441 0.4339701533317566 4456788 0 -1
-2.942321300506592 2.348461389541626 0.2893134355545044 4456788 0 -1
-2.942321300506592 2.348461389541626 0.2893134355545044 4456788 0 -1
3.584852933883667 1.1764914989471436 -0.1446567177772522 4456788 0 -1
-2.854011058807373 2.451442241668701 0.3182447850704193 4456788 0 -1
-2.7060203552246094 2.606189489364624 0.37610748410224915 4456788 0 -1
-2.134625196456909 3.1009514331817627 0.2893134355545044 4456788 0 -1
-2.794696569442749 2.4577999114990234 -0.6364895701408386 4456788 0 -1
-2.9502172470092773 2.3547637462615967 0.08679403364658356 4456788 0 -1
-2.701523542404175 2.601858615875244 0.4339701533317566 4456788 0 -1
-2.833686590194702 2.4339847564697266 0.5496955513954163 4456788 0 -1
-2.833686590194702 2.4339847564697266 0.5496955513954163 4456788 0 -1
-2.836829423904419 2.4366843700408936 0.520764172077179 4523353 0 -1
-2.8557825088500977 2.4529638290405273 0.2893134355545044 4725613 0 -1
-2.857384204864502 2.4543397426605225 0.2603820860385895 4664956 0 -1
-2.9791409969329834 2.3180623054504395 -0.08679403364658356 3107982 0 -1
-2.7348079681396484 2.575965166091919 0.37610748410224915 3107982 0 -1
-3.420013904571533 1.5399359464645386 0.4339701533317566 4045940 0 -1
-2.6806273460388184 2.581733226776123 0.6364895701408386 4045940 0 -1
-2.896062135696411 2.428563356399536 0.4668920338153839 4456788 0 -1
-2.818788766860962 2.478987693786621 0.641976535320282 4456788 0 -1
-2.880049705505371 2.415135622024536 0.6127958297729492 4456788 0 -1
-2.786229372024536 2.507899045944214 0.6711573004722595 4456788 0 -1
-2.880049705505371 2.415135622024536 0.6127958297729492 4523353 0 -1
-3.409233331680298 1.6847811937332153 0.2042652666568756 4664956 0 -1
-2.909496307373047 2.439828634262085 -0.29180753231048584 4664956 0 -1
-2.7073493003845215 2.66540265083313 0.2626267671585083 4664956 0 -1
-2.7840211391448975 2.6223199367523193 -0.35316193103790283 4456788 0 -1
-2.8239681720733643 2.6006548404693604 -0.11772064119577408 4456788 0 -1
3.1724228858947754 2.0254099369049072 -0.7651841640472412 4456788 0 -1
-2.6893184185028076 2.4766530990600586 1.1772063970565796 4523353 0 -1
-3.2369375228881836 2.066598892211914 -0.05886032059788704 4725613 0 -1
3.618953227996826 1.283527135848999 -0.08829048275947571 4725613 0 -1
-3.6172521114349365 1.2829238176345825 0.14715079963207245 4664956 0 -1
-3.4104204177856445 1.6853678226470947 0.5297428965568542 4664956 0 -1
-3.2079086303710938 1.9188176393508911 0.8829048275947571 4664956 0 -1
-2.7268450260162354 2.6262457370758057 0.6474635601043701 4664956 0 -1
3.5342812538146973 1.3426578044891357 0.6768937110900879 4341894 0 -1
-2.92366361618042 2.511270046234131 -0.38583439588546753 4456788 0 -1
-2.811878204345703 2.5309855937957764 -0.8310279250144958 4456788 0 -1
-2.8424553871154785 2.617680311203003 0.26711612939834595 4523353 0 -1
-2.85827374458313 2.2813775539398193 1.276221513748169 4341894 0 -1
-2.2600910663604736 2.913029193878174 1.1871827840805054 4341894 0 -1
2.970363140106201 2.1333909034729004 1.276221513748169 4341894 0 -1
3.537477493286133 1.160943627357483 1.0684645175933838 4341894 0 -1
-2.962185859680176 2.544358730316162 -0.08978693187236786 4456788 0 -1
-2.6476693153381348 2.7803356647491455 0.7182954549789429 4523353 0 -1
-2.987572431564331 2.566164493560791 -0.030178384855389595 4456788 0 -1
-2.5410468578338623 3.341317892074585 0.09652095288038254 4456788 0 -1
-2.5613465309143066 3.3680105209350586 0.03242305666208267 4456788 0 -1
-4.965975284576416 1.3400646448135376 1.300912857055664 4456788 0 -1
-4.255817413330078 2.971910238265991 1.0976452827453613 4456788 0 -1
-3.7615807056427 3.3081276416778564 1.7481017112731934 4456788 0 -1
-3.0260770320892334 4.059328079223633 1.5854876041412354 4456788 0 -1
4.773257255554199 2.2551639080047607 0.5284958481788635 4456788 0 -1
-4.845452308654785 1.5902000665664673 1.463526964187622 4523353 0 -1
-3.8309969902038574 3.290620803833008 1.62614107131958 4523353 0 -1
-4.926562786102295 1.4783987998962402 1.300912857055664 4726897 0 -1
-2.9470479488372803 4.032904624938965 -1.788755178451538 4726897 0 -1
4.968895435333252 1.6307121515274048 0.894377589225769 4726897 0 -1
-4.78372049331665 1.6966328620910645 1.544834017753601 3887499 0 -1
-4.103003978729248 3.028614044189453 1.463526964187622 3887499 0 -1
4.801275253295898 2.161879062652588 0.650456428527832 3887499 0 -1
-4.2334394454956055 2.9562830924987793 1.219605803489685 2912910 0 -1
-3.733604669570923 3.360635995864868 1.707448124885559 2912910 0 -1
1.747896432876587 5.00872278213501 -0.081307053565979 2912910 0 -1
-5.064301013946533 1.0072098970413208 1.219605803489685 2912910 0 -1
-4.194797039031982 3.0963706970214844 1.1452821493148804 4456788 0 -1
-3.786285638809204 3.4080545902252197 1.5952144861221313 4456788 0 -1
-4.17979621887207 3.0852978229522705 1.2270880937576294 4456788 0 -1
-3.0446419715881348 4.084231853485107 1.5952144861221313 4456788 0 -1
-4.53231954574585 2.711016893386841 -0.7771557569503784 4456788 0 -1
-4.26719331741333 2.979854106903076 1.1861851215362549 4724328 0 -1
-3.717783212661743 3.4237890243530273 1.7179232835769653 4724328 0 -1
-4.28192663192749 2.990142822265625 1.1043792963027954 4212104 0 -1
4.896523952484131 1.978784441947937 0.7771557569503784 4212104 0 -1
-4.17979621887207 3.0852978229522705 1.2270880937576294 3302798 0 -1
-3.8739330768585205 3.327500820159912 1.5543115139007568 3302798 0 -1
-5.054779529571533 1.005316138267517 1.3906997442245483 3302798 0 -1
-3.7956719398498535 3.4165031909942627 1.5543115139007568 2912910 0 -1
-0.9457093477249146 5.054863929748535 -1.4316027164459229 2912910 0 -1
-5.130624294281006 1.0204004049301147 1.063476324081421 2912910 0 -1
-4.2677741050720215 3.0652246475219727 1.1111133098602295 4456788 0 -1
-4.528990268707275 2.800516366958618 -0.6995898485183716 4456788 0 -1
-3.0219509601593018 4.053792953491211 -1.810703158378601 4523353 0 -1
-3.8963048458099365 3.267340898513794 1.7283984422683716 4724328 0 -1
4.682544708251953 2.609494209289551 0.3292187452316284 4724328 0 -1
4.855403900146484 2.186251640319824 0.6995898485183716 4724328 0 -1
-3.7896745204925537 3.411104917526245 1.6872460842132568 4726897 0 -1
-4.3282036781311035 3.022458791732788 0.9876562356948853 4212104 0 -1
-4.937061309814453 1.6202646493911743 1.3580273389816284 2912910 0 -1
-4.092319965362549 3.1842241287231445 1.3991796970367432 2912910 0 -1
-0.9351131319999695 4.998226642608643 -1.7283984422683716 2912910 0 -1
-4.437658309936523 3.0105035305023193 0.6624280214309692 4456788 0 -1
-4.435826778411865 2.9207656383514404 0.9936420321464539 4456788 0 -1
4.713005542755127 2.626469373703003 0.28981226682662964 4456788 0 -1
4.99810791015625 1.7726691961288452 1.0350438356399536 4456788 0 -1
-5.166932106018066 1.0276215076446533 1.2006508111953735 4456788 0 -1
-4.569075584411621 2.825303316116333 -0.5796245336532593 4456788 0 -1
-4.847325801849365 1.719191551208496 1.6560701131820679 4523353 0 -1
5.095143795013428 1.3749207258224487 1.1592490673065186 4523353 0 -1
-3.9509894847869873 3.3131980895996094 1.6146682500839233 4724328 0 -1
-4.69980525970459 2.6191132068634033 0.49682101607322693 4729209 0 -1
5.032262325286865 1.7847826480865479 0.8280350565910339 4729209 0 -1
-4.059133052825928 3.2398629188537598 1.4904630184173584 4212104 0 -1
-3.763122081756592 3.4655425548553467 1.7388736009597778 4212104 0 -1
0.04005631431937218 5.227474212646484 -1.3662577867507935 4212104 0 -1
5.175723552703857 1.2246942520141602 0.9522402882575989 4212104 0 -1
-4.388582706451416 2.977210521697998 1.0350438356399536 3887499 0 -1
-4.077149868011475 3.2542431354522705 1.4076595306396484 3887499 0 -1
4.178897380828857 3.251589775085449 1.0764455795288086 3302798 0 -1
5.086956977844238 1.5265311002731323 0.9936420321464539 3302798 0 -1
-5.087151527404785 1.2037360668182373 1.3662577867507935 2912910 0 -1
-4.3746514320373535 2.967759609222412 1.1178473234176636 2912910 0 -1
-4.077149868011475 3.2542431354522705 1.4076595306396484 2912910 0 -1
-5.144895553588867 1.5439176559448242 0.833023190498352 4456788 0 -1
-4.479269027709961 3.0387320518493652 0.49981391429901123 4456788 0 -1
-4.193057060241699 3.3467562198638916 0.874674379825592 4456788 0 -1
5.119331359863281 1.8156633377075195 0.208255797624588 4456788 0 -1
3.854292392730713 3.7945754528045654 0.5414651036262512 4456788 0 -1
-5.224477291107178 1.0390663146972656 1.0829302072525024 4456788 0 -1
-5.097841262817383 1.3756486177444458 1.291185975074768 4456788 0 -1
-4.616623401641846 2.8547046184539795 0.2915581166744232 4456788 0 -1
-4.8889923095703125 1.7339694499969482 1.6243952512741089 4523353 0 -1
-5.116838455200195 1.380774974822998 1.207883596420288 4726897 0 -1
5.115383625030518 1.6787872314453125 0.7497208714485168 4726897 0 -1
-4.118727207183838 3.287428855895996 1.3328371047973633 4212104 0 -1
-3.7857913970947266 3.486419439315796 1.749348759651184 4212104 0 -1
-4.475005149841309 2.9465627670288086 0.9163255095481873 3887499 0 -1
-4.11035680770874 3.280747890472412 1.3744882345199585 3887499 0 -1
-3.24286150932312 4.179721355438232 1.2495348453521729 3887499 0 -1
2.5561511516571045 4.450389862060547 1.7909998893737793 3887499 0 -1
-3.76440691947937 3.4667258262634277 1.8326510190963745 3302798 0 -1
3.994283437728882 3.678424119949341 0.24990695714950562 3302798 0 -1
4.950371265411377 2.1164357662200928 0.7497208714485168 3302798 0 -1
5.131886959075928 1.5400139093399048 0.9163255095481873 3302798 0 -1
-4.3935747146606445 2.9805972576141357 1.1662324666976929 2912910 0 -1
-5.198058128356934 1.0338119268417358 1.207883596420288 2912910 0 -1
-4.449539661407471 3.107189655303955 0.670409083366394 4456788 0 -1
-4.003593921661377 3.5209665298461914 1.2151165008544922 4456788 0 -1
5.148320198059082 1.8259447813034058 0.25140342116355896 4456788 0 -1
4.703386306762695 2.717648983001709 0.6285085082054138 4456788 0 -1
-4.184011936187744 3.2555692195892334 1.340818166732788 4456788 0 -1
-4.646045207977295 2.8728976249694824 0.25140342116355896 4456788 0 -1
-4.994085788726807 1.6389793157577515 1.508420467376709 4523353 0 -1
-5.026825904846191 1.649724006652832 1.3827186822891235 4212104 0 -1
-4.460500717163086 3.0259997844696045 0.9218124747276306 4212104 0 -1
-4.018136024475098 3.3695056438446045 1.5503209829330444 4212104 0 -1
5.1242570877075195 1.5377243757247925 1.1313153505325317 2912910 0 -1
-4.200362682342529 3.268292188644409 1.3909492492675781 4456788 0 -1
-4.676449298858643 2.891698122024536 0.1685999035835266 4456788 0 -1
-4.543811321258545 2.8096811771392822 -1.4415791034698486 4456788 0 -1
-4.648172378540039 3.060584545135498 0.0852975845336914 4456788 0 -1
-4.518449783325195 3.973757266998291 -0.23070253431797028 4456788 0 -1
-4.515260696411133 3.9709525108337402 -0.3229835331439972 4456788 0 -1
-5.79039192199707 1.7376229763031006 0.32472941279411316 4456788 0 -1
-5.243855953216553 2.8135087490081787 1.1133579015731812 4456788 0 -1
-4.415487289428711 4.066320419311523 0.7886285185813904 4456788 0 -1
-4.035804271697998 4.512599468231201 -0.04638991504907608 4456788 0 -1
-3.495594024658203 4.879786014556885 0.7886285185813904 4456788 0 -1
-4.829439163208008 3.564828872680664 -0.7886285185813904 4456788 0 -1
-4.403806209564209 4.148025035858154 0.2319495677947998 4456788 0 -1
-5.903644561767578 1.1741420030593872 -0.6494588255882263 4456788 0 -1
-5.287052631378174 2.9463751316070557 0.13916973769664764 4456788 0 -1
-5.041634559631348 3.319659471511841 0.4638991355895996 4456788 0 -1
-3.8802449703216553 4.613808631896973 0.5566789507865906 4456788 0 -1
-4.544075965881348 3.9962940216064453 -0.18555966019630432 4456788 0 -1
-4.357450485229492 4.196694850921631 -0.2319495677947998 4456788 0 -1
-4.590444087982178 3.9429450035095215 -0.18555966019630432 4456788 0 -1
-4.354374885559082 4.193732738494873 -0.32472941279411316 4456788 0 -1
-5.560903549194336 2.3774571418762207 0.2783394753932953 4725613 0 -1
-4.388372421264648 4.133487701416016 0.5566789507865906 4725613 0 -1
-4.029115676879883 4.412550926208496 0.9741882085800171 4725613 0 -1
-5.797206878662109 1.7396681308746338 0.13916973769664764 4664956 0 -1
-4.109743595123291 4.315670013427734 1.0669680833816528 4664956 0 -1
-5.457916736602783 2.578636646270752 0.4638991355895996 4341894 0 -1
-5.075589656829834 3.138507843017578 1.020578145980835 4341894 0 -1
-5.335380554199219 2.7504913806915283 0.7886285185813904 4045940 0 -1
-4.381610870361328 4.127119064331055 0.6494588255882263 4045940 0 -1
-0.3630902171134949 5.912086009979248 -1.2525277137756348 8705099 0 -1
-5.5932135581970215 1.9837342500686646 -1.352540373802185 4456788 0 -1
-4.427482604980469 4.170326232910156 -0.23319661617279053 4456788 0 -1
-4.663384437561035 3.9105944633483887 -0.09327864646911621 4456788 0 -1
-4.428654193878174 4.171429634094238 -0.18655729293823242 4456788 0 -1
-5.639214992523193 2.278920888900757 0.23319661617279053 4725613 0 -1
-4.408699035644531 4.1526336669921875 0.6063112020492554 4725613 0 -1
-5.828374862670898 1.7490211725234985 0.13991796970367432 4664956 0 -1
-4.705590724945068 3.850677013397217 0.27983593940734863 4664956 0 -1
-4.131839275360107 4.338872909545898 1.0727044343948364 4664956 0 -1
-5.43738317489624 2.687055826187134 0.5130325555801392 4341894 0 -1
-5.102877616882324 3.155381679534912 1.0260651111602783 4341894 0 -1
-5.300166606903076 2.8437211513519287 0.9327864646911621 2718350 0 -1
-4.956587791442871 3.263660192489624 1.352540373802185 2718350 0 -1
-4.383528709411621 4.128925323486328 0.886147141456604 2718350 0 -1
-3.798107862472534 4.516143321990967 1.4924583435058594 2718350 0 -1
-3.798107862472534 4.516143321990967 1.4924583435058594 2718350 0 -1
5.262657165527344 3.040799379348755 0.32647526264190674 2718350 0 -1
-5.72584867477417 2.030775547027588 0.37311458587646484 4045940 0 -1
-5.41030740737915 2.673675537109375 0.7928684949874878 4045940 0 -1
5.87224006652832 1.5846196413040161 -0.23319661617279053 4045940 0 -1
-0.6123458743095398 6.116764545440674 0.23569069802761078 2458766 4 -1
-0.6592361330986023 6.109889030456543 0.28282883763313293 2328718 4 -1
-0.9898718595504761 6.071512222290039 0.047138139605522156 2666112 4 -1
-0.9420706033706665 6.0747246742248535 0.23569069802761078 3257723 4 -1
-0.7067399024963379 6.10821533203125 0.18855255842208862 3257723 4 -1
-0.9427350759506226 6.079009532928467 0.047138139605522156 3651704 4 -1
-0.754188060760498 6.105268478393555 0.047138139605522156 3651704 4 -1
-0.9396758079528809 6.059282302856445 -0.8055883049964905 4523353 4 -1
-0.6160200238227844 6.153465747833252 0.04738754779100418 2588302 4 -1
-0.6631139516830444 6.145829200744629 0.18955019116401672 2523534 4 -1
-0.6157487034797668 6.150755405426025 0.18955019116401672 2458766 4 -1
-0.6631139516830444 6.145829200744629 0.18955019116401672 2070922 4 -1
-0.8052098155021667 6.128831386566162 0.18955019116401672 2271109 4 -1
-0.758000373840332 6.136129856109619 0.14216263592243195 2468738 4 -1
-0.758000373840332 6.136129856109619 0.14216263592243195 2666112 4 -1
-0.758000373840332 6.136129856109619 0.14216263592243195 2994813 4 -1
-0.7100616097450256 6.1369242668151855 0.2843252718448639 3257723 4 -1
-0.758000373840332 6.136129856109619 0.14216263592243195 3651704 4 -1
-0.8527504801750183 6.12368106842041 0.14216263592243195 4899181 4 -1
-0.8528756499290466 6.124580383300781 0.09477509558200836 5424489 4 -1
-0.9446215033531189 6.09117317199707 -0.8098282217979431 4523353 4 -1
-0.9472413063049316 6.108066558837891 -0.6669173836708069 4725613 4 -1
-0.9499380588531494 6.1254563331604 -0.47636955976486206 4600703 4 -1
-0.5716266632080078 6.190435886383057 -0.047636955976486206 4600703 4 -1
-0.9493488073348999 6.12165641784668 -0.5240064859390259 4471684 4 -1
-0.9487029910087585 6.117492198944092 -0.5716434717178345 4212104 4 -1
-0.5716434717178345 6.190617561340332 0 3757452 4 -1
-0.6191167831420898 6.184399127960205 0.14291086792945862 3432845 4 -1
-0.666427731513977 6.176541328430176 0.23818477988243103 2523534 4 -1
-0.6188257336616516 6.181492328643799 0.23818477988243103 2199437 4 -1
-0.6183889508247375 6.17712926864624 0.33345869183540344 2134668 4 -1
-0.7607579231262207 6.15845251083374 0.38109564781188965 2271109 4 -1
-0.7613853216171265 6.16353178024292 0.28582173585891724 2468738 4 -1
-0.7613853216171265 6.16353178024292 0.28582173585891724 2666112 4 -1
-0.7599504590034485 6.151916027069092 0.47636955976486206 3257723 4 -1
-0.856835663318634 6.153017520904541 0.23818477988243103 3651704 4 -1
-0.8565585017204285 6.151027202606201 0.28582173585891724 4045940 4 -1
-0.8079002499580383 6.1493096351623535 0.42873260378837585 4899181 4 -1
-0.8562308549880981 6.148674488067627 0.33345869183540344 5424489 4 -1
-0.8083052635192871 6.152392387390137 0.38109564781188965 6933851 4 -1
-0.8079002499580383 6.1493096351623535 0.42873260378837585 7589974 4 -1
-0.952200710773468 6.140046119689941 -0.670409083366394 4725613 4 -1
-0.5746363401412964 6.223029136657715 0 4725613 4 -1
-0.9543192386627197 6.153707027435303 -0.5267499685287476 4600703 4 -1
-0.5746363401412964 6.223029136657715 0 4600703 4 -1
-0.9536700248718262 6.1495208740234375 -0.5746363401412964 4471684 4 -1
-0.9536700248718262 6.1495208740234375 -0.5746363401412964 4212104 4 -1
-0.5746363401412964 6.223029136657715 0 3432845 4 -1
-0.6222302317619324 6.2154998779296875 0.19154545664787292 2199437 4 -1
-0.6222302317619324 6.2154998779296875 0.19154545664787292 2134668 4 -1
-0.6222302317619324 6.2154998779296875 0.19154545664787292 2070155 4 -1
-0.7650789022445679 6.193431377410889 0.335204541683197 2468738 4 -1
-0.7647409439086914 6.190695762634277 0.38309091329574585 2666112 4 -1
-0.7643577456474304 6.187593936920166 0.4309772551059723 2994813 4 -1
-0.8125372529029846 6.184603691101074 0.38309091329574585 3257723 4 -1
-0.8132073879241943 6.189704418182373 0.2873181700706482 3651704 4 -1
-0.8613216876983643 6.185232162475586 0.23943181335926056 4045940 4 -1
-0.7169446349143982 6.196413040161133 0.38309091329574585 4505456 4 -1
-0.8134704828262329 6.191707134246826 0.23943181335926056 4899181 4 -1
-0.7653716802597046 6.195801258087158 0.2873181700706482 5949540 4 -1
-0.8134704828262329 6.191707134246826 0.23943181335926056 6933851 4 -1
-0.7639292478561401 6.184124946594238 0.4788636267185211 7589974 4 -1
-0.9586370587348938 6.181549549102783 -0.5776292681694031 4600703 4 -1
-0.5776122808456421 6.2552571296691895 -0.048135772347450256 4600703 4 -1
-0.9579272866249084 6.176972389221191 -0.6257650256156921 4471684 4 -1
