VERSION .7
FIELDS x y z rgb label object
SIZE 4 4 4 4 4 4
TYPE F F F I I I
COUNT 1 1 1 1 1 1
WIDTH 454
HEIGHT 1
POINTS 454
VIEWPOINT 0 0 0 1 0 0 0
DATA ascii
-1.5406932830810547 2.108370780944824 -0.5521896481513977 4456788 7 -1
-1.4459028244018555 2.230024814605713 -0.24541760981082916 4456788 7 -1
-1.5479059219360352 2.1182408332824707 -0.4908352196216583 4017546 7 -1
-1.632861852645874 2.0628132820129395 -0.4499322772026062 3432845 7 -1
-1.430088996887207 2.250258684158325 -0.12270880490541458 3432845 7 -1
-1.6318681240081787 2.0615580081939697 -0.6210262775421143 4456788 7 -1
-1.425674319267273 2.2888240814208984 -0.1656070053577423 4456788 7 -1
-1.559482216835022 2.134082555770874 -0.5589236617088318 4456788 7 -1
-1.556849479675293 2.130479574203491 -0.5796245336532593 4456788 7 -1
-1.556849479675293 2.130479574203491 -0.5796245336532593 4456788 7 -1
-1.4469753503799438 2.276829481124878 -0.14490613341331482 4456788 7 -1
-2.0092973709106445 1.767079472541809 -0.3726157546043396 4456788 0 -1
-1.5512820482254028 2.122860908508301 -0.6210262775421143 4456788 7 -1
-1.4448010921478271 2.2734084129333496 -0.20700876414775848 4456788 7 -1
-1.637724757194519 2.0689566135406494 -0.5796245336532593 4456788 7 -1
-1.4851592779159546 2.2452480792999268 -0.22770963609218597 4456788 7 -1
-1.6404942274093628 2.072455406188965 -0.5589236617088318 4456788 7 -1
-1.503648042678833 2.228297710418701 -0.26911139488220215 4456788 7 -1
-1.5690186023712158 2.147132635116577 -0.47612014412879944 4017546 7 -1
-1.566782832145691 2.144073009490967 -0.49682101607322693 3887499 7 -1
-1.6685218811035156 2.065887689590454 -0.49682101607322693 3562893 7 -1
-1.670902967453003 2.068835735321045 -0.47612014412879944 3432845 7 -1
-1.6685218811035156 2.065887689590454 -0.49682101607322693 3302798 7 -1
-1.5650666952133179 2.184804677963257 -0.5028068423271179 4456788 7 -1
-1.5756067037582397 2.1561481952667236 -0.5866079330444336 4456788 7 -1
-1.857377290725708 2.7524988651275635 -0.46240270137786865 4456788 0 -1
-1.8338515758514404 2.77239727973938 -0.43671366572380066 4456788 0 -1
-1.8319337368011475 2.769497871398926 -0.46240270137786865 4456788 0 -1
-1.829904317855835 2.7664296627044678 -0.48809173703193665 4456788 0 -1
-1.8828552961349487 2.5766043663024902 1.0275615453720093 3302798 0 -1
-1.9376388788223267 2.704908609390259 -0.41102463006973267 3238030 0 -1
-1.8534798622131348 2.8020710945129395 -0.41501516103744507 4456788 0 -1
-1.8516559600830078 2.79931378364563 -0.4409535825252533 4456788 0 -1
-1.849719524383545 2.796386241912842 -0.4668920338153839 4456788 0 -1
-1.9935044050216675 2.728022813796997 -0.20750758051872253 3302798 0 -1
-2.7490317821502686 1.7550990581512451 -1.0213263034820557 4456788 0 -1
-1.8694603443145752 2.82623028755188 -0.4451935291290283 4456788 0 -1
-1.7142091989517212 7.010104656219482 -0.7786521911621094 2271109 0 -1
-1.7155832052230835 7.015723705291748 -0.7230342030525208 2468738 0 -1
-1.6775143146514893 7.102152347564697 -0.6172851324081421 13164576 0 -1
-1.7883514165878296 7.07086181640625 -0.9582260847091675 11197490 0 -1
-1.6264910697937012 7.136600971221924 -0.7327611446380615 11197490 0 -1
-1.6944259405136108 7.1737518310546875 0.509540855884552 6343264 4 -1
-1.7499252557754517 7.156162261962891 0.5661565065383911 10016830 4 -1
-1.7509067058563232 7.160175800323486 0.509540855884552 10672695 4 -1
-1.7476500272750854 7.146857738494873 0.6793878078460693 11197490 4 -1
-1.7051502466201782 7.219155788421631 0.22746022045612335 6343264 4 -1
-1.7057512998580933 7.221700668334961 0.11373011022806168 7589974 4 -1
-1.757634162902832 7.187686920166016 0.5686505436897278 8705099 4 -1
-1.758620023727417 7.191718578338623 0.5117855072021484 10016830 4 -1
-1.759501576423645 7.195323944091797 0.4549204409122467 10672695 4 -1
-1.7602791786193848 7.198503494262695 0.39805540442466736 11197490 4 -1
-1.6514499187469482 7.246114253997803 0.5711446404457092 3257723 4 -1
-1.6532046794891357 7.25381326675415 0.4569157063961029 4899181 4 -1
-1.7073367834091187 7.228413105010986 0.6282591223716736 6343264 4 -1
-1.712175965309143 7.248900890350342 0.2855723202228546 7589974 4 -1
-1.7109674215316772 7.243784427642822 0.39980125427246094 8705099 4 -1
-1.7116221189498901 7.246556282043457 0.3426867723464966 10672695 4 -1
-1.7692484855651855 7.235182762145996 0.2855723202228546 11197490 4 -1
-1.6050091981887817 7.306684494018555 -0.28681936860084534 2718350 4 -1
-1.6595919132232666 7.281838893890381 0.5162748694419861 2070155 4 -1
-1.663112759590149 7.297287464141846 0.17209161818027496 2271109 4 -1
-1.7158567905426025 7.264484405517578 0.5736387372016907 2994813 4 -1
-1.6604238748550415 7.285489082336426 0.4589109718799591 3257723 4 -1
-1.7184388637542725 7.275416851043701 0.4015471041202545 4899181 4 -1
-1.719652771949768 7.280555725097656 0.28681936860084534 5949540 4 -1
-1.774046540260315 7.2548041343688965 0.5162748694419861 6343264 4 -1
-1.7184388637542725 7.275416851043701 0.4015471041202545 7589974 4 -1
-1.7184388637542725 7.275416851043701 0.4015471041202545 8705099 4 -1
-1.77744460105896 7.268700122833252 0.22945548593997955 11197490 4 -1
-1.6703436374664307 7.329014778137207 0.17283983528614044 3107982 4 -1
-1.6705889701843262 7.3300909996032715 0.11522655934095383 2977934 4 -1
-1.6695585250854492 7.3255696296691895 0.28806641697883606 2782862 4 -1
-1.6131244897842407 7.343628883361816 0.05761327967047691 2718350 4 -1
-1.6695585250854492 7.3255696296691895 0.28806641697883606 2588302 4 -1
-1.6705889701843262 7.3300909996032715 0.11522655934095383 2070155 4 -1
-1.6690185070037842 7.323200225830078 0.3456796705722809 2271109 4 -1
-1.72514808177948 7.303821086883545 0.4609062373638153 2468738 4 -1
-1.7259104251861572 7.307048797607422 0.4032929539680481 2994813 4 -1
-1.784123182296753 7.296011447906494 0.3456796705722809 5949540 4 -1
-1.7847003936767578 7.298372268676758 0.28806641697883606 6343264 4 -1
-1.7242835760116577 7.300161838531494 0.5185195207595825 7589974 4 -1
-1.7259104251861572 7.307048797607422 0.4032929539680481 8180304 4 -1
-1.8427587747573853 7.285980224609375 0.23045311868190765 11197490 4 -1
-1.899842381477356 7.26924991607666 0.28806641697883606 11918891 4 -1
-1.8992278575897217 7.2668986320495605 0.3456796705722809 12640037 4 -1
-1.900735855102539 7.272668361663818 0.17283983528614044 13164576 4 -1
-1.6780179738998413 7.362687587738037 0 2977934 4 -1
-1.6767860651016235 7.357281684875488 0.2893134355545044 2782862 4 -1
-1.677229642868042 7.359228134155273 0.23145075142383575 2718350 4 -1
-1.6748623847961426 7.348841190338135 0.4629015028476715 2070922 4 -1
-1.7333818674087524 7.338681221008301 0.40503883361816406 2468738 4 -1
-1.7333818674087524 7.338681221008301 0.40503883361816406 2994813 4 -1
-1.8481239080429077 7.307193279266357 0.4629015028476715 5949540 4 -1
-1.8502466678619385 7.315585613250732 0.2893134355545044 6343264 4 -1
-1.8511167764663696 7.319025993347168 0.17358806729316711 6933851 4 -1
-1.9085716009140015 7.302649974822998 0.23145075142383575 7589974 4 -1
-1.9085716009140015 7.302649974822998 0.23145075142383575 11197490 4 -1
-1.9067200422286987 7.295565128326416 0.40503883361816406 11918891 4 -1
-1.9058778285980225 7.292342662811279 0.4629015028476715 13164576 4 -1
-1.6848055124282837 7.39246940612793 -0.1743362843990326 3562893 4 -1
-1.6848055124282837 7.39246940612793 0.1743362843990326 3302798 4 -1
-1.6844590902328491 7.390949249267578 0.23244838416576385 3107982 4 -1
-1.6844590902328491 7.390949249267578 -0.23244838416576385 2977934 4 -1
-1.6844590902328491 7.390949249267578 0.23244838416576385 2782862 4 -1
-1.734692096710205 7.344228267669678 0.7554572820663452 2718350 4 -1
-1.7415194511413574 7.373133659362793 0.3486725687980652 2271109 4 -1
-1.742082953453064 7.375519275665283 0.2905604839324951 2468738 4 -1
-1.7400844097137451 7.367057800292969 0.4648967683315277 2994813 4 -1
-1.8576208353042603 7.344742298126221 0.3486725687980652 4899181 4 -1
-1.8590956926345825 7.350573539733887 0.1743362843990326 6343264 4 -1
-1.8587133884429932 7.349062442779541 0.23244838416576385 6933851 4 -1
-1.9167982339859009 7.334126949310303 0.23244838416576385 7589974 4 -1
-1.8517093658447266 7.321369171142578 0.6973451375961304 10672695 4 -1
-1.8529698848724365 7.326353073120117 0.6392330527305603 11918891 4 -1
-1.9828343391418457 7.348166465759277 -0.29180753231048584 3302798 4 -1
-1.744614839553833 7.3862385749816895 0.641976535320282 2718350 4 -1
-1.6310490369796753 7.425229072570801 0.4668920338153839 2328718 4 -1
-1.983766794204712 7.351622581481934 0.17508451640605927 2264205 4 -1
-1.690047264099121 7.415469169616699 0.4085305333137512 2264205 4 -1
-1.6302317380905151 7.4215087890625 0.5252535343170166 2199437 4 -1
-1.750022530555725 7.409133434295654 0.23344601690769196 2271109 4 -1
-1.7489938735961914 7.404778003692627 0.35016903281211853 2468738 4 -1
-1.75063955783844 7.411745548248291 -0.11672300845384598 2994813 4 -1
-1.7421371936798096 7.375748634338379 0.7586995959281921 4899181 4 -1
-1.8673489093780518 7.383205413818359 0.11672300845384598 6343264 4 -1
-1.8609224557876587 7.357796669006348 0.641976535320282 9360965 4 -1
-1.9202674627304077 7.347401142120361 0.5836150646209717 10672695 4 -1
-1.9880268573760986 7.367409706115723 -0.5274982452392578 4212104 4 -1
-1.9880268573760986 7.367409706115723 -0.5274982452392578 3887499 4 -1
-1.9899024963378906 7.374360084533691 -0.4102763831615448 3302798 4 -1
-1.9899024963378906 7.374360084533691 -0.4102763831615448 3107982 4 -1
-1.6387431621551514 7.460256099700928 0.4102763831615448 2328718 4 -1
-1.5757907629013062 7.451941967010498 0.703330934047699 2199437 0 -1
-1.9899024963378906 7.374360084533691 0.4102763831615448 4045940 4 -1
-1.9913079738616943 7.379569053649902 0.29305458068847656 4505456 4 -1
-1.992537021636963 7.384123802185059 -0.11722182482481003 4899181 4 -1
-1.9913079738616943 7.379569053649902 0.29305458068847656 5949540 4 -1
-1.8631197214126587 7.366483688354492 0.8791636824607849 8705099 4 -1
-1.8676038980484009 7.384213447570801 0.703330934047699 9360965 4 -1
-1.6940726041793823 7.433130741119385 -0.9417651295661926 4456788 0 -1
-1.9983701705932617 7.405740737915039 -0.41202226281166077 3887499 4 -1
-1.9991347789764404 7.40857458114624 -0.35316193103790283 3302798 4 -1
-1.9974874258041382 7.402469158172607 -0.4708825647830963 3238030 4 -1
-1.9974874258041382 7.402469158172607 -0.4708825647830963 3107982 4 -1
-1.9983701705932617 7.405740737915039 -0.41202226281166077 2912910 4 -1
-1.5824962854385376 7.483652114868164 0.7063238620758057 2328718 0 -1
-1.9983701705932617 7.405740737915039 -0.41202226281166077 2199437 4 -1
-1.5227569341659546 7.490256309509277 0.7651841640472412 2199437 0 -1
-1.9377663135528564 7.414355754852295 0.5297428965568542 4505456 4 -1
-2.0007221698760986 7.414456844329834 -0.17658096551895142 4899181 4 -1
-2.001192092895508 7.41619873046875 0.05886032059788704 5949540 4 -1
-1.8693214654922485 7.391005039215088 0.9417651295661926 8705099 4 -1
-1.8693214654922485 7.391005039215088 0.9417651295661926 9360965 4 -1
-1.8808189630508423 7.436463832855225 0.41202226281166077 10016830 4 -1
-2.058598756790161 7.3948493003845215 0.2943015992641449 10672695 4 -1
-1.8181769847869873 7.435271263122559 0.6474635601043701 10672695 4 -1
-2.007605791091919 7.439966678619385 -0.3546583652496338 3887499 4 -1
-2.004946231842041 7.430110931396484 -0.5319875478744507 3238030 4 -1
-1.9491889476776123 7.458061695098877 -0.2955486476421356 2912910 4 -1
-1.6546350717544556 7.532602787017822 0.1773291826248169 2912910 4 -1
-1.82182776927948 7.450201034545898 0.8275362253189087 2199437 4 -1
-2.0094947814941406 7.446967124938965 -0.11821945756673813 2072968 4 -1
-0.6425265669822693 7.595982074737549 1.1821945905685425 5949540 0 -1
-1.8870081901550293 7.460935592651367 0.5319875478744507 8180304 4 -1
-1.806178331375122 7.386204242706299 1.3004140853881836 8705099 0 -1
-1.8789759874343872 7.429177284240723 -0.8866459727287292 9360965 0 -1
-1.937981128692627 7.415177822113037 -1.1278235912322998 3887499 0 -1
-1.9333256483078003 7.397364616394043 -1.2465418577194214 3238030 0 -1
-1.8900450468063354 7.47294282913208 -0.7716687917709351 4505456 0 -1
-2.136866331100464 7.445998668670654 -0.05935913696885109 4899181 4 -1
-1.899436593055725 7.510075569152832 -0.05935913696885109 4899181 4 -1
-0.47129079699516296 7.673882961273193 0.9497461915016174 7589974 0 -1
-1.9586215019226074 7.494152545928955 0.11871827393770218 8180304 4 -1
-0.7702175974845886 7.693755626678467 0.4748730957508087 8180304 0 -1
-1.9072494506835938 7.540966033935547 -0.11921709030866623 2588302 4 -1
-1.9522429704666138 7.4697465896606445 -0.9537367224693298 2072968 0 -1
-1.9060730934143066 7.536314487457275 -0.2980427145957947 4505456 4 -1
3.514322280883789 6.93388032913208 0.2980427145957947 11197490 5 -1
-0.5377084612846375 7.778626441955566 -0.4788636267185211 2588302 0 -1
-2.079224109649658 7.468939304351807 -0.9577272534370422 4505456 0 -1
3.350470542907715 7.052835464477539 0.23943181335926056 13164576 5 -1
-2.344118356704712 7.485757827758789 -0.060107361525297165 2782862 0 -1
-4.308660984039307 6.513787746429443 -1.0260651111602783 10016830 0 -1
3.3195250034332275 7.143102169036865 -0.06035676971077919 10016830 5 -1
3.2112786769866943 7.226013660430908 -0.18181852996349335 7589974 5 -1
2.894627809524536 7.318539142608643 -0.7878803014755249 8180304 5 -1
3.3939459323883057 7.144352436065674 0 8180304 5 -1
3.3939459323883057 7.144352436065674 0 8180304 5 -1
2.9005439281463623 7.333496570587158 -0.6060617566108704 10016830 5 -1
3.3930492401123047 7.142464637756348 0.18181852996349335 10016830 5 -1
-4.381473541259766 6.623865127563477 0.06085558608174324 4505456 0 -1
3.164397716522217 7.284194469451904 -0.06085558608174324 6343264 5 -1
3.2244937419891357 7.2557501792907715 -0.18256676197052002 6933851 5 -1
2.915574789047241 7.371499538421631 -0.4868446886539459 7589974 5 -1
3.285815715789795 7.229467868804932 -0.12171117216348648 7589974 5 -1
3.6989810466766357 6.996143817901611 0.6694114804267883 7589974 5 -1
3.4678518772125244 7.142637729644775 0.18256676197052002 8180304 5 -1
3.1773664951324463 7.314047813415527 -0.061104994267225266 6343264 5 -1
3.2339026927948 7.276922225952148 -0.42773497104644775 6933851 5 -1
3.177086591720581 7.313403606414795 -0.12220998853445053 8180304 5 -1
3.2456681728363037 7.303396701812744 -0.4908352196216583 2468738 5 -1
3.2493958473205566 7.3117852210998535 -0.30677202343940735 2666112 5 -1
3.250255584716797 7.313719272613525 -0.24541760981082916 4045940 5 -1
3.492166757583618 7.192718505859375 -0.42948082089424133 4045940 5 -1
3.3744921684265137 7.261383056640625 0 8180304 5 -1
3.188930034637451 7.3406662940979 0.24541760981082916 10016830 5 -1
3.497098207473755 7.202876091003418 -0.06135440245270729 10016830 5 -1
3.6502792835235596 6.904030799865723 -1.9097181558609009 4456788 0 -1
3.498922109603882 7.206632137298584 -0.6776419281959534 2782862 5 -1
3.496541738510132 7.201729774475098 -0.7392457127571106 2718350 5 -1
3.496541738510132 7.201729774475098 -0.7392457127571106 2588302 5 -1
3.496541738510132 7.201729774475098 -0.7392457127571106 2523534 5 -1
3.5030574798583984 7.215150356292725 -0.5544342994689941 2070922 5 -1
3.5048136711120605 7.218767166137695 -0.4928304851055145 2006409 5 -1
3.261549711227417 7.339133262634277 -0.3696228563785553 2468738 5 -1
3.507704257965088 7.2247209548950195 -0.3696228563785553 2468738 5 -1
3.203022003173828 7.373104572296143 -0.12320762127637863 4505456 5 -1
3.509767532348633 7.228970527648926 -0.24641524255275726 10016830 5 -1
3.9518914222717285 6.8804450035095215 -1.4844772815704346 4456788 0 -1
4.419836521148682 6.681861877441406 -0.9896515011787415 4456788 0 -1
3.7712738513946533 7.132875919342041 -0.24741287529468536 3887499 5 -1
3.51900315284729 7.247992992401123 -0.4948257505893707 3432845 5 -1
3.569643974304199 7.195326328277588 -0.8040918707847595 2912910 5 -1
3.513087749481201 7.235808849334717 -0.680385410785675 2782862 5 -1
3.513087749481201 7.235808849334717 -0.680385410785675 2718350 5 -1
3.513087749481201 7.235808849334717 -0.680385410785675 2588302 5 -1
3.5080983638763428 7.225532531738281 -0.8040918707847595 2523534 5 -1
3.510697841644287 7.230886459350586 -0.7422386407852173 2458766 5 -1
3.5205583572387695 7.251195907592773 -0.4329725205898285 2070922 5 -1
3.51900315284729 7.247992992401123 -0.4948257505893707 2006409 5 -1
3.1402482986450195 7.396785736083984 -1.0557446479797363 3887499 5 -1
3.850362777709961 7.1318230628967285 0 3887499 5 -1
3.4712069034576416 7.3069891929626465 -0.49682101607322693 3432845 5 -1
3.5272533893585205 7.26498556137085 -0.6831288933753967 2782862 5 -1
3.52944278717041 7.269495010375977 -0.6210262775421143 2718350 5 -1
3.4712069034576416 7.3069891929626465 -0.49682101607322693 2588302 5 -1
3.465371608734131 7.294705867767334 -0.6831288933753967 2523534 5 -1
3.465371608734131 7.294705867767334 -0.6831288933753967 2458766 5 -1
3.475193738937378 7.3153815269470215 -0.31051313877105713 2070922 5 -1
3.472740888595581 7.31021785736084 -0.43471840023994446 2006409 5 -1
1.859766960144043 7.873762607574463 -0.8729285001754761 3887499 0 -1
2.8959290981292725 7.50169038772583 -1.2470407485961914 3887499 0 -1
3.2235960960388184 7.420464515686035 -0.8729285001754761 3887499 5 -1
3.8033626079559326 7.193567752838135 0.06235203519463539 3887499 5 -1
3.476922035217285 7.319019317626953 -0.7482244372367859 3757452 5 -1
3.471565008163452 7.307742595672607 -0.8729285001754761 3432845 5 -1
3.4880218505859375 7.3423848152160645 -0.37411221861839294 2782862 5 -1
3.730123281478882 7.205155849456787 -0.6235203742980957 2782862 5 -1
3.471565008163452 7.307742595672607 -0.8729285001754761 2523534 5 -1
3.170604944229126 7.468290328979492 -0.6235203742980957 4045940 5 -1
3.366614580154419 7.407241344451904 0.12470407038927078 4505456 5 -1
2.8597612380981445 7.592750549316406 -0.6235203742980957 6933851 0 -1
3.1798603534698486 7.490091800689697 -0.06235203519463539 6933851 5 -1
3.4916114807128906 7.349941253662109 -0.06235203519463539 6933851 5 -1
3.5503079891204834 7.312470436096191 -0.37411221861839294 7589974 5 -1
1.9324023723602295 7.902385711669922 0.18705610930919647 8180304 0 -1
2.9897329807281494 7.558995246887207 -0.37411221861839294 8180304 5 -1
3.242210626602173 7.463314056396484 0.06235203519463539 8705099 5 -1
3.2414491176605225 7.4615607261657715 -0.18705610930919647 9360965 5 -1
2.857987403869629 7.588040351867676 -0.6858723759651184 10016830 0 -1
3.0235724449157715 7.463840007781982 -1.3772317171096802 4147337 0 -1
3.684692144393921 7.270025730133057 -0.5634129643440247 4147337 5 -1
3.620208978652954 7.297250270843506 -0.6260144114494324 4017546 5 -1
2.9198381900787354 7.207767009735107 -2.5040576457977295 3432845 0 -1
3.796652317047119 7.1808762550354 -0.8764201998710632 3432845 0 -1
3.4882450103759766 7.3428544998168945 -0.8138187527656555 3302798 5 -1
3.8794660568237305 7.185729503631592 -0.25040578842163086 2782862 5 -1
3.1791484355926514 7.488414764404297 -0.7512173056602478 2588302 5 -1
3.192298650741577 7.519389629364014 0.12520289421081543 2072968 5 -1
3.50557804107666 7.379340648651123 -0.06260144710540771 4505456 5 -1
3.2544147968292236 7.4914069175720215 0.18780432641506195 4899181 5 -1
3.2544147968292236 7.4914069175720215 0.18780432641506195 4899181 5 -1
3.6865391731262207 7.273670673370361 0.5008115768432617 8180304 5 -1
2.815741539001465 7.665283203125 -0.25040578842163086 8705099 0 -1
3.3163177967071533 7.462372303009033 0.25040578842163086 8705099 5 -1
3.680341958999634 7.261443138122559 0.6886158585548401 11197490 5 -1
-6.519746780395508 4.552850723266602 2.0112273693084717 4147337 0 -1
2.060332775115967 7.88332462310791 -0.9427627921104431 4147337 0 -1
3.22147274017334 7.415576934814453 -1.3827186822891235 3562893 0 -1
1.9122940301895142 7.820154666900635 -1.571271300315857 3432845 0 -1
3.762073278427124 7.266870975494385 -0.5656576752662659 3302798 5 -1
3.634632110595703 7.326322555541992 0.6285085082054138 7589974 5 -1
3.1865341663360596 7.335150718688965 -1.8226747512817383 8180304 0 -1
3.6178500652313232 7.292494773864746 1.0056136846542358 9360965 0 -1
3.567322015762329 7.347513675689697 0.7542102336883545 11197490 5 -1
-6.074552536010742 5.4677348136901855 -1.0096042156219482 6933851 0 -1
3.1526966094970703 7.601090431213379 0.31550130248069763 7589974 5 -1
3.7888693809509277 7.166155815124512 1.4513059854507446 7589974 0 -1
3.5788261890411377 7.371208667755127 0.8203033804893494 8180304 5 -1
3.803845167160034 7.194480895996094 1.4570423364639282 6933851 0 -1
3.609790086746216 7.43498420715332 0.763188898563385 6343264 5 -1
3.6165168285369873 7.44883918762207 0.5723916888237 9360965 5 -1
1.5960246324539185 8.177396774291992 -0.1276969611644745 7589974 0 -1
3.127748966217041 7.721004962921143 -0.19154545664787292 7589974 5 -1
3.4461982250213623 7.582342147827148 0.255393922328949 7589974 5 -1
5.254271507263184 6.375571250915527 1.0854241847991943 7589974 0 -1
3.568791151046753 7.512406349182129 0.510787844657898 8180304 5 -1
1.6007529497146606 8.20162296295166 -0.3845873475074768 7589974 0 -1
6.717621803283691 4.958582401275635 0.5127831101417542 7589974 0 -1
3.5340070724487305 7.6046342849731445 0.45043110847473145 6933851 5 -1
3.4054975509643555 7.6630449295043945 0.45043110847473145 7589974 5 -1
5.098586082458496 6.57156229019165 1.158251404762268 7589974 0 -1
-6.427150249481201 5.785109996795654 -1.8994923830032349 2072968 0 -1
-6.195226669311523 6.099240303039551 -1.838387370109558 2328718 0 -1
-6.638192653656006 5.566617965698242 -2.1184728145599365 2458766 0 -1
-6.583444118499756 5.520707130432129 -2.3918240070343018 2328718 0 -1
-6.237720966339111 6.14107608795166 -1.7084457874298096 2328718 0 -1
9.533161163330078 4.504019260406494 3.0258195400238037 13164576 0 -1
9.643731117248535 4.556258678436279 2.697598457336426 12640037 0 -1
9.561450004577637 4.517384052276611 3.0347983837127686 13164576 0 -1
9.672263145446777 4.569738864898682 2.7055795192718506 12640037 0 -1
9.544535636901855 4.509392738342285 3.2128756046295166 13164576 0 -1
9.468093872070312 4.678959846496582 3.307152032852173 13164576 0 -1
9.54235553741455 4.715658664703369 3.146782636642456 13164576 0 -1
5.560554504394531 9.681209564208984 0 2782862 6 -1
5.662396430969238 9.6593656539917 -0.08579640090465546 3107982 6 -1
5.662562370300293 9.659648895263672 0 2977934 6 -1
5.662562370300293 9.659648895263672 0 2912910 6 -1
5.576602458953857 9.709149360656738 0.08579640090465546 2782862 6 -1
5.576111316680908 9.708293914794922 0.1715928018093109 2718350 6 -1
5.576602458953857 9.709149360656738 0.08579640090465546 2523534 6 -1
5.576111316680908 9.708293914794922 0.1715928018093109 2458766 6 -1
5.67885684967041 9.687445640563965 -0.08604580909013748 3107982 6 -1
5.5914998054504395 9.735086441040039 0.25813743472099304 2977934 6 -1
5.67885684967041 9.687445640563965 -0.08604580909013748 2912910 6 -1
5.592320919036865 9.736515998840332 0.17209161818027496 2782862 6 -1
5.592813491821289 9.737373352050781 0.08604580909013748 2523534 6 -1
5.506770133972168 9.786291122436523 -0.08604580909013748 2070922 6 -1
5.506770133972168 9.786291122436523 -0.08604580909013748 2006409 6 -1
5.522893905639648 9.814945220947266 0 2977934 6 -1
5.8665242195129395 9.610013961791992 -0.2588856518268585 2977934 6 -1
5.608530521392822 9.764738082885742 0.172590434551239 2523534 6 -1
5.522893905639648 9.814945220947266 0 2070922 6 -1
5.522731781005859 9.814657211303711 0.0862952172756195 2006409 6 -1
5.882269859313965 9.635807037353516 -0.34617850184440613 4147337 6 -1
5.878811836242676 9.630143165588379 -0.519267737865448 4017546 6 -1
5.882269859313965 9.635807037353516 -0.34617850184440613 3887499 6 -1
5.796957492828369 9.69007682800293 -0.259633868932724 2977934 6 -1
5.624740123748779 9.792959213256836 0.17308925092220306 2264205 6 -1
5.711777687072754 9.74360466003418 0.08654462546110153 2199437 6 -1
5.538693428039551 9.843023300170898 -0.08654462546110153 2134668 6 -1
5.625235557556152 9.793822288513184 -0.08654462546110153 2070922 6 -1
5.815200328826904 9.72057056427002 0 4147337 6 -1
5.8124680519104 9.71600341796875 -0.34717613458633423 4017546 6 -1
5.813663482666016 9.718002319335938 -0.2603820860385895 3887499 6 -1
5.725715160369873 9.767379760742188 -0.34717613458633423 2977934 6 -1
5.8109307289123535 9.713434219360352 -0.4339701533317566 2588302 6 -1
5.7284064292907715 9.771970748901367 0 2199437 6 -1
5.727733612060547 9.77082347869873 -0.17358806729316711 2134668 6 -1
5.728238105773926 9.771683692932129 -0.08679403364658356 2072968 6 -1
5.641446590423584 9.822046279907227 -0.08679403364658356 2666112 6 -1
5.6389617919921875 9.817720413208008 -0.34717613458633423 2994813 6 -1
5.820943355560303 9.730170249938965 -0.6963475346565247 4212104 6 -1
5.830369472503662 9.745927810668945 0.26113033294677734 4147337 6 -1
5.831225872039795 9.747358322143555 -0.17408688366413116 4017546 6 -1
5.82351541519165 9.73447036743164 -0.6093040704727173 3887499 6 -1
5.763021945953369 9.63335132598877 -1.7408688068389893 3692940 0 -1
5.811158180236816 9.713813781738281 -0.957477867603302 2977934 6 -1
5.740649223327637 9.792856216430664 -0.4352172017097473 2588302 6 -1
5.744698524475098 9.799763679504395 0.08704344183206558 2199437 6 -1
5.743349075317383 9.79746150970459 -0.26113033294677734 2134668 6 -1
5.744698524475098 9.799763679504395 -0.08704344183206558 2070155 6 -1
5.657159328460693 9.849403381347656 -0.17408688366413116 2666112 6 -1
5.6563286781311035 9.847956657409668 -0.26113033294677734 2994813 6 -1
5.6563286781311035 9.847956657409668 -0.26113033294677734 5424489 6 -1
5.848449230194092 9.776148796081543 0.08729285001754761 4017546 6 -1
5.809861183166504 9.71164608001709 -1.3093926906585693 3887499 6 -1
5.809861183166504 9.71164608001709 -1.3093926906585693 2977934 6 -1
5.74439001083374 9.799237251281738 -0.8729285001754761 2588302 6 -1
5.596432685852051 9.546839714050293 -2.706078290939331 2199437 0 -1
5.757098197937012 9.820916175842285 -0.43646425008773804 2134668 6 -1
5.67403507232666 9.878785133361816 0 2994813 6 -1
5.761328220367432 9.828131675720215 0 5424489 6 -1
5.773527145385742 9.650910377502441 -2.013471841812134 3887499 0 -1
5.74905252456665 9.807190895080566 -1.1380493640899658 2588302 6 -1
5.679545879364014 9.888379096984863 0.7003380656242371 2072968 6 -1
5.250067710876465 10.141100883483887 -0.35016903281211853 4045940 0 -1
5.944304466247559 9.7374267578125 0.6127958297729492 4045940 6 -1
5.682055473327637 9.892748832702637 -0.6127958297729492 6343264 6 -1
5.844459533691406 9.76948070526123 -0.9629648327827454 9360965 6 -1
5.785909175872803 9.870063781738281 0.6145416498184204 3302798 6 -1
5.70645809173584 9.935235023498535 0 2070922 6 -1
5.6957268714904785 9.91655158996582 0.7023333311080933 2072968 6 -1
5.612725734710693 9.974588394165039 0.5267499685287476 2666112 6 -1
5.610578536987305 9.970772743225098 0.6145416498184204 2994813 6 -1
5.617181777954102 9.982507705688477 0.2633749842643738 3257723 6 -1
5.608100414276123 9.966368675231934 0.7023333311080933 3651704 6 -1
5.267345428466797 10.174474716186523 -0.08779166638851166 4045940 0 -1
5.4246416091918945 9.640336990356445 -2.9849166870117188 4505456 0 -1
5.602148056030273 9.955790519714355 -0.8779166340827942 6343264 6 -1
5.192117214202881 10.029163360595703 -1.931416630744934 9360965 0 -1
5.520473480224609 10.015172004699707 -0.7023333311080933 10016830 6 -1
5.610578536987305 9.970772743225098 -0.6145416498184204 10672695 6 -1
5.640773296356201 9.820874214172363 -1.9369035959243774 2523534 0 -1
5.513033866882324 9.59847354888916 -3.081437587738037 2070155 0 -1
5.624032497406006 9.994682312011719 0.7043285965919495 2070922 6 -1
5.705845355987549 9.934167861938477 0.8804107308387756 2072968 0 -1
5.630491733551025 10.0061616897583 0.4402053654193878 2666112 6 -1
5.624032497406006 9.994682312011719 0.7043285965919495 2994813 6 -1
5.633139610290527 10.01086711883545 0.26412323117256165 3257723 6 -1
5.6265177726745605 9.999098777770996 0.6162875294685364 3651704 6 -1
5.631981372833252 10.008809089660645 0.35216429829597473 4045940 6 -1
5.6107587814331055 9.97109317779541 1.0564929246902466 4505456 0 -1
5.633139610290527 10.01086711883545 -0.26412323117256165 6343264 6 -1
5.192373752593994 10.029658317565918 -2.112985849380493 9360965 0 -1
5.634628772735596 10.013513565063477 0 10016830 6 -1
5.490219593048096 9.558752059936523 -3.3550384044647217 2070155 0 -1
5.528651714324951 9.625664710998535 -3.0901668071746826 2070922 0 -1
5.516221046447754 9.604022979736328 -3.178457260131836 2006409 0 -1
5.722009181976318 9.962309837341309 0.8829048275947571 2072968 0 -1
5.64461612701416 10.031262397766113 0.5297428965568542 3651704 6 -1
5.64461612701416 10.031262397766113 0.5297428965568542 4045940 6 -1
4.397655963897705 10.60266399383545 -1.3280982971191406 2134668 0 -1
4.954593658447266 10.429559707641602 -0.44269946217536926 2134668 0 -1
5.469939231872559 10.131678581237793 0.9739388227462769 2134668 0 -1
5.842946529388428 9.967362403869629 -0.17707978188991547 2134668 6 -1
5.662392616271973 10.062853813171387 0.44269946217536926 2070155 6 -1
5.666386604309082 10.069952011108398 -0.08853989094495773 2006409 6 -1
5.211417198181152 10.282307624816895 -0.7968590259552002 2139270 0 -1
6.006379127502441 9.839112281799316 0.7968590259552002 2139270 0 -1
5.469939231872559 10.131678581237793 0.9739388227462769 2666112 0 -1
5.749007701873779 10.009315490722656 -0.5312393307685852 4899181 6 -1
5.754336833953857 10.018594741821289 -0.8878929615020752 2912910 6 -1
5.770626544952393 10.046956062316895 0.17757859826087952 2199437 6 -1
5.66580867767334 10.068924903869629 -0.8878929615020752 2134668 6 -1
5.682348251342773 10.09831714630127 0.08878929913043976 2070155 6 -1
5.68184757232666 10.097428321838379 -0.17757859826087952 2006409 6 -1
5.757564544677734 10.024213790893555 -0.7991036772727966 4899181 6 -1
5.835268497467041 9.954265594482422 -1.0654715299606323 6343264 6 -1
5.758731365203857 10.0262451171875 -1.1575031280517578 2977934 6 -1
5.766921520233154 10.040504455566406 -0.9794257879257202 2912910 6 -1
5.776631832122803 10.057411193847656 -0.7123096585273743 4045940 6 -1
5.770500659942627 10.046736717224121 -0.8903870582580566 4505456 6 -1
5.776631832122803 10.057411193847656 -0.7123096585273743 6933851 6 -1
5.665750503540039 10.06882095336914 -1.5178979635238647 3302798 0 -1
5.70083475112915 10.131171226501465 -0.8035930395126343 2264205 6 -1
5.789910316467285 10.080530166625977 -0.8035930395126343 6343264 6 -1
5.1926188468933105 10.245217323303223 -2.1489005088806152 3432845 0 -1
5.640201568603516 10.232379913330078 0.17907504737377167 2977934 6 -1
5.713554382324219 10.153775215148926 -0.8953752517700195 2264205 6 -1
5.640698432922363 10.233281135559082 -0.08953752368688583 5949540 6 -1
5.817204475402832 10.128050804138184 -0.35815009474754333 6343264 6 -1
5.271081447601318 10.400028228759766 -1.1672301292419434 2264205 0 -1
5.717783451080322 10.161291122436523 -1.1672301292419434 2264205 6 -1
5.543207168579102 10.267389297485352 -1.0774431228637695 6343264 6 -1
6.0642523765563965 10.136881828308105 -0.2716054618358612 4505456 0 -1
6.147528648376465 10.070330619812012 -0.6337460875511169 4899181 0 -1
2.314030647277832 11.382436752319336 -2.6472179889678955 2264205 0 -1
5.929063320159912 10.322802543640137 -0.45641690492630005 2264205 0 -1
8.651275634765625 8.14879322052002 0.8215504288673401 2264205 0 -1
-6.865143299102783 9.394645690917969 2.5559346675872803 2199437 0 -1
-4.498851776123047 10.846644401550293 2.0082342624664307 2199437 0 -1
3.2672386169433594 11.384827613830566 -1.2779673337936401 2199437 0 -1
