VERSION .7
FIELDS x y z rgb label object
SIZE 4 4 4 4 4 4
TYPE F F F I I I
COUNT 1 1 1 1 1 1
WIDTH 691
HEIGHT 1
POINTS 691
VIEWPOINT 0 0 0 1 0 0 0
DATA ascii
-2.7864365577697754 2.6836390495300293 0.5387215614318848 4456788 0 -1
-3.1485395431518555 2.261361598968506 -0.4788636267185211 4456788 0 -1
-2.962185859680176 2.544358730316162 -0.08978693187236786 4456788 0 -1
-3.2906408309936523 2.1008851528167725 0.11971590667963028 4456788 0 -1
-2.9897329807281494 2.507113218307495 -0.17957386374473572 4456788 0 -1
-2.8176698684692383 2.362825393676758 -1.3168749809265137 4456788 0 -1
-3.133739709854126 2.0007128715515137 -1.1971590518951416 4523353 0 -1
-3.113719940185547 2.2363533973693848 0.7482244372367859 4523353 0 -1
-2.82757568359375 2.4287357330322266 1.1672301292419434 4523353 0 -1
-3.2843496799468994 2.0968687534332275 -0.2693607807159424 4657508 0 -1
-2.9031107425689697 2.6131045818328857 0 4657508 0 -1
-2.563066005706787 2.865870237350464 0.6883664727210999 4657508 0 -1
-3.0850250720977783 2.338747024536133 0.7242812514305115 4456788 0 -1
-2.8725948333740234 2.408884048461914 -1.2071354389190674 4456788 0 -1
-3.1100480556488037 2.295667886734009 0.7544596195220947 4523353 0 -1
-2.8799381256103516 2.4150421619415283 1.1769570112228394 4523353 0 -1
3.4353835582733154 1.9144747257232666 0.21124869585037231 4725613 0 -1
-2.5414199829101562 3.341808557510376 0.0643472969532013 4456788 0 -1
-2.507702350616455 3.363954544067383 -0.16086825728416443 4523353 0 -1
-2.5613465309143066 3.3680105209350586 0.03242305666208267 4456788 0 -1
-4.163150310516357 3.239337205886841 -0.569149374961853 4456788 0 -1
4.906041622161865 1.6100845336914062 -1.219605803489685 4456788 0 -1
-4.539808750152588 2.715496778488159 -0.406535267829895 4456788 0 -1
-3.733604669570923 3.360635995864868 1.707448124885559 4724328 0 -1
5.027482509613037 1.356662392616272 1.0163382291793823 4724328 0 -1
-4.615378379821777 2.666797399520874 -0.2863205373287201 4456788 0 -1
-4.136551856994629 3.3016557693481445 -0.6953498721122742 4456788 0 -1
-4.537346363067627 2.7140235900878906 -0.7362528443336487 4456788 0 -1
-4.672664642333984 2.507044792175293 0.6135440468788147 4590430 0 -1
-4.00091552734375 3.1933953762054443 1.5134086608886719 4590430 0 -1
-3.005608081817627 4.113041877746582 1.5952144861221313 4590430 0 -1
4.901954650878906 1.980979084968567 0.7362528443336487 4590430 0 -1
-4.307073593139648 2.92191481590271 1.1861851215362549 4724328 0 -1
-4.124046802520752 3.1264257431030273 1.3088939189910889 4724328 0 -1
-3.7460389137268066 3.371828317642212 1.7588262557983398 4724328 0 -1
-5.07574987411499 1.0094867944717407 1.3088939189910889 4724328 0 -1
-4.925569534301758 1.4781007766723633 1.4316027164459229 4341894 0 -1
-4.084392547607422 3.178055763244629 1.3088939189910889 4341894 0 -1
4.498134136199951 2.871800422668457 0.12270880490541458 4341894 0 -1
-4.335708141326904 2.941340446472168 1.0225733518600464 3562893 0 -1
5.058326244354248 1.364985466003418 1.0225733518600464 3562893 0 -1
-4.931844234466553 1.993058204650879 -0.7407422065734863 4456788 0 -1
-4.648985862731934 2.686216115951538 -0.12345702946186066 4456788 0 -1
5.076764106750488 1.2012780904769897 -1.275722622871399 4456788 0 -1
-4.125032424926758 3.3755946159362793 -0.6584374904632568 4456788 0 -1
-3.1574547290802 4.320837020874023 -0.45267578959465027 4456788 0 -1
-4.528990268707275 2.800516366958618 -0.6995898485183716 4456788 0 -1
-4.646531105041504 2.5894246101379395 0.7407422065734863 4590430 0 -1
4.926380634307861 1.9908502101898193 0.7818945050239563 4590430 0 -1
-3.974231004714966 3.1720967292785645 1.7283984422683716 4725613 0 -1
-4.552052974700928 2.906224489212036 0.1656070053577423 4456788 0 -1
-3.1574673652648926 4.320854663848877 0.7452315092086792 4456788 0 -1
4.925506591796875 2.2178170680999756 -0.12420525401830673 4456788 0 -1
-5.076923370361328 1.3700039386749268 1.2420525550842285 4456788 0 -1
-4.586952209472656 2.8363571166992188 0.3312140107154846 4456788 0 -1
-4.628552436828613 2.6744093894958496 0.7866332530975342 4590430 0 -1
4.92587947845459 2.1059648990631104 0.7038297653198242 4590430 0 -1
-4.9457526206970215 1.6231169700622559 1.4490612745285034 4724328 0 -1
-4.326828479766846 3.021498441696167 1.1592490673065186 4725613 0 -1
-4.059133052825928 3.2398629188537598 1.4904630184173584 4725613 0 -1
-3.1290194988250732 4.114465236663818 1.5732665061950684 4725613 0 -1
-4.808060169219971 1.7052654027938843 1.7802753448486328 4471684 0 -1
-3.9367544651031494 3.2215232849121094 1.8216770887374878 4471684 0 -1
-5.144266128540039 1.2172505855560303 1.1178473234176636 4341894 0 -1
-3.9972057342529297 3.3519539833068848 1.4076595306396484 4341894 0 -1
-4.2227630615234375 3.117013454437256 1.2834542989730835 3562893 0 -1
4.953603744506836 2.1178178787231445 0.41401752829551697 3562893 0 -1
-4.399312496185303 3.159698724746704 0.45816275477409363 4456788 0 -1
4.954159259796143 2.2307186126708984 -0.1666046380996704 4456788 0 -1
-4.616623401641846 2.8547046184539795 0.2915581166744232 4456788 0 -1
-4.656435012817383 2.6905202865600586 0.7913720607757568 4590430 0 -1
4.950371265411377 2.1164357662200928 0.7497208714485168 4590430 0 -1
5.1508564949035645 1.389954686164856 1.0412789583206177 4590430 0 -1
-5.125837326049805 1.383203387260437 1.1662324666976929 4724328 0 -1
-3.9634804725646973 3.404417037963867 1.4994417428970337 4724328 0 -1
-4.345251560211182 3.0343637466430664 1.207883596420288 4725613 0 -1
4.803654193878174 2.4763762950897217 0.5831162333488464 4725613 0 -1
-4.837024688720703 1.7155381441116333 1.7909998893737793 4471684 0 -1
-4.061838626861572 3.1605067253112793 1.749348759651184 4471684 0 -1
-3.9542763233184814 3.3965113162994385 1.541092872619629 4341894 0 -1
-4.230849742889404 3.207392930984497 1.1662324666976929 3562893 0 -1
-4.606896877288818 2.941239356994629 0.1676022708415985 4456788 0 -1
4.934968948364258 2.3315658569335938 -0.335204541683197 4456788 0 -1
-5.131937026977539 1.820134162902832 -0.5028068423271179 4456788 0 -1
5.264676094055176 1.2457423210144043 -0.7961108088493347 4456788 0 -1
-4.646045207977295 2.8728976249694824 0.25140342116355896 4456788 0 -1
-4.058317184448242 3.321000576019287 1.5503209829330444 4590430 0 -1
5.003901481628418 2.0221779346466064 0.8799118995666504 4590430 0 -1
-5.238081932067871 1.2394496202468872 0.9637130498886108 4724328 0 -1
-4.004910945892334 3.4400038719177246 1.4246193170547485 4724328 0 -1
-4.355041980743408 3.041200637817383 1.2989176511764526 4725613 0 -1
4.865384578704834 2.4043846130371094 0.670409083366394 4725613 0 -1
-3.9186198711395264 3.4462358951568604 1.6341221332550049 4341894 0 -1
4.957395076751709 2.232175350189209 0.5866079330444336 4341894 0 -1
4.294549465179443 3.0844554901123047 1.5173991918563843 4456788 0 -1
5.039215564727783 1.9143755435943604 1.0958993434906006 4456788 0 -1
-4.675212383270264 2.8909332752227783 0.21074987947940826 4456788 0 -1
-4.069444179534912 3.4125313758850098 1.4330991506576538 4724328 0 -1
5.269260883331299 1.246827244758606 0.9694494605064392 4724328 0 -1
-4.533926486968994 2.8035688400268555 -1.4839783906936646 4456788 0 -1
3.603947639465332 4.198838233947754 0 4590430 0 -1
-4.175394535064697 3.332658529281616 1.4415791034698486 4724328 0 -1
4.955482482910156 2.448909282684326 0.25439631938934326 4724328 0 -1
-4.6485819816589355 3.060854196548462 0.0426487922668457 4456788 0 -1
-5.274230003356934 1.4232470989227295 1.0662198066711426 4724328 0 -1
2.636451244354248 4.883358955383301 -0.42648792266845703 4724328 0 -1
-4.541084289550781 3.900547742843628 0.18356439471244812 4456788 0 -1
-4.018331050872803 4.400740623474121 0.5965842604637146 4456788 0 -1
-4.541084289550781 3.900547742843628 -0.18356439471244812 4456788 0 -1
-4.588571071624756 3.8478574752807617 0.09178219735622406 4523353 0 -1
-4.353378772735596 4.100526332855225 -0.3212376832962036 4523353 0 -1
-4.353378772735596 4.100526332855225 0.3212376832962036 4726897 0 -1
-4.511004447937012 3.967209577560425 -0.4152645468711853 4456788 0 -1
-4.567373752593994 3.923129081726074 -0.09228101372718811 4456788 0 -1
-4.516988277435303 3.9724719524383545 -0.27684304118156433 4523353 0 -1
-4.3044891357421875 4.145687103271484 0.7382481098175049 4726897 0 -1
-4.963138103485107 3.46584415435791 -0.09277983009815216 4456788 0 -1
-4.5859904289245605 3.939119815826416 0.32472941279411316 4456788 0 -1
-4.530034065246582 3.98394513130188 0.5102890729904175 4456788 0 -1
-4.590444087982178 3.9429450035095215 0.18555966019630432 4456788 0 -1
-4.546078205108643 3.9980549812316895 0.04638991504907608 4456788 0 -1
-4.360651969909668 4.199778079986572 0 4456788 0 -1
-4.592466831207275 3.9446825981140137 -0.04638991504907608 4456788 0 -1
-4.304354190826416 3.785470485687256 1.9483764171600342 4657508 0 -1
-4.537662029266357 3.9906535148620605 0.37111932039260864 3238030 0 -1
-3.9670910835266113 4.4357686042785645 1.1133579015731812 3238030 0 -1
-4.619339466094971 3.873659133911133 0.5566789507865906 2977934 0 -1
-5.6977458000183105 2.020808458328247 0.32472941279411316 2328718 0 -1
-5.317665100097656 2.741358995437622 0.9277982711791992 2328718 0 -1
-3.9872496128082275 4.366701126098633 1.2989176511764526 2328718 0 -1
-3.5858800411224365 4.530083656311035 1.8092066049575806 2328718 0 -1
-4.429671287536621 4.079382419586182 0.886147141456604 4456788 0 -1
-4.661741256713867 3.9092161655426025 0.18655729293823242 4456788 0 -1
-3.6843984127044678 4.844753742218018 0.046639323234558105 4456788 0 -1
-4.5977325439453125 3.9492056369781494 0.5596718788146973 4456788 0 -1
-4.430605411529541 4.173267841339111 -0.046639323234558105 4456788 0 -1
-4.616072654724121 3.964958906173706 -0.13991796970367432 4456788 0 -1
-4.426050662994385 4.1689772605896 -0.27983593940734863 4456788 0 -1
-4.390868663787842 3.682069778442383 2.0521302223205566 4657508 0 -1
-4.411965847015381 4.155710697174072 0.5596718788146973 3238030 0 -1
-4.045524597167969 4.4305219650268555 1.0260651111602783 3238030 0 -1
-2.9881715774536133 5.202559471130371 1.0260651111602783 3238030 0 -1
-5.564422607421875 2.3789618015289307 0.6529505252838135 2458766 0 -1
-5.164597034454346 2.9841396808624268 1.2126224040985107 2458766 0 -1
-4.234903812408447 4.26085901260376 0.9794257879257202 2458766 0 -1
-3.9337544441223145 4.398493766784668 1.4924583435058594 2458766 0 -1
-3.512695074081421 4.5275092124938965 2.0521302223205566 2458766 0 -1
-3.9561753273010254 4.423563480377197 1.352540373802185 2328718 0 -1
-4.637075901031494 3.982999563217163 -0.2813323736190796 4456788 0 -1
-4.638576507568359 3.984288215637207 -0.23444364964962006 4523353 0 -1
-4.45233678817749 4.193736553192139 -0.18755492568016052 4523353 0 -1
-0.7055020332336426 6.538687229156494 -0.915826678276062 4523353 0 -1
-0.7087669372558594 6.568946838378906 -0.6614304184913635 4729209 4 -1
-0.7087669372558594 6.568946838378906 -0.6614304184913635 4664956 4 -1
-0.7092921137809753 6.573814392089844 -0.610551118850708 4600703 4 -1
-0.6581407189369202 6.574212074279785 -0.6614304184913635 4212104 4 -1
-0.6594858169555664 6.587648391723633 -0.5087926387786865 3887499 4 -1
-0.6590767502784729 6.583561897277832 -0.5596718788146973 3562893 4 -1
-0.6590767502784729 6.583561897277832 -0.5596718788146973 3238030 4 -1
-0.7121214270591736 6.60003662109375 -0.152637779712677 2139270 4 -1
-0.711786687374115 6.5969343185424805 -0.25439631938934326 2271109 4 -1
-0.6604782342910767 6.597561836242676 -0.35615482926368713 2468738 4 -1
-0.6609447598457336 6.602221965789795 -0.25439631938934326 2666112 4 -1
-0.763188898563385 6.59609317779541 0 4899181 4 -1
-0.763188898563385 6.59609317779541 0 5424489 4 -1
-0.763188898563385 6.59609317779541 0 5949540 4 -1
-0.763188898563385 6.59609317779541 0 6343264 4 -1
-0.8140681982040405 6.590007305145264 0 6933851 4 -1
-0.7630993127822876 6.59531831741333 -0.10175852477550507 7589974 4 -1
-0.7630993127822876 6.59531831741333 0.10175852477550507 8180304 4 -1
-0.7097025513648987 6.57761812210083 -0.8691873550415039 4523353 0 -1
-0.7122412323951721 6.601147651672363 -0.6646726727485657 4729209 4 -1
-0.7122412323951721 6.601147651672363 -0.6646726727485657 4664956 4 -1
-0.7122412323951721 6.601147651672363 -0.6646726727485657 4600703 4 -1
-0.6608371734619141 6.601147651672363 -0.7158013582229614 4212104 4 -1
-0.661366879940033 6.606438636779785 -0.6646726727485657 4147337 4 -1
-0.6618569493293762 6.611333847045898 -0.6135440468788147 3562893 4 -1
-0.6623075008392334 6.6158342361450195 -0.562415361404419 3238030 4 -1
-0.6623075008392334 6.6158342361450195 -0.562415361404419 2977934 4 -1
-0.6618569493293762 6.611333847045898 -0.6135440468788147 2458766 4 -1
-0.7154650688171387 6.631026268005371 -0.20451468229293823 2328718 4 -1
-0.7154650688171387 6.631026268005371 -0.20451468229293823 2134668 4 -1
-0.7156122326850891 6.632390022277832 -0.15338601171970367 2070922 4 -1
-0.7154650688171387 6.631026268005371 -0.20451468229293823 2139270 4 -1
-0.7156122326850891 6.632390022277832 -0.15338601171970367 2271109 4 -1
-0.7154650688171387 6.631026268005371 -0.20451468229293823 2468738 4 -1
-0.663422703742981 6.626974582672119 -0.40902936458587646 4045940 4 -1
-0.8690853118896484 6.615017890930176 0.10225734114646912 5949540 4 -1
-0.6643604040145874 6.636341094970703 -0.20451468229293823 5949540 4 -1
-0.8180587291717529 6.622311115264893 0 6933851 4 -1
-0.7154650688171387 6.631026268005371 -0.20451468229293823 7589974 4 -1
-0.7154650688171387 6.631026268005371 -0.20451468229293823 8180304 4 -1
-0.6645946502685547 6.638680934906006 -0.10225734114646912 8705099 4 -1
-0.6641846895217896 6.634585857391357 -0.2556433379650116 9360965 4 -1
-0.6640607714653015 6.633347988128662 -0.7192930579185486 4729209 4 -1
-0.7157155871391296 6.633347988128662 -0.6679149866104126 4664956 4 -1
-0.7157155871391296 6.633347988128662 -0.6679149866104126 4600703 4 -1
-0.6634886264801025 6.6276326179504395 -0.7706711292266846 4212104 4 -1
-0.6645930409431458 6.638665199279785 -0.6679149866104126 3302798 4 -1
-0.6663249135017395 6.655964374542236 -0.46240270137786865 3238030 4 -1
-0.6666589379310608 6.659301280975342 -0.41102463006973267 2588302 4 -1
-0.6663249135017395 6.655964374542236 -0.46240270137786865 2458766 4 -1
-0.615649402141571 6.66718053817749 -0.3596465289592743 2199437 4 -1
-0.615649402141571 6.66718053817749 -0.3596465289592743 2134668 4 -1
-0.615649402141571 6.66718053817749 -0.3596465289592743 2070155 4 -1
-0.6669535636901855 6.662243843078613 -0.3596465289592743 2994813 4 -1
-0.667208731174469 6.664793491363525 -0.3082684576511383 3257723 4 -1
-0.667208731174469 6.664793491363525 -0.3082684576511383 3651704 4 -1
-0.6674246191978455 6.66694974899292 -0.2568903863430023 4045940 4 -1
-0.6678953766822815 6.671652317047119 0.05137807875871658 5949540 4 -1
-0.7192719578742981 6.666308879852295 -0.05137807875871658 8180304 4 -1
-0.7192930579185486 6.666504859924316 0 8705099 4 -1
-0.7191030383110046 6.664742946624756 -0.15413422882556915 9360965 4 -1
-0.6678953766822815 6.671652317047119 0.05137807875871658 10016830 4 -1
-0.6192387342453003 6.706051349639893 -0.20650994777679443 3238030 4 -1
-0.6701911687850952 6.694584846496582 -0.36139240860939026 2588302 4 -1
-0.6701911687850952 6.694584846496582 -0.36139240860939026 2458766 4 -1
-0.618874728679657 6.702109336853027 -0.30976492166519165 2328718 4 -1
-0.6192387342453003 6.706051349639893 -0.20650994777679443 2264205 4 -1
-0.6190750002861023 6.704277515411377 -0.25813743472099304 2199437 4 -1
-0.6190750002861023 6.704277515411377 -0.25813743472099304 2134668 4 -1
-0.6190750002861023 6.704277515411377 -0.25813743472099304 2070155 4 -1
-0.6708419919013977 6.701086044311523 -0.20650994777679443 2070922 4 -1
-0.6706645488739014 6.699313640594482 -0.25813743472099304 2468738 4 -1
-0.6706645488739014 6.699313640594482 -0.25813743472099304 3257723 4 -1
-0.6706645488739014 6.699313640594482 -0.25813743472099304 3651704 4 -1
-0.6708419919013977 6.701086044311523 -0.20650994777679443 4045940 4 -1
-0.6711573004722595 6.704235553741455 0 5949540 4 -1
-0.8260155320167542 6.686722755432129 0.05162748694419861 7589974 4 -1
-0.6711376309394836 6.704038619995117 -0.05162748694419861 7589974 4 -1
-0.7226999402046204 6.698079586029053 0.10325497388839722 8705099 4 -1
-0.7226999402046204 6.698079586029053 -0.10325497388839722 9360965 4 -1
-0.7743213176727295 6.69230842590332 -0.10325497388839722 10016830 4 -1
-0.7227635979652405 6.698669910430908 -0.05162748694419861 10672695 4 -1
-0.7743213176727295 6.69230842590332 -0.10325497388839722 13164576 4 -1
-0.3546820282936096 6.60312032699585 1.4525530338287354 4456788 0 -1
-0.6194265484809875 6.708085060119629 -0.6743996143341064 4725613 4 -1
-0.8280542492866516 6.703226566314697 -0.4668920338153839 3238030 4 -1
-0.621626615524292 6.731910705566406 -0.36313825845718384 3238030 4 -1
-0.622504472732544 6.741416931152344 -0.051876895129680634 2328718 4 -1
-0.6223582029342651 6.739833831787109 0.1556306779384613 2199437 4 -1
-0.622504472732544 6.741416931152344 0.051876895129680634 2134668 4 -1
-0.6724169254302979 6.716817855834961 -0.5187689065933228 2271109 4 -1
-0.6736865043640137 6.729499816894531 -0.3112613558769226 2468738 4 -1
-0.6739044785499573 6.731677532196045 -0.2593844532966614 4045940 4 -1
-0.6220656633377075 6.736665725708008 -0.2593844532966614 4505456 4 -1
-0.6740827560424805 6.733458518981934 -0.20750758051872253 7589974 4 -1
-0.6739044785499573 6.731677532196045 0.2593844532966614 8705099 4 -1
-0.7262551784515381 6.731030464172363 0.051876895129680634 9360965 4 -1
-0.7780620455741882 6.72463846206665 -0.10375379025936127 10672695 4 -1
-0.7260845899581909 6.729449272155762 -0.1556306779384613 11197490 4 -1
-0.7780620455741882 6.72463846206665 0.10375379025936127 13164576 4 -1
-5.4171552658081055 4.106727123260498 -0.2606315016746521 4456788 0 -1
-5.415402889251709 4.105398654937744 -0.31275781989097595 4523353 0 -1
-5.415402889251709 4.105398654937744 -0.31275781989097595 4657508 0 -1
-0.6711655855178833 6.704318523406982 -0.9382734298706055 4725613 0 -1
-0.6248542070388794 6.766863822937012 -0.31275781989097595 3238030 4 -1
-0.6148476600646973 6.6584978103637695 -1.2510312795639038 2199437 0 -1
-0.6660849452018738 6.653567314147949 -1.2510312795639038 2006409 0 -1
-0.6704220175743103 6.696890830993652 -0.9903997182846069 2072968 0 -1
-0.6769253611564636 6.761853218078613 -0.31275781989097595 3651704 4 -1
-0.6254421472549438 6.773231029510498 -0.10425260663032532 4505456 4 -1
-0.7295753955841064 6.761802673339844 -0.15637890994548798 5424489 4 -1
-0.8328202366828918 6.74180793762207 0.3648841083049774 6933851 4 -1
-0.6254421472549438 6.773231029510498 -0.10425260663032532 6933851 4 -1
-0.6771444082260132 6.764041423797607 -0.2606315016746521 7589974 4 -1
-0.677323579788208 6.7658305168151855 -0.20850521326065063 8180304 4 -1
-0.6776419281959534 6.7690110206604 0 9360965 4 -1
-0.7297468185424805 6.763391017913818 0.05212630331516266 11197490 4 -1
-0.7294253706932068 6.760412216186523 0.20850521326065063 11918891 4 -1
-0.7815271615982056 6.754587173461914 0.20850521326065063 13164576 4 -1
-5.441314220428467 4.125041961669922 -0.3142542541027069 4456788 0 -1
-5.441314220428467 4.125041961669922 -0.3142542541027069 4523353 0 -1
-0.6283424496650696 6.80463981628418 -0.15712712705135345 3238030 4 -1
-0.6258459687232971 6.777604103088379 -0.6285085082054138 2072968 4 -1
-0.6805643439292908 6.798202991485596 -0.20950284600257874 3651704 4 -1
-0.6283424496650696 6.80463981628418 -0.15712712705135345 4505456 4 -1
-0.6769551634788513 6.76215124130249 -0.733259916305542 5424489 4 -1
-0.8887126445770264 6.764410495758057 0.41900569200515747 5949540 4 -1
-0.6027203798294067 6.52716588973999 -1.937901258468628 5949540 0 -1
-0.8894456028938293 6.769989490509033 0.3142542541027069 6933851 4 -1
-0.732915461063385 6.792758464813232 0.20950284600257874 8180304 4 -1
-0.733066201210022 6.794155597686768 0.15712712705135345 11918891 4 -1
-0.785058856010437 6.7851104736328125 0.2618785500526428 13164576 4 -1
-0.473626047372818 6.851593971252441 0 4456788 4 -1
-5.523041248321533 4.076808452606201 -0.21050047874450684 4456788 0 -1
-5.521580696105957 4.075729846954346 -0.26312559843063354 4523353 0 -1
-0.9984379410743713 6.784989356994629 0.36837583780288696 2666112 4 -1
-0.9988200068473816 6.787585735321045 0.31575071811676025 2994813 4 -1
-0.9472243189811707 6.802106857299805 0.05262511968612671 4899181 4 -1
-0.947252094745636 6.802306652069092 0 5424489 4 -1
-0.47181618213653564 6.825411796569824 0.8988669514656067 4456788 4 -1
-0.4758707284927368 6.884066104888916 0 4456788 4 -1
-0.9507350921630859 6.82731819152832 -0.3172471523284912 4456788 4 -1
-1.0043505430221558 6.825169086456299 0.1586235761642456 4536450 4 -1
-1.0035537481307983 6.819754600524902 0.3172471523284912 2468738 4 -1
-1.0035537481307983 6.819754600524902 0.3172471523284912 2666112 4 -1
-0.9512943029403687 6.831334114074707 0.21149811148643494 3651704 4 -1
-0.9510427117347717 6.829527378082275 0.2643726170063019 4899181 4 -1
-0.9510427117347717 6.829527378082275 0.2643726170063019 5424489 4 -1
-1.0573663711547852 6.818182468414307 0.10574905574321747 10016830 4 -1
-0.5638647675514221 6.6660380363464355 1.6919848918914795 10016830 0 -1
-0.8956683874130249 6.81735372543335 0.5816197991371155 10672695 4 -1
-0.5236919522285461 6.814451694488525 0.9517414569854736 10672695 4 -1
-0.9014084935188293 6.861044883728027 0.4249914586544037 4456788 4 -1
-0.47810137271881104 6.916335105895996 -0.05312393233180046 4456788 4 -1
-0.7405843734741211 6.863835334777832 0.6374872326850891 4456788 4 -1
-0.7968590259552002 6.887097358703613 0 4456788 4 -1
-0.6362883448600769 6.890690326690674 0.4249914586544037 4456788 4 -1
-1.0093547105789185 6.859176158905029 0 4456788 4 -1
-0.6352187395095825 6.879106521606445 0.5843632817268372 4456788 4 -1
-0.928862452507019 6.670248985290527 -1.6468420028686523 4456788 0 -1
-0.8479593992233276 6.864361763000488 0.47811540961265564 4456788 4 -1
-1.0624475479125977 6.85094690322876 0.05312393233180046 2523534 4 -1
-1.0624475479125977 6.85094690322876 0.05312393233180046 2523534 4 -1
-1.009236216545105 6.858370304107666 0.10624786466360092 2468738 4 -1
-1.0086137056350708 6.854140281677246 0.2656196653842926 2666112 4 -1
-0.9024438261985779 6.868925094604492 0.2656196653842926 4899181 4 -1
-0.9021519422531128 6.866703510284424 0.31874361634254456 5424489 4 -1
-1.0624475479125977 6.85094690322876 -0.05312393233180046 10016830 4 -1
-0.6902866959571838 6.895320415496826 0.21249572932720184 10672695 4 -1
-0.8538731932640076 6.912234783172607 0.10674668103456497 4456788 4 -1
-0.5841867327690125 6.906285285949707 0.6938534379005432 4456788 4 -1
-0.5337177515029907 6.944910526275635 0.053373340517282486 4456788 4 -1
-0.6377668380737305 6.906701564788818 0.640480101108551 4456788 4 -1
-1.0136170387268066 6.88814115524292 0.21349336206912994 4456788 4 -1
-0.8523675203323364 6.900046348571777 0.4269867241382599 4456788 4 -1
-0.8523675203323364 6.900046348571777 0.4269867241382599 4456788 4 -1
-0.6848117709159851 6.840631484985352 1.1208401918411255 4456788 0 -1
-0.9597042798995972 6.891726970672607 -0.3202400505542755 2328718 4 -1
-1.0136170387268066 6.88814115524292 0.21349336206912994 2006409 4 -1
-1.0140637159347534 6.891176223754883 0.053373340517282486 2139270 4 -1
-1.0139744281768799 6.89056921005249 0.10674668103456497 2271109 4 -1
-1.0139744281768799 6.89056921005249 0.10674668103456497 2468738 4 -1
-1.0130212306976318 6.884091854095459 0.3202400505542755 2666112 4 -1
-0.9602687954902649 6.895780563354492 0.21349336206912994 2994813 4 -1
-0.9063873887062073 6.898941516876221 0.3202400505542755 5424489 4 -1
-0.742274820804596 6.879502296447754 0.8006001114845276 8180304 4 -1
-0.6898495554924011 6.89095401763916 0.7472267746925354 8705099 4 -1
-0.7489312887191772 6.941195487976074 0.4826047420501709 2977934 4 -1
-0.3704679310321808 6.897006511688232 1.1260777711868286 2977934 0 -1
0.10437353700399399 6.809937477111816 1.6086825132369995 2977934 0 -1
-0.9647560119628906 6.928003787994385 -0.21449099481105804 2328718 4 -1
-0.9649544358253479 6.929428577423096 -0.16086825728416443 2070922 4 -1
-1.0180842876434326 6.9184980392456055 0.26811376214027405 2006409 4 -1
-0.9645008444786072 6.92617130279541 0.26811376214027405 2666112 4 -1
-0.9645008444786072 6.92617130279541 0.26811376214027405 2994813 4 -1
-0.9629116058349609 6.914759159088135 0.4826047420501709 5424489 4 -1
-0.7469847202301025 6.923154830932617 0.6970957517623901 8180304 4 -1
-0.6941426396369934 6.933837890625 0.6434730291366577 8705099 4 -1
-0.6904335021972656 6.896787166595459 0.9652094841003418 9360965 4 -1
-0.7140864133834839 6.618248462677002 -2.2626307010650635 4456788 0 -1
-0.7461745738983154 6.915645599365234 1.0235710144042969 3692940 4 -1
-0.42638546228408813 6.9427032470703125 1.0235710144042969 3692940 4 -1
-0.47513023018836975 6.873353481292725 1.4006761312484741 2134668 0 -1
-0.4847925007343292 7.013130187988281 -0.10774431377649307 2070155 0 -1
-0.4847925007343292 7.013130187988281 0.10774431377649307 2070922 4 -1
-0.749858021736145 6.949784755706787 0.7542102336883545 8705099 4 -1
-0.6956968307495117 6.949362277984619 0.8080824017524719 9360965 4 -1
-0.806443452835083 6.96993350982666 0.8118234872817993 3692940 4 -1
-0.5411521196365356 7.041648864746094 -0.10824313014745712 2070155 0 -1
-0.9638087749481201 6.921201705932617 1.0283098220825195 2666112 4 -1
-0.4846715033054352 7.011379718780518 0.703580379486084 2666112 4 -1
-0.6995203495025635 6.987555980682373 0.7577019333839417 9360965 4 -1
-0.4884185492992401 7.065585613250732 0.4349677860736847 2666112 4 -1
-0.7054934501647949 7.047221660614014 0.4349677860736847 3257723 4 -1
-0.4915834367275238 7.111370086669922 0 4456788 0 -1
-0.4356784224510193 7.094017505645752 0.5462038516998291 2994813 0 -1
-0.8075807690620422 6.979763031005859 1.201648473739624 9360965 0 -1
-5.8160271644592285 4.177219390869141 -0.05486978963017464 4456788 0 -1
-0.5714580416679382 6.755805969238281 -2.3045313358306885 4456788 0 -1
4.841803550720215 5.192802429199219 -0.9327864646911621 4456788 0 -1
-5.8100481033325195 4.172924995422363 -0.3292187452316284 4456788 0 -1
-4.660508155822754 5.4298014640808105 -0.2743489444255829 4456788 0 -1
-5.787516117095947 4.272028923034668 0 4456788 0 -1
-4.62878942489624 5.503865718841553 -0.16535760462284088 4456788 0 -1
-4.62878942489624 5.503865718841553 -0.16535760462284088 4456788 0 -1
-6.026490688323975 3.968136787414551 -0.3875802457332611 4456788 0 -1
-4.306054592132568 5.7763519287109375 0.5536860823631287 4456788 0 -1
-5.586316108703613 4.571392059326172 0.3322116434574127 4456788 0 -1
-2.0918660163879395 6.873000621795654 0.7751604914665222 4456788 0 -1
-0.10868644714355469 7.091336250305176 1.384215235710144 4456788 0 -1
-5.647432327270508 4.507589340209961 0.05536860600113869 4456788 0 -1
-4.317610263824463 5.791853427886963 0.16610582172870636 4456788 0 -1
-5.424689769744873 4.770751476287842 -0.16610582172870636 4724328 0 -1
-5.088525772094727 5.119712829589844 0.3322116434574127 4724328 0 -1
-0.5528890490531921 7.194373607635498 0.3875802457332611 4724328 0 -1
2.7774839401245117 7.022361755371094 -0.9921455979347229 4726897 5 -1
2.789484977722168 7.052704334259033 -0.7003380656242371 4471684 5 -1
2.787419557571411 7.047482013702393 -0.7586995959281921 4212104 5 -1
2.787419557571411 7.047482013702393 -0.7586995959281921 4147337 5 -1
2.787419557571411 7.047482013702393 -0.7586995959281921 3757452 5 -1
2.787419557571411 7.047482013702393 -0.7586995959281921 3238030 5 -1
2.787419557571411 7.047482013702393 -0.7586995959281921 3107982 5 -1
2.785187005996704 7.041837692260742 -0.8170610666275024 2912910 5 -1
2.801023244857788 7.081876754760742 -0.11672300845384598 3651704 5 -1
2.742668628692627 7.104680061340332 -0.11672300845384598 4045940 5 -1
2.801270008087158 7.08250093460083 -0.05836150422692299 4505456 5 -1
2.801270008087158 7.08250093460083 -0.05836150422692299 4899181 5 -1
2.7921009063720703 7.059318542480469 -0.9377745985984802 4725613 5 -1
2.7921009063720703 7.059318542480469 -0.9377745985984802 4726897 5 -1
2.7993314266204834 7.07759952545166 -0.7619418501853943 4664956 5 -1
2.801405668258667 7.082843780517578 -0.703330934047699 4471684 5 -1
2.801405668258667 7.082843780517578 -0.703330934047699 4212104 5 -1
2.7993314266204834 7.07759952545166 -0.7619418501853943 4147337 5 -1
2.7993314266204834 7.07759952545166 -0.7619418501853943 3757452 5 -1
2.7970895767211914 7.0719313621521 -0.8205527663230896 3238030 5 -1
2.7970895767211914 7.0719313621521 -0.8205527663230896 3107982 5 -1
2.7970895767211914 7.0719313621521 -0.8205527663230896 2782862 5 -1
2.801405668258667 7.082843780517578 -0.703330934047699 2328718 5 -1
2.801405668258667 7.082843780517578 -0.703330934047699 2264205 5 -1
2.7466142177581787 7.114901065826416 -0.5861091613769531 2199437 5 -1
2.8033127784729004 7.087665557861328 -0.6447200179100037 2070155 5 -1
2.8033127784729004 7.087665557861328 -0.6447200179100037 2006409 5 -1
2.812002182006836 7.109634876251221 -0.23444364964962006 3257723 5 -1
2.811258316040039 7.107754707336426 -0.29305458068847656 3651704 5 -1
2.754389524459839 7.135042190551758 -0.11722182482481003 4045940 5 -1
2.7547128200531006 7.135879993438721 0 4505456 5 -1
2.9888055324554443 7.040065765380859 0.11722182482481003 7589974 5 -1
2.8065717220306396 7.095905303955078 -0.8829048275947571 4726897 5 -1
2.813326597213745 7.112983703613281 -0.7063238620758057 4664956 5 -1
2.813326597213745 7.112983703613281 -0.7063238620758057 4212104 5 -1
2.8112435340881348 7.107717037200928 -0.7651841640472412 4147337 5 -1
2.8089921474456787 7.102024555206299 -0.8240445256233215 3757452 5 -1
2.8039822578430176 7.089358329772949 -0.9417651295661926 2782862 5 -1
2.813326597213745 7.112983703613281 -0.7063238620758057 2264205 5 -1
2.7598490715026855 7.149184703826904 -0.5297428965568542 2199437 5 -1
2.7598490715026855 7.149184703826904 -0.5297428965568542 2070155 5 -1
2.7651352882385254 7.16287899017334 -0.23544128239154816 3257723 5 -1
2.8239681720733643 7.139888763427734 -0.23544128239154816 4045940 5 -1
2.7663538455963135 7.166035175323486 -0.05886032059788704 4505456 5 -1
2.8252124786376953 7.143034934997559 0.05886032059788704 7589974 5 -1
2.8252124786376953 7.143034934997559 -0.05886032059788704 8180304 5 -1
2.883816957473755 7.118846893310547 -0.11772064119577408 8705099 5 -1
2.8271708488464355 7.147985935211182 -0.6502070426940918 4212104 5 -1
2.774158239364624 7.186251640319824 -0.41376811265945435 4147337 5 -1
2.823155641555786 7.137834548950195 -0.7684264779090881 2264205 5 -1
2.7699897289276123 7.175453186035156 -0.5910972952842712 2199437 5 -1
2.823155641555786 7.137834548950195 -0.7684264779090881 2070155 5 -1
2.778075695037842 7.196399688720703 -0.059109728783369064 2271109 5 -1
2.7699897289276123 7.175453186035156 -0.5910972952842712 2666112 5 -1
2.754486560821533 7.135293960571289 -1.0048654079437256 3257723 5 -1
2.778075695037842 7.196399688720703 -0.059109728783369064 8180304 5 -1
2.7781572341918945 7.196610927581787 0 8705099 5 -1
2.777423143386841 7.194709300994873 -0.1773291826248169 9360965 5 -1
2.7761175632476807 7.1913275718688965 -0.2955486476421356 11918891 5 -1
2.771543264389038 7.179478168487549 -0.5319875478744507 12640037 5 -1
2.6704554557800293 7.269771099090576 0.17807741463184357 2070155 5 -1
2.775689125061035 6.851927757263184 -2.3150062561035156 2070155 0 -1
2.789879560470581 7.22697639465332 0 2271109 5 -1
2.7878313064575195 7.221670627593994 -0.29679569602012634 2468738 5 -1
2.7832376956939697 7.209771156311035 -0.5342322587966919 2666112 5 -1
2.776003837585449 7.191032409667969 -0.7716687917709351 2994813 5 -1
2.760154962539673 7.149977207183838 -1.1278235912322998 3257723 0 -1
2.7878313064575195 7.221670627593994 0.29679569602012634 6933851 5 -1
2.78979754447937 7.22676420211792 -0.05935913696885109 8180304 5 -1
2.7885687351226807 7.223581314086914 0.23743654787540436 8705099 5 -1
2.730377197265625 7.249232292175293 -0.7153025269508362 3257723 5 -1
2.741912603378296 7.2798590660095215 -0.059608545154333115 3651704 5 -1
2.861126184463501 7.2338361740112305 0.059608545154333115 4899181 5 -1
2.7986392974853516 7.249668121337891 0.3576512634754181 6933851 5 -1
2.800861358642578 7.2554240226745605 -0.17882563173770905 8180304 5 -1
2.7975687980651855 7.246894836425781 0.4172598123550415 8705099 5 -1
2.7277133464813232 6.896525859832764 -2.454176187515259 4456788 0 -1
-4.6456990242004395 6.231967926025391 -0.7781534194946289 4456788 0 -1
-6.395923137664795 4.08342981338501 -1.8555965423583984 4456788 0 -1
-4.648130416870117 6.112001419067383 -1.4365909099578857 4456788 0 -1
2.6916303634643555 7.327415943145752 -0.2992897629737854 2328718 5 -1
2.692342519760132 7.329354286193848 -0.23943181335926056 2264205 5 -1
2.693608045578003 7.332799434661865 0 3651704 5 -1
2.693608045578003 7.332799434661865 0 4045940 5 -1
2.749502182006836 7.300009727478027 0.41900569200515747 6343264 5 -1
3.0505144596099854 7.18541955947876 -0.2992897629737854 6343264 5 -1
2.7514443397521973 7.305165767669678 0.2992897629737854 6933851 5 -1
2.7800920009613037 7.201622486114502 -1.1971590518951416 8180304 0 -1
2.8821027278900146 7.286871433258057 -0.3606441617012024 4456788 5 -1
-4.422277927398682 6.4242048263549805 -0.8415030837059021 4456788 0 -1
0.8124440908432007 7.52984094619751 -2.0436503887176514 4456788 0 -1
2.9623587131500244 7.142189025878906 -1.322361946105957 4456788 0 -1
-6.1534833908081055 4.542166233062744 -1.7431135177612305 4456788 0 -1
-5.7320661544799805 5.278787136077881 -0.9016104340553284 4456788 0 -1
-4.299049377441406 6.4992570877075195 -0.9016104340553284 4456788 0 -1
-3.7866525650024414 6.869696140289307 0.060107361525297165 4456788 0 -1
-4.8705830574035645 6.030533790588379 -1.2021472454071045 4456788 0 -1
-4.601559638977051 6.297030925750732 -0.8415030837059021 4456788 0 -1
-4.264489650726318 6.5771484375 -0.3005368113517761 4456788 0 -1
-5.801415920257568 5.221883296966553 -0.7813957333564758 4590430 0 -1
-4.422277927398682 6.4242048263549805 -0.8415030837059021 4590430 0 -1
-4.139608383178711 6.645862579345703 -0.4808588922023773 4590430 0 -1
-3.846419334411621 6.835618495941162 0.12021472305059433 4590430 0 -1
2.7035605907440186 7.359893321990967 -0.24042944610118866 2264205 5 -1
2.702845573425293 7.357946395874023 -0.3005368113517761 2199437 5 -1
2.644646406173706 7.384937763214111 0.060107361525297165 4045940 5 -1
2.644413471221924 7.384287357330322 -0.12021472305059433 4505456 5 -1
2.704751968383789 7.363136291503906 -0.060107361525297165 5424489 5 -1
2.7045135498046875 7.36248779296875 0.12021472305059433 6343264 5 -1
2.698391914367676 7.345822811126709 0.540966272354126 6933851 5 -1
3.4143831729888916 7.032509803771973 0.965708315372467 4456788 0 -1
-6.262600898742676 4.622710704803467 -1.2071354389190674 4456788 0 -1
-4.436801433563232 6.445302963256836 -0.9053515791893005 4456788 0 -1
2.91119122505188 7.1864213943481445 -1.3882057666778564 4456788 0 -1
3.561049461364746 7.0260748863220215 0 4456788 0 -1
-6.097446441650391 4.622453689575195 -1.8710598945617676 4456788 0 -1
-5.760814189910889 5.305261611938477 -0.8449947834014893 4456788 0 -1
-4.538241386413574 6.335302829742432 -1.1467785835266113 4456788 0 -1
-4.896523952484131 6.062652111053467 -1.1467785835266113 4456788 0 -1
-4.513449192047119 6.427385330200195 -0.6035677194595337 4456788 0 -1
-4.679881572723389 6.153752326965332 -1.5089192390441895 4456788 0 -1
-6.393462657928467 3.9534192085266113 -2.3539140224456787 4590430 0 -1
-5.810441493988037 5.230007171630859 -0.965708315372467 4590430 0 -1
2.6528897285461426 7.407957077026367 0.36214062571525574 2072968 5 -1
2.655385971069336 7.4149274826049805 -0.12071353942155838 2139270 5 -1
2.7140605449676514 7.388477325439453 -0.30178385972976685 2666112 5 -1
2.655697822570801 7.415798664093018 0 4045940 5 -1
2.715337038040161 7.391952037811279 -0.18107031285762787 4505456 5 -1
2.6556198596954346 7.415580749511719 -0.06035676971077919 4899181 5 -1
2.6556198596954346 7.415580749511719 -0.06035676971077919 5949540 5 -1
2.716054677963257 7.393906116485596 0 6343264 5 -1
2.715975046157837 7.393688678741455 -0.06035676971077919 6933851 5 -1
2.776085376739502 7.370588779449463 0.12071353942155838 7589974 5 -1
3.072406530380249 7.23698616027832 0.4828541576862335 8180304 5 -1
-4.2462639808654785 6.168510437011719 2.545459508895874 4456788 0 -1
2.5960185527801514 7.067131996154785 2.4242470264434814 2588302 0 -1
2.6666717529296875 7.446442127227783 0 3257723 5 -1
2.666593551635742 7.446223735809326 -0.060606177896261215 4045940 5 -1
2.666593551635742 7.446223735809326 0.060606177896261215 4899181 5 -1
2.666593551635742 7.446223735809326 0.060606177896261215 5949540 5 -1
2.727277994155884 7.424459457397461 0 6933851 5 -1
2.7269577980041504 7.423587322235107 0.12121235579252243 7589974 5 -1
3.023094654083252 7.2886223793029785 0.5454556345939636 8180304 5 -1
3.0280840396881104 7.300652027130127 0.3030308783054352 8705099 5 -1
2.967092752456665 7.3244171142578125 -0.7911226153373718 2070155 5 -1
2.9179794788360596 7.377579212188721 -0.36513352394104004 2072968 5 -1
2.675679922103882 7.471596717834473 0.3042779266834259 4899181 5 -1
2.7372148036956787 7.451509952545166 0.24342234432697296 6933851 5 -1
2.738179922103882 7.454137325286865 0.12171117216348648 7589974 5 -1
2.9692914485931396 7.3298444747924805 0.7302670478820801 8180304 5 -1
2.981135845184326 7.35908317565918 0.18256676197052002 8705099 5 -1
2.918452024459839 7.378774166107178 -0.7943649291992188 2199437 5 -1
2.6879093647003174 7.505745887756348 0.1833149790763855 4899181 5 -1
2.5041277408599854 7.567317008972168 0.24441997706890106 6933851 5 -1
2.744553804397583 7.471488952636719 0.4888399541378021 6933851 5 -1
2.7496440410614014 7.48534631729126 0.061104994267225266 7589974 5 -1
2.9927380084991455 7.387723922729492 0.24441997706890106 8705099 5 -1
-0.9203160405158997 7.9541120529174805 0 4456788 0 -1
0.8559050559997559 7.932642936706543 0.6748984456062317 4456788 0 -1
-6.236721038818359 4.479372978210449 -2.270112991333008 4456788 0 -1
-5.978034973144531 5.257391452789307 -0.8589616417884827 4456788 0 -1
-4.613253593444824 6.440018653869629 -1.1657336950302124 4456788 0 -1
1.6936439275741577 7.431249618530273 2.454176187515259 2328718 0 -1
3.070207118988037 6.90857458114624 2.6382393836975098 2328718 0 -1
2.9394729137420654 7.43192195892334 -0.4908352196216583 2006409 5 -1
2.941897392272949 7.438051223754883 -0.36812642216682434 2666112 5 -1
2.881539821624756 7.464415550231934 0.30677202343940735 6343264 5 -1
2.8767917156219482 7.4521164894104 -0.5521896481513977 11918891 5 -1
0.9791288375854492 7.926198959350586 0.9240571856498718 4456788 0 -1
1.8559051752090454 7.337958812713623 2.7105677127838135 3887499 0 -1
2.9569828510284424 7.476192474365234 0 2666112 5 -1
2.952726364135742 7.465430736541748 -0.4312266707420349 3257723 5 -1
3.0182323455810547 7.450657367706299 0.12320762127637863 5949540 5 -1
2.8932533264160156 7.4947590827941895 0.3080190420150757 6343264 5 -1
3.075756549835205 7.415589332580566 0.4312266707420349 9360965 5 -1
1.8634189367294312 7.367667198181152 2.7215416431427 4725613 0 -1
2.227282762527466 7.533764839172363 -1.8555965423583984 4147337 0 -1
3.9019548892974854 6.93431282043457 -1.36077082157135 4147337 0 -1
1.8154418468475342 7.424086570739746 2.5978353023529053 3887499 0 -1
3.1623826026916504 6.957889556884766 2.5978353023529053 3887499 0 -1
-6.927560329437256 4.143735408782959 0 2912910 0 -1
2.9465577602386475 7.449833869934082 -0.9896515011787415 2912910 5 -1
2.9658150672912598 7.498523235321045 0.37111932039260864 5949540 5 -1
3.0200226306915283 7.455077171325684 0.680385410785675 8705099 5 -1
3.081655979156494 7.429812431335449 0.680385410785675 9360965 5 -1
2.9661002159118652 7.49924373626709 -0.8073341250419617 4017546 5 -1
2.8499197959899902 7.56662130355835 0.5589236617088318 6933851 5 -1
3.0940818786621094 7.459771156311035 0.6831288933753967 6933851 5 -1
3.1018481254577637 7.478495121002197 0.3726157546043396 8180304 5 -1
3.0357842445373535 7.493985176086426 0.5589236617088318 8705099 5 -1
3.0357842445373535 7.493985176086426 0.5589236617088318 9360965 5 -1
3.047976016998291 7.524081707000732 0.5611683130264282 8180304 5 -1
3.046267509460449 7.519863605499268 0.6235203742980957 8705099 5 -1
3.1101796627044678 7.49858283996582 0.5611683130264282 9360965 5 -1
3.061702013015747 7.55796480178833 0.5008115768432617 6343264 5 -1
3.058452606201172 7.549942970275879 0.6260144114494324 7589974 5 -1
2.8103582859039307 7.650628566741943 0.5634129643440247 8705099 5 -1
3.058452606201172 7.549942970275879 0.6260144114494324 8705099 5 -1
3.1226203441619873 7.5285773277282715 0.5634129643440247 9360965 5 -1
-6.019317150115967 5.543323040008545 -0.5656576752662659 2134668 0 -1
-4.919286727905273 6.340463638305664 -1.6969729661941528 2134668 0 -1
-4.565292835235596 6.7654337882995605 -0.8170610666275024 2134668 0 -1
-2.6795597076416016 7.678471565246582 -1.0684645175933838 2134668 0 -1
0.565242350101471 8.176939010620117 0.3142542541027069 2134668 0 -1
2.794879674911499 7.608490943908691 -1.2570170164108276 2134668 0 -1
4.448051452636719 6.591690540313721 -2.0112273693084717 2134668 0 -1
3.0079715251922607 7.60510778427124 0.6285085082054138 6933851 5 -1
2.8199732303619385 7.676803112030029 0.6285085082054138 8705099 5 -1
3.0706374645233154 7.58002233505249 0.6285085082054138 8705099 5 -1
3.082822561264038 7.61010217666626 0.6310026049613953 8705099 5 -1
-4.783207416534424 7.231202125549316 -0.5993277430534363 4456788 0 -1
-6.661509990692139 5.451243877410889 -1.1986554861068726 4523353 0 -1
-5.204113483428955 6.707576274871826 -2.0052413940429688 2994813 0 -1
-5.158237457275391 6.782760143280029 -2.012723684310913 2994813 0 -1
-5.1767497062683105 6.807102680206299 -1.8785420656204224 3651704 0 -1
-3.0015053749084473 7.775177955627441 2.683631658554077 3651704 0 -1
-5.254741668701172 6.638376235961914 -2.3569068908691406 2070155 0 -1
-4.972443103790283 6.804569244384766 -2.4915874004364014 2070155 0 -1
-5.393310546875 6.677750587463379 -1.8855255842208862 2070922 0 -1
-1.3709747791290283 8.4090576171875 2.154886245727539 2070922 0 -1
-5.167614936828613 6.795091152191162 -2.0875461101531982 2994813 0 -1
-5.167614936828613 6.795091152191162 -2.0875461101531982 3651704 0 -1
-1.3022725582122803 8.397403717041016 2.365636110305786 2070922 0 -1
-5.328147888183594 6.7311110496521 -2.0276882648468018 2006409 0 -1
-5.365012168884277 6.777681827545166 -1.7573298215866089 4505456 0 -1
-1.5537384748458862 8.304810523986816 2.645721673965454 2070922 0 -1
-1.3011107444763184 8.389911651611328 2.5100436210632324 2070922 0 -1
-5.357579231262207 6.76829195022583 -1.9673314094543457 4899181 0 -1
-5.471329689025879 6.774350643157959 -1.770298957824707 2199437 0 -1
-5.186949729919434 7.098111152648926 -1.2936800718307495 2271109 0 -1
-2.5403895378112793 8.11253547668457 2.587360143661499 2271109 0 -1
-5.294793605804443 6.96232271194458 -1.5660337209701538 2468738 0 -1
-5.303839683532715 7.114830493927002 -0.8883917927742004 2271109 0 -1
-5.5684404373168945 6.894588947296143 -1.6580653190612793 4456788 0 -1
-5.210931777954102 7.2743659019470215 -1.1053768396377563 4456788 0 -1
-4.76007604598999 7.64198112487793 -0.483602374792099 4456788 0 -1
-3.6404318809509277 8.191693305969238 -0.967204749584198 4456788 0 -1
-4.4200897216796875 9.103936195373535 -0.23269779980182648 4456788 0 -1
-5.268558502197266 8.125730514526367 -2.947505474090576 4724328 0 -1
-4.4191670417785645 9.302472114562988 -0.6324990391731262 4456788 0 -1
-4.433107852935791 9.331817626953125 -0.6344943046569824 4456788 0 -1
5.899977207183838 8.236261367797852 -3.262258529663086 3651704 0 -1
8.900525093078613 5.503669738769531 2.823798894882202 2468738 0 -1
8.867165565490723 5.483041286468506 3.082185745239258 2468738 0 -1
-4.350069999694824 10.24649429321289 -0.8554699420928955 4456788 0 -1
-4.435365200042725 10.209861755371094 -0.8554699420928955 4456788 0 -1
-5.473743438720703 9.337547302246094 -2.73750376701355 4590430 0 -1
-4.81857967376709 9.924694061279297 -1.710939884185791 4590430 0 -1
-3.353285312652588 10.414119720458984 -2.224221706390381 4590430 0 -1
2.38149356842041 10.841571807861328 1.1976579427719116 4590430 0 -1
-6.074693202972412 8.650677680969238 -3.5929737091064453 4724328 0 -1
-5.744670867919922 9.22268295288086 -2.5664098262786865 4724328 0 -1
-5.37361478805542 9.549654960632324 -2.138674736022949 4724328 0 -1
-3.6764156818389893 10.266060829162598 -2.3953158855438232 4724328 0 -1
-3.149496078491211 10.653142929077148 -1.1121108531951904 4724328 0 -1
-3.7166788578033447 10.117901802062988 -2.908597707748413 4725613 0 -1
-5.750709533691406 8.869355201721191 -3.5929737091064453 4664956 0 -1
-5.750709533691406 8.869355201721191 -3.5929737091064453 4664956 0 -1
-3.5865530967712402 10.277525901794434 -2.480862855911255 4664956 0 -1
-2.163015604019165 11.082433700561523 2.2955524921417236 4456788 0 -1
-1.880613088607788 10.996397018432617 3.0103561878204346 4456788 0 -1
-2.627896547317505 11.12582015991211 1.682257890701294 4456788 0 -1
-1.9618183374404907 10.95754623413086 3.0988962650299072 4456788 0 -1
-3.1798477172851562 11.080310821533203 0.7968590259552002 4456788 0 -1
-1.3271232843399048 11.470067977905273 0.44269946217536926 4456788 0 -1
-2.349806547164917 11.112275123596191 2.124957323074341 4456788 0 -1
-1.7096482515335083 11.024271011352539 3.0103561878204346 4456788 0 -1
-0.34909123182296753 11.384358406066895 1.9478776454925537 4456788 0 -1
-2.708969831466675 11.078088760375977 1.8593376874923706 4456788 0 -1
-1.5015947818756104 11.42934513092041 0.7968590259552002 4456788 0 -1
6.269693851470947 8.928367614746094 -3.8072152137756348 4456788 0 -1
-1.6321741342544556 11.091609954833984 2.930046796798706 4456788 0 -1
0.3436155915260315 11.205790519714355 2.930046796798706 4456788 0 -1
-4.505732536315918 10.613154411315918 1.1542608737945557 4456788 0 -1
-2.5345873832702637 11.121081352233887 2.042153835296631 4456788 0 -1
-1.8732167482376099 10.95314884185791 3.2852039337158203 4456788 0 -1
-1.241735816001892 11.508573532104492 0.5327357649803162 4456788 0 -1
0.4191569983959198 10.932548522949219 3.8179397583007812 4456788 0 -1
-3.1017813682556152 11.142145156860352 0.7103143930435181 4456788 0 -1
-2.1752359867095947 11.14504623413086 2.3085217475891113 4456788 0 -1
-0.35052910447120667 11.431249618530273 1.8645752668380737 4456788 0 -1
0.3405848741531372 11.106953620910645 3.2852039337158203 4456788 0 -1
-2.7290163040161133 11.160067558288574 1.5094181299209595 4456788 0 -1
-2.9327516555786133 11.221406936645508 0.7123096585273743 4456788 0 -1
-2.284839391708374 11.238847732543945 1.8698128461837769 4456788 0 -1
-1.9646443128585815 10.9733304977417 -3.3929483890533447 4456788 0 -1
-1.1077051162719727 11.06494140625 3.482236385345459 2666112 0 -1
-5.800777912139893 9.895428657531738 2.053626537322998 11918891 0 -1
-0.5884233713150024 10.954687118530273 3.9286770820617676 11918891 0 -1
-1.58418869972229 11.376208305358887 -2.1489005088806152 4456788 6 -1
-1.6048479080200195 11.524563789367676 -1.0744502544403076 4456788 6 -1
-6.59395170211792 8.845449447631836 3.8501133918762207 4505456 0 -1
-3.0420408248901367 11.273468971252441 0.44768762588500977 4505456 0 -1
-2.0004217624664307 11.173162460327148 2.775663137435913 10672695 0 -1
-1.6138383150100708 11.58912467956543 -0.6285085082054138 4456788 6 -1
-1.5187861919403076 11.560197830200195 -1.1672301292419434 4456788 6 -1
-1.5209462642669678 11.576638221740723 -0.9876562356948853 4456788 6 -1
-5.407462120056152 10.015955924987793 2.7833948135375977 2072968 0 -1
-4.248095989227295 10.7405366897583 1.9753124713897705 2072968 0 -1
-1.308256983757019 11.307010650634766 2.7833948135375977 2072968 0 -1
4.821763038635254 10.149948120117188 -3.3221163749694824 2072968 0 -1
-1.7094345092773438 11.6166410446167 -0.4501816928386688 4456788 6 -1
-1.5106722116470337 11.498437881469727 -1.8907631635665894 4456788 6 -1
-1.5204741954803467 11.573044776916504 -1.350545048713684 4456788 6 -1
