VERSION .7
FIELDS x y z rgb label object
SIZE 4 4 4 4 4 4
TYPE F F F I I I
COUNT 1 1 1 1 1 1
WIDTH 683
HEIGHT 1
POINTS 683
VIEWPOINT 0 0 0 1 0 0 0
DATA ascii
0.03924771025776863 1.7069153785705566 0.4175092279911041 4456788 0 -1
0.23793520033359528 1.7086349725723267 0.33670100569725037 4456788 0 -1
0.33734145760536194 1.6593416929244995 0.47138139605522156 4456788 0 -1
0.619940996170044 1.5674078464508057 0.4983174800872803 4456788 0 -1
-0.03932212293148041 1.7101516723632812 -0.40404120087623596 4590430 0 -1
0.026308830827474594 1.7165412902832031 -0.37710511684417725 4590430 0 -1
0 1.7040166854858398 -0.4309772551059723 4725613 0 -1
-0.1919032782316208 1.7785853147506714 0.06858723610639572 4456788 0 -1
-0.09464797377586365 1.762062668800354 0.30178385972976685 4456788 0 -1
0.17714501917362213 1.7695136070251465 0.20576171576976776 4456788 0 -1
0.25618651509284973 1.740942358970642 0.3292187452316284 4456788 0 -1
0.3317917585372925 1.6999692916870117 0.45267578959465027 4456788 0 -1
0.38854438066482544 1.6449943780899048 0.5898502469062805 4456788 0 -1
-0.027077389881014824 1.7666864395141602 -0.28806641697883606 4590430 0 -1
0.3545955717563629 1.7442126274108887 -0.19204427301883698 4590430 0 -1
1.449557900428772 0.9544600248336792 0.4389583170413971 4341894 0 -1
-0.02783431112766266 1.8160724639892578 -0.1536354124546051 4590430 0 -1
0.23564539849758148 1.7936081886291504 -0.22346968948841095 4590430 0 -1
0.3490791320800781 1.7885429859161377 -0.04190056771039963 4590430 0 -1
1.1834213733673096 1.2427189350128174 0.6145416498184204 4590430 0 -1
1.1840589046478271 1.296741247177124 0.4888399541378021 4724328 0 -1
1.4698158502578735 0.9677988290786743 0.4748730957508087 4341894 0 -1
0.027905980125069618 1.8207485675811768 -0.35540661215782166 4590430 0 -1
-1.588809609413147 1.8510686159133911 0.09352805465459824 4664956 0 -1
-1.6467127799987793 1.8412578105926514 0.132685124874115 4456788 0 -1
-1.6584162712097168 1.8162413835525513 0.26537024974823 4456788 0 -1
-1.5954960584640503 1.7839902639389038 -0.6255156397819519 4456788 0 -1
-1.6421005725860596 1.836100697517395 0.22746022045612335 4456788 0 -1
-1.8575372695922852 1.6336138248443604 -0.018955018371343613 4456788 0 -1
-1.6220239400863647 1.8514362573623657 0.24641524255275726 4728182 0 -1
-1.6366463899612427 1.8300021886825562 0.3032802939414978 4729209 0 -1
-1.617834448814392 1.8466540575027466 0.3032802939414978 4664956 0 -1
-1.6004990339279175 1.8646876811981201 0.2843252718448639 4600703 0 -1
-1.66681706905365 1.825441598892212 0.09477509558200836 2264205 0 -1
-1.6554584503173828 1.813002109527588 0.3032802939414978 2199437 0 -1
-1.6515321731567383 1.885118007659912 -0.019204426556825638 4456788 0 -1
-1.6850210428237915 1.8453781604766846 0.19204427301883698 4456788 0 -1
-1.6868114471435547 1.8473387956619263 0.1536354124546051 4456788 0 -1
-1.6828303337097168 1.842978835105896 0.23045311868190765 4456788 0 -1
-1.664839744567871 1.8615262508392334 0.21124869585037231 4456788 0 -1
-1.6637072563171387 1.8602598905563354 0.23045311868190765 4456788 0 -1
-1.639121651649475 1.8709521293640137 0.3072708249092102 4456788 0 -1
-1.8818128108978271 1.6549630165100098 -0.038408853113651276 4456788 0 -1
-1.659712553024292 1.8557933568954468 0.28806641697883606 4726897 0 -1
-1.6565495729446411 1.8522566556930542 0.32647526264190674 4728182 0 -1
-1.6548172235488892 1.8503196239471436 0.3456796705722809 4729209 0 -1
-1.637508749961853 1.8691110610961914 0.32647526264190674 4664956 0 -1
-1.616775393486023 1.883650779724121 0.3456796705722809 4600703 0 -1
-1.6529839038848877 1.8482698202133179 0.3648841083049774 4536450 0 -1
-1.6676430702209473 1.8646608591079712 0.1536354124546051 2264205 0 -1
-1.706904411315918 1.8693441152572632 0.19453835487365723 4456788 0 -1
-1.706904411315918 1.8693441152572632 0.19453835487365723 4456788 0 -1
-1.706904411315918 1.8693441152572632 0.19453835487365723 4456788 0 -1
-1.6864609718322754 1.8857018947601318 0.213992178440094 4456788 0 -1
-1.6864609718322754 1.8857018947601318 0.213992178440094 4456788 0 -1
-1.6587750911712646 1.8933852910995483 0.33071520924568176 4456788 0 -1
-1.9059721231460571 1.6762099266052246 -0.05836150422692299 4456788 0 -1
-1.678063154220581 1.876312017440796 0.33071520924568176 4726897 0 -1
-1.6763083934783936 1.87434983253479 0.35016903281211853 4728182 0 -1
-1.674451231956482 1.872273325920105 0.3696228563785553 4729209 0 -1
-1.6587750911712646 1.8933852910995483 0.33071520924568176 4664956 0 -1
-1.6359580755233765 1.905999779701233 0.3696228563785553 4600703 0 -1
-1.67042875289917 1.867775559425354 0.4085305333137512 4536450 0 -1
-1.6552046537399292 1.8893098831176758 0.3696228563785553 4341894 0 -1
-1.681267261505127 1.8798946142196655 0.29180753231048584 4505456 0 -1
-1.7306246757507324 1.8953216075897217 0.1576259434223175 4456788 0 -1
-1.7306246757507324 1.8953216075897217 0.1576259434223175 4456788 0 -1
-1.7191121578216553 1.8827135562896729 0.3349551260471344 4456788 0 -1
-1.6995768547058105 1.900367259979248 0.3349551260471344 4726897 0 -1
-1.6959185600280762 1.896276831626892 0.37436163425445557 4728182 0 -1
-1.6939337253570557 1.8940573930740356 0.39406487345695496 4729209 0 -1
-1.674463152885437 1.9112921953201294 0.39406487345695496 4536450 0 -1
-1.8092302083969116 1.8598716259002686 0.21947915852069855 4456788 0 -1
-1.813771367073059 1.8645399808883667 0.11971590667963028 4456788 0 -1
-1.771558403968811 1.8999847173690796 0.17957386374473572 4456788 0 -1
-1.7192906141281128 1.922410011291504 0.35914772748947144 4726897 0 -1
-1.7173858880996704 1.9202803373336792 0.37910038232803345 4728182 0 -1
-1.6866633892059326 1.925217866897583 0.4788636267185211 4729209 0 -1
-1.8370376825332642 1.8884575366973877 0.10101030021905899 4456788 0 -1
-1.7946020364761353 1.9246989488601685 0.1616164743900299 4456788 0 -1
-1.7946020364761353 1.9246989488601685 0.1616164743900299 4456788 0 -1
-1.7953951358795166 1.9255495071411133 0.14141441881656647 4456788 0 -1
-1.7937028408050537 1.9237345457077026 0.18181852996349335 4456788 0 -1
-1.7735488414764404 1.9423307180404663 0.18181852996349335 4456788 0 -1
-1.60015070438385 1.9416345357894897 0.7878803014755249 2264205 0 -1
-1.618868350982666 1.9643465280532837 0.6868700385093689 2199437 0 -1
-1.6117147207260132 1.9556663036346436 0.7272741198539734 2134668 0 -1
-1.6153465509414673 1.9600732326507568 0.7070720791816711 2070155 0 -1
-1.6079719066619873 1.9511247873306274 0.7474762201309204 2070922 0 -1
-1.8392807245254517 1.9314414262771606 -0.10225734114646912 4456788 0 -1
-1.7015048265457153 2.0231757164001465 0.36812642216682434 4657508 0 -1
-1.9113445281982422 1.84083092212677 0.2863205373287201 4341894 0 -1
-1.8158472776412964 1.9474843740463257 0.18406321108341217 3238030 0 -1
-1.6520147323608398 2.0045666694641113 0.6135440468788147 3238030 0 -1
-1.615775227546692 1.960593342781067 0.8180587291717529 2264205 0 -1
-1.6474357843399048 1.958884835243225 0.7567043304443359 2199437 0 -1
-1.6434868574142456 1.9541893005371094 0.7771557569503784 2134668 0 -1
-1.6434868574142456 1.9541893005371094 0.7771557569503784 2070155 0 -1
-1.6394226551055908 1.9493567943572998 0.7976072430610657 2070922 0 -1
-1.6394226551055908 1.9493567943572998 0.7976072430610657 2666112 0 -1
-1.6352423429489136 1.94438636302948 0.8180587291717529 2994813 0 -1
-1.6309452056884766 1.9392768144607544 0.8385101556777954 3257723 0 -1
-1.6352423429489136 1.94438636302948 0.8180587291717529 3651704 0 -1
-1.7222548723220825 2.047848701477051 0.3726157546043396 4657508 0 -1
-1.6751742362976074 1.9918673038482666 0.7245306372642517 2199437 0 -1
-1.6714078187942505 1.9873888492584229 0.7452315092086792 2134668 0 -1
-1.6515101194381714 2.0039544105529785 0.7452315092086792 2070155 0 -1
-1.6437253952026367 1.9945082664489746 0.7866332530975342 2070922 0 -1
-1.6396605968475342 1.9895761013031006 0.8073341250419617 2006409 0 -1
-1.6354798078536987 1.9845030307769775 0.8280350565910339 2072968 0 -1
-1.6551843881607056 1.9680984020233154 0.8280350565910339 2666112 0 -1
-1.6551843881607056 1.9680984020233154 0.8280350565910339 2994813 0 -1
-1.6704875230789185 1.9462289810180664 0.8487359285354614 3257723 0 -1
-1.6551843881607056 1.9680984020233154 0.8280350565910339 3651704 0 -1
-1.6833332777023315 1.9611949920654297 0.7866332530975342 4045940 0 -1
-1.7410739660263062 2.070225477218628 0.39805540442466736 4657508 0 -1
-1.6265301704406738 2.0138955116271973 0.8799118995666504 2072968 0 -1
-1.6551843881607056 2.0084125995635986 0.8380113840103149 2666112 0 -1
-1.675126314163208 1.9918104410171509 0.8380113840103149 2994813 0 -1
-1.6906139850616455 1.969677448272705 0.8589616417884827 3257723 0 -1
-1.6707243919372559 1.9865761995315552 0.8589616417884827 5424489 0 -1
-1.8666701316833496 2.0019915103912354 0.40279415249824524 4523353 0 -1
-1.6704875230789185 2.026981830596924 0.8691873550415039 2666112 0 -1
-1.7556065320968628 1.963016390800476 0.847987711429596 2994813 0 -1
-1.8907256126403809 2.0277907848358154 0.38608381152153015 4523353 0 -1
-1.8907256126403809 2.0277907848358154 0.38608381152153015 4590430 0 -1
-2.0394344329833984 1.8781603574752808 -0.38608381152153015 2718350 0 -1
-1.7141135931015015 2.2093193531036377 -0.1286945939064026 2072968 0 -1
-1.5665500164031982 2.2757136821746826 -0.45043110847473145 2072968 0 -1
-1.6659928560256958 2.234844446182251 -0.49906569719314575 4456788 0 -1
-1.4321016073226929 2.442992687225342 0 4456788 0 -1
-1.7802308797836304 2.1167850494384766 -0.6075582504272461 4456788 0 -1
-1.5383764505386353 2.372647285461426 -0.15188956260681152 4456788 0 -1
-1.8389508724212646 2.1424999237060547 0.2169850766658783 4456788 0 -1
-1.539870262145996 2.3749513626098633 -0.08679403364658356 4456788 0 -1
-1.7300695180892944 2.1856167316436768 -0.49906569719314575 4456788 0 -1
-1.5988874435424805 2.3226897716522217 -0.2603820860385895 4456788 0 -1
-1.7648741006851196 2.1415109634399414 -0.5641612410545349 4456788 0 -1
-1.6548172235488892 2.2645442485809326 -0.3905731439590454 4456788 0 -1
-1.475325345993042 2.416745662689209 -0.04339701682329178 4456788 0 -1
-1.5356481075286865 2.3215765953063965 -0.520764172077179 4456788 0 -1
-1.9105918407440186 2.0490970611572266 0.412271648645401 4523353 0 -1
-1.916599154472351 2.055540084838867 0.34717613458633423 4590430 0 -1
-1.5401870012283325 2.3754398822784424 -0.06509552150964737 4600703 0 -1
-1.6172654628753662 2.3493874073028564 -0.2633749842643738 4456788 0 -1
-1.717846155166626 2.214130163192749 -0.5925937294960022 4456788 0 -1
-1.6658042669296265 2.2795796394348145 -0.4828541576862335 4456788 0 -1
-2.0543642044067383 1.9785743951797485 -0.2633749842643738 4456788 0 -1
-1.5954104661941528 2.3642830848693848 -0.2633749842643738 4456788 0 -1
-1.5790897607803345 2.387251138687134 -0.10973957926034927 4456788 0 -1
-1.8221302032470703 2.1229026317596436 -0.6145416498184204 4456788 0 -1
-1.5566543340682983 2.4008376598358154 -0.1316874921321869 4456788 0 -1
-1.578579068183899 2.386478900909424 -0.1316874921321869 4456788 0 -1
-1.766399621963501 2.18707537651062 -0.5486978888511658 4456788 0 -1
-1.6520999670028687 2.3063015937805176 -0.39506250619888306 4456788 0 -1
-1.4701218605041504 2.457425832748413 -0.06584374606609344 4456788 0 -1
-1.5555158853530884 2.3516123294830322 -0.5048021078109741 4456788 0 -1
-1.8937344551086426 2.031017780303955 -0.7023333311080933 4590430 0 -1
-1.563413381576538 2.363551616668701 -0.41701042652130127 4590430 0 -1
-1.7401888370513916 2.2429277896881104 -0.5771304368972778 4456788 0 -1
-2.2855734825134277 1.6415573358535767 -0.6881170868873596 4456788 0 -1
-1.6331233978271484 2.3724241256713867 -0.31076255440711975 4456788 0 -1
-1.4865220785140991 2.484840154647827 -0.08878929913043976 4456788 0 -1
-1.6173573732376099 2.3968067169189453 -0.17757859826087952 4456788 0 -1
-1.4871771335601807 2.4859349727630615 -0.02219732478260994 4456788 0 -1
-1.5977851152420044 2.4155144691467285 -0.06659197062253952 4456788 0 -1
-1.5959067344665527 2.412674903869629 -0.15538127720355988 4456788 0 -1
-1.7619411945343018 2.2258808612823486 -0.5771304368972778 4456788 0 -1
-1.6690226793289185 2.329925298690796 -0.42174917459487915 4456788 0 -1
-1.5083098411560059 2.470778226852417 -0.1109866201877594 4456788 0 -1
-1.5731922388076782 2.3783352375030518 -0.5105384588241577 4456788 0 -1
-1.5773810148239136 2.3846678733825684 -0.46614381670951843 4590430 0 -1
-1.5729501247406006 2.4259707927703857 -0.47138139605522156 4456788 0 -1
-1.9008709192276 2.2602322101593018 0.2269614040851593 4600703 0 -1
-1.7866148948669434 2.3492870330810547 0.2496575564146042 4600703 0 -1
-1.9732593297958374 2.2523486614227295 0.022945549339056015 4456788 0 -1
-1.8770556449890137 2.324084758758545 0.20650994777679443 4456788 0 -1
-1.8577163219451904 2.346874475479126 -0.09178219735622406 4456788 0 -1
-1.920567512512207 2.2836523056030273 0.25240105390548706 4600703 0 -1
-1.830247163772583 2.359003782272339 0.22945548593997955 4600703 0 -1
-1.8977035284042358 2.302687168121338 0.25240105390548706 4212104 0 -1
-1.8782950639724731 2.3728718757629395 -0.06958486884832382 4456788 0 -1
-1.8981014490127563 2.3978934288024902 0.09377746284008026 4456788 0 -1
-1.9918348789215088 2.320619821548462 -0.09377746284008026 4456788 0 -1
-2.582545518875122 1.700474500656128 0.02369377389550209 4456788 0 -1
-2.0124921798706055 2.344686985015869 0.11846886575222015 4456788 0 -1
-1.7304913997650146 2.5138697624206543 0.4975692331790924 4456788 0 -1
-2.0130245685577393 2.3453073501586914 -0.09477509558200836 4456788 0 -1
-2.0134384632110596 2.345789670944214 0.07108131796121597 4456788 0 -1
-2.0361685752868652 2.324155569076538 0.11846886575222015 4456788 0 -1
-2.1071975231170654 2.259955644607544 -0.11846886575222015 4456788 0 -1
-1.9177865982055664 2.422762155532837 0.11846886575222015 4456788 0 -1
-2.0124921798706055 2.344686985015869 -0.11846886575222015 4456788 0 -1
-2.056149482727051 2.3469626903533936 -0.1676022708415985 4456788 0 -1
-2.0585694313049316 2.3497250080108643 -0.07182954251766205 4456788 0 -1
-3.0915770530700684 1.014606237411499 0.9337840676307678 3432845 0 -1
-2.770615339279175 1.82430899143219 0.6743996143341064 3432845 0 -1
-3.1554791927337646 0.9469191431999207 0.7781534194946289 3107982 0 -1
-2.650602340698242 1.9565303325653076 0.7781534194946289 2523534 0 -1
-2.913602113723755 1.7427774667739868 0.39281782507896423 4456788 0 -1
-2.9109137058258057 1.7411695718765259 0.41900569200515747 4523353 0 -1
-2.805953025817871 1.6783870458602905 0.9951384663581848 4590430 0 -1
-3.1671030521392822 0.9504073262214661 0.8641992211341858 3432845 0 -1
-2.9168784618377686 1.6853923797607422 0.5761328339576721 3432845 0 -1
-2.7759106159210205 1.883175253868103 0.6546963453292847 3432845 0 -1
3.212859630584717 0.9641382694244385 0.6546963453292847 3432845 0 -1
-2.924272298812866 1.689664602279663 0.5237571001052856 3107982 0 -1
-3.0660793781280518 1.0874404907226562 1.0475142002105713 2006409 0 -1
3.2228317260742188 0.8696787357330322 0.733259916305542 2006409 0 -1
-3.0462982654571533 1.505425214767456 0.366629958152771 5949540 0 -1
-2.915088653564453 1.8025548458099365 0.396558940410614 4523353 0 -1
-2.34088134765625 2.510579824447632 0.8971210718154907 4726897 0 -1
-2.3573882579803467 2.5282833576202393 0.9327864646911621 4726897 0 -1
-2.383833169937134 2.556645631790161 0.9135820269584656 4726897 0 -1
-2.2923734188079834 2.670767307281494 -0.9497461915016174 4456788 0 -1
-3.4870784282684326 0.8251222372055054 -0.670409083366394 4456788 0 -1
-2.864750385284424 2.057537078857422 -0.9218124747276306 4456788 0 -1
-2.764749526977539 2.26244854927063 -0.7262765169143677 4456788 0 -1
-2.61061692237854 2.514305591583252 -0.39107197523117065 4456788 0 -1
-2.1592395305633545 2.727792263031006 -1.0894147157669067 4590430 0 -1
-2.007932186126709 2.916905641555786 -0.865945041179657 4590430 0 -1
-3.168605089187622 1.7658040523529053 0.36313825845718384 4728182 0 -1
-2.9294259548187256 2.1039888858795166 -0.53074049949646 4728182 0 -1
-2.3193423748016357 2.6473805904388428 0.9497461915016174 4728182 0 -1
-2.5209243297576904 2.5914864540100098 0.6763948798179626 4456788 0 -1
-0.027209894731640816 3.550976514816284 -0.9582260847091675 4456788 0 -1
-2.7871785163879395 2.3940370082855225 0.16909871995449066 4456788 0 -1
-2.4856350421905518 2.610182285308838 0.7327611446380615 4456788 0 -1
-2.7663562297821045 2.3761515617370605 0.47911304235458374 4456788 0 -1
-2.4216806888580322 2.5972366333007812 0.9582260847091675 4456788 0 -1
-2.7355494499206543 2.40578293800354 0.5072961449623108 4456788 0 -1
-2.7436418533325195 2.412899971008301 0.42274680733680725 4456788 0 -1
-2.759917974472046 2.4272139072418213 0.14091560244560242 4456788 0 -1
-2.7502453327178955 2.4187073707580566 0.3381974399089813 4456788 0 -1
-2.7325189113616943 2.4031176567077637 0.5354793071746826 4590430 0 -1
-2.9007301330566406 2.2570509910583496 0.14091560244560242 4724328 0 -1
-2.7502453327178955 2.4187073707580566 0.3381974399089813 4728182 0 -1
-2.779754161834717 2.4446587562561035 0.2558927536010742 4456788 0 -1
-3.1484971046447754 1.9468837976455688 -0.2558927536010742 4456788 0 -1
-2.6752755641937256 2.519890546798706 0.5117855072021484 4456788 0 -1
-2.7442383766174316 2.470102548599243 0.3696228563785553 4456788 0 -1
-2.748141288757324 2.4736156463623047 0.31275781989097595 4456788 0 -1
-2.84116530418396 2.382528305053711 0.14216263592243195 4456788 0 -1
-2.7626469135284424 2.4296138286590576 0.48335298895835876 4456788 0 -1
-2.7745838165283203 2.4401116371154785 0.3411903381347656 4456788 0 -1
-2.7879185676574707 2.3946726322174072 0.5117855072021484 4456788 0 -1
-2.790837287902832 2.397179365158081 0.48335298895835876 4456788 0 -1
-2.652495861053467 2.5546398162841797 0.4549204409122467 4724328 0 -1
-2.3657355308532715 2.7003352642059326 0.9382734298706055 4724328 0 -1
-2.6378300189971924 2.5405149459838867 0.5970830917358398 4725613 0 -1
-2.808119058609009 2.4120235443115234 0.2558927536010742 4728182 0 -1
-2.9566357135772705 2.241415500640869 0.05686505511403084 3562893 0 -1
-2.6471147537231445 2.54945707321167 0.5117855072021484 3562893 0 -1
-2.8431694507598877 2.3842086791992188 0.02843252755701542 2264205 0 -1
-2.6242778301239014 2.583618402481079 0.4549204409122467 2199437 0 -1
-3.2948129177093506 1.6282366514205933 0.5117855072021484 11197490 0 -1
-2.804137945175171 2.4661033153533936 0.25813743472099304 4456788 0 -1
-3.125504970550537 2.057985782623291 -0.08604580909013748 4456788 0 -1
-2.6673765182495117 2.5689713954925537 0.5449568033218384 4456788 0 -1
-2.673130512237549 2.5745129585266113 0.4875929057598114 4456788 0 -1
-2.8253891468048096 2.4268577098846436 0.3728651702404022 4456788 0 -1
-2.8294074535369873 2.430309295654297 0.31550130248069763 4456788 0 -1
-2.838761329650879 2.4383437633514404 0.08604580909013748 4456788 0 -1
-2.81809139251709 2.4205892086029053 0.4589109718799591 4456788 0 -1
-2.8294074535369873 2.430309295654297 0.31550130248069763 4456788 0 -1
-2.8123741149902344 2.4156785011291504 0.5162748694419861 4456788 0 -1
-2.8123741149902344 2.4156785011291504 0.5162748694419861 4456788 0 -1
-2.3913474082946777 2.729569673538208 0.9178219437599182 4724328 0 -1
-2.832751750946045 2.4331817626953125 0.25813743472099304 4728182 0 -1
-2.9828338623046875 2.2612762451171875 0.028681935742497444 3562893 0 -1
-2.8560431003570557 2.3950042724609375 0.3441832363605499 4899181 0 -1
-2.831190347671509 2.489894390106201 0.20251941680908203 4456788 0 -1
-3.0948357582092285 2.161176919937134 -0.08679403364658356 4456788 0 -1
-2.949610710144043 2.3542795181274414 0.11572537571191788 4456788 0 -1
-2.6935553550720215 2.594184398651123 0.520764172077179 4456788 0 -1
-2.847675323486328 2.446000337600708 0.40503883361816406 4456788 0 -1
-2.854011058807373 2.451442241668701 0.3182447850704193 4456788 0 -1
-2.836829423904419 2.4366843700408936 0.520764172077179 4456788 0 -1
-2.836829423904419 2.4366843700408936 0.520764172077179 4456788 0 -1
-2.8303701877593994 2.431136131286621 0.5786268711090088 4590430 0 -1
-2.858959913253784 2.3974502086639404 0.5786268711090088 4657508 0 -1
-2.4301564693450928 2.773867607116699 0.8100776672363281 4724328 0 -1
-2.8425965309143066 2.4416377544403076 0.4629015028476715 4728182 0 -1
-2.9325976371765137 2.3998019695281982 0.37934979796409607 4456788 0 -1
-2.768261671066284 2.549353837966919 0.5836150646209717 4456788 0 -1
-2.693337917327881 2.651608467102051 0.4668920338153839 4456788 0 -1
-2.80037522315979 2.520631790161133 0.5544342994689941 4456788 0 -1
-2.80037522315979 2.520631790161133 0.5544342994689941 4456788 0 -1
-2.9882736206054688 2.3251683712005615 0.4085305333137512 4456788 0 -1
-2.8612849712371826 2.4576902389526367 0.5252535343170166 4456788 0 -1
-2.994922161102295 2.3303415775299072 0.320988267660141 4456788 0 -1
-2.803481101989746 2.5234274864196777 0.5252535343170166 4456788 0 -1
-2.9829440116882324 2.321021556854248 0.4668920338153839 4590430 0 -1
-2.9829440116882324 2.321021556854248 0.4668920338153839 4590430 0 -1
-2.6349120140075684 2.6510610580444336 0.7295188307762146 4724328 0 -1
-3.6700119972229004 1.1013239622116089 0.2648714482784271 4456788 0 -1
-3.236462354660034 2.0662953853607178 -0.08829048275947571 4456788 0 -1
-3.2946293354034424 1.9706898927688599 -0.11772064119577408 4456788 0 -1
-3.3240456581115723 1.920656442642212 -0.11772064119577408 4456788 0 -1
-2.4578680992126465 2.922530174255371 0.41202226281166077 4456788 0 -1
3.2110342979431152 1.9855538606643677 -0.7063238620758057 4456788 0 -1
-3.1121702194213867 2.2352402210235596 0.2648714482784271 4590430 0 -1
-2.424276351928711 2.9416344165802 0.4708825647830963 4590430 0 -1
-2.3151333332061768 3.0442557334899902 0.35316193103790283 4590430 0 -1
-3.7396256923675537 1.009135127067566 0 4456788 0 -1
-2.677828788757324 2.7527828216552734 0.5045526623725891 4456788 0 -1
-2.7127463817596436 2.4982283115386963 -1.2869460582733154 4456788 0 -1
-3.5265355110168457 1.6661401987075806 0.20950284600257874 4590430 0 -1
-2.9710049629211426 2.3713555335998535 0.8978692889213562 4590430 0 -1
-2.3984181880950928 3.029949426651001 0.5686505436897278 4590430 0 -1
-2.8650460243225098 2.4025540351867676 -1.2373137474060059 4456788 0 -1
-2.5414199829101562 3.341808557510376 0.0643472969532013 4456788 0 -1
-2.5611207485198975 3.3677139282226562 0.06484611332416534 4456788 0 -1
-1.9407451152801514 4.270036697387695 1.4687645435333252 4456788 0 -1
-1.3001539707183838 4.530440330505371 1.3934433460235596 4456788 0 -1
-1.317502737045288 4.732701778411865 -0.1506425142288208 4456788 4 -1
-1.266980767250061 4.551218032836914 1.3557826280593872 3432845 0 -1
-1.2938300371170044 4.50840425491333 1.4687645435333252 2139270 0 -1
-1.1157104969024658 4.562597751617432 1.5543115139007568 4456788 0 -1
-1.9434956312179565 4.276088714599609 1.5543115139007568 4456788 0 -1
-1.3056271076202393 4.549511909484863 1.4405814409255981 4456788 0 -1
-1.0707145929336548 4.533122539520264 1.668041706085205 4456788 0 -1
-1.3627967834472656 4.748721599578857 -0.26537024974823 4456788 4 -1
-1.3258771896362305 4.762784481048584 -0.18955019116401672 4456788 4 -1
-1.4361754655838013 4.586313724517822 1.1752111911773682 4536450 0 -1
-1.1064050197601318 4.5245442390441895 1.668041706085205 4536450 0 -1
-1.2724097967147827 4.5707197189331055 1.4026713371276855 3432845 0 -1
-1.341894507408142 4.538946628570557 1.4405814409255981 2070922 0 -1
-1.987115502357483 4.27596378326416 1.6026967763900757 4456788 0 -1
-1.4085382223129272 4.764368057250977 -0.34343501925468445 4456788 4 -1
-1.410862922668457 4.772231578826904 -0.19079722464084625 4456788 4 -1
-1.4098670482635498 4.768863201141357 -0.26711612939834595 4456788 4 -1
-1.3722875118255615 4.781792163848877 -0.2289566695690155 4456788 4 -1
-1.3346000909805298 4.794118404388428 -0.19079722464084625 4456788 4 -1
-1.2610031366348267 4.529745578765869 1.640856146812439 4590430 0 -1
-1.4398555755615234 4.5980658531188965 1.2592617273330688 4536450 0 -1
-1.317374587059021 4.5904459953308105 1.411899447441101 3432845 0 -1
-1.4184550046920776 4.797912120819092 -0.3072708249092102 4456788 4 -1
-1.4200842380523682 4.803422451019287 -0.19204427301883698 4456788 4 -1
-1.419624924659729 4.801868915557861 -0.23045311868190765 4456788 4 -1
-1.4200842380523682 4.803422451019287 -0.19204427301883698 4456788 4 -1
-1.3827186822891235 4.818140506744385 0 4456788 4 -1
-1.305901050567627 4.839526176452637 0 4456788 4 -1
-1.267343282699585 4.849157810211182 0.07681770622730255 4456788 4 -1
-1.4679354429244995 4.823024749755859 -0.1932913064956665 4456788 4 -1
-1.3915339708328247 4.848857879638672 0.0773165225982666 4456788 4 -1
-1.3910435438156128 4.847148895263672 0.1546330451965332 4456788 4 -1
-1.3524035215377808 4.858071327209473 0.1546330451965332 4456788 4 -1
-1.2747859954833984 4.8776350021362305 0.1932913064956665 4456788 4 -1
-1.2751232385635376 4.878925800323486 0.1546330451965332 4456788 4 -1
-1.2364832162857056 4.888861179351807 0.1546330451965332 4456788 4 -1
-1.4243305921554565 4.679757595062256 1.3617684841156006 4456788 0 -1
-1.2221585512161255 4.67626953125 -1.5563068389892578 4456788 0 -1
-1.438907504081726 4.867092132568359 0.1556306779384613 4456788 4 -1
-1.4380615949630737 4.864231109619141 0.23344601690769196 4456788 4 -1
-1.283010482788086 4.909103870391846 0.19453835487365723 4456788 4 -1
-1.2448992729187012 4.9221367835998535 0.07781533896923065 4456788 4 -1
-1.118708848953247 4.908590793609619 -0.6614304184913635 4456788 4 -1
-1.5524957180023193 4.691544532775879 1.1672301292419434 4147337 0 -1
-1.2156471014022827 4.651355266571045 1.6341221332550049 4147337 0 -1
-1.6377604007720947 4.573298931121826 1.4784914255142212 2994813 0 -1
-1.4481312036514282 4.89829158782959 0.1566283106803894 4456788 4 -1
-1.4872698783874512 4.886549949645996 0.1566283106803894 4456788 4 -1
-1.4868764877319336 4.885257720947266 0.19578538835048676 4456788 4 -1
-1.5260049104690552 4.873176574707031 0.19578538835048676 4456788 4 -1
-1.3299329280853271 4.928585529327393 0.2349424660205841 4456788 4 -1
-1.3303632736206055 4.930180072784424 0.19578538835048676 4456788 4 -1
-1.2526954412460327 4.9529619216918945 0.11747123301029205 4456788 4 -1
-1.2129782438278198 4.9603657722473145 -0.19578538835048676 4456788 4 -1
-1.2500433921813965 4.942476272583008 -0.35241371393203735 4523353 4 -1
-1.134354591369629 4.977240085601807 -0.2349424660205841 4664956 4 -1
-1.0690709352493286 4.690793037414551 1.7229114770889282 4341894 0 -1
-1.7116361856460571 4.659581184387207 1.2138694524765015 2718350 0 -1
-1.4578688144683838 4.9312286376953125 0.07881297171115875 4456788 4 -1
-1.4576547145843506 4.930504322052002 0.11821945756673813 4456788 4 -1
-1.4958630800247192 4.914783477783203 0.23643891513347626 4456788 4 -1
-1.4946304559707642 4.910733699798584 0.315251886844635 4456788 4 -1
-1.4967429637908936 4.917674541473389 0.1576259434223175 4456788 4 -1
-1.2600817680358887 4.982166290283203 -0.19703243672847748 4456788 4 -1
-1.2193037271499634 4.986233234405518 -0.315251886844635 4456788 4 -1
-1.2573002576828003 4.971168518066406 -0.39406487345695496 4523353 4 -1
-1.2547358274459839 4.961029052734375 -0.5122843384742737 4590430 4 -1
-1.1813266277313232 5.001425266265869 -0.19703243672847748 4664956 4 -1
-1.3058524131774902 4.690852165222168 1.6550724506378174 4341894 0 -1
-1.1336883306503296 4.799737453460693 1.4580399990081787 4341894 0 -1
-1.4290205240249634 4.69516658782959 1.5368529558181763 2718350 0 -1
-1.5725451707839966 4.626428604125977 1.7052034139633179 4456788 0 -1
-1.5725451707839966 4.626428604125977 1.7052034139633179 4456788 0 -1
-1.5725451707839966 4.626428604125977 1.7052034139633179 4456788 0 -1
-1.5047547817230225 4.943997859954834 0.2775912582874298 4456788 4 -1
-1.5363304615020752 4.906150817871094 0.5948384404182434 4456788 4 -1
-1.3072607517242432 5.001891136169434 0.2379353642463684 4456788 4 -1
-1.3084908723831177 5.006597995758057 -0.0793117880821228 4456788 4 -1
-1.2666021585464478 5.007946968078613 -0.3172471523284912 4456788 4 -1
-1.2659674882888794 5.005437850952148 -0.3569030463695526 4456788 4 -1
-1.2652578353881836 5.002631664276123 -0.396558940410614 4523353 4 -1
-1.2636128664016724 4.996127605438232 -0.4758707284927368 4590430 4 -1
-1.1846370697021484 5.015440464019775 -0.4758707284927368 4726897 4 -1
-1.1884188652038574 5.03145170211792 -0.2379353642463684 4664956 4 -1
-1.3211562633514404 4.74582576751709 1.586235761642456 4341894 0 -1
-1.3840316534042358 4.8227152824401855 -1.2689886093139648 3238030 0 -1
-1.1670918464660645 4.772717475891113 1.6258916854858398 3238030 0 -1
-1.3753151893615723 4.792342185974121 1.3879562616348267 9360965 0 -1
-1.0771584510803223 5.09390115737915 0.11971590667963028 4456788 4 -1
-1.1168235540390015 5.084255695343018 0.1596212089061737 4456788 4 -1
-1.3564218282699585 5.026750564575195 -0.11971590667963028 4456788 4 -1
-1.3535501956939697 5.016108512878418 0.35914772748947144 4456788 4 -1
-1.3137398958206177 5.026681900024414 -0.35914772748947144 4456788 4 -1
-1.316527009010315 5.037345886230469 0.11971590667963028 4456788 4 -1
-1.4712421894073486 4.976463794708252 0.4389583170413971 4456788 4 -1
-1.316527009010315 5.037345886230469 -0.11971590667963028 4456788 4 -1
-1.327426552772522 4.919297218322754 1.0774431228637695 4456788 0 -1
-1.273215413093567 5.03409481048584 -0.39905303716659546 4456788 4 -1
-1.273215413093567 5.03409481048584 -0.39905303716659546 4456788 4 -1
-1.232662320137024 5.040862083435059 -0.4389583170413971 4523353 4 -1
-1.232662320137024 5.040862083435059 -0.4389583170413971 4590430 4 -1
-1.1912049055099487 5.043247222900391 -0.5187689065933228 4724328 4 -1
-1.1936395168304443 5.053554534912109 -0.39905303716659546 4664956 4 -1
-1.1242989301681519 5.118286609649658 -0.04015471041202545 4456788 4 -1
-1.1231430768966675 5.113024711608887 0.2409282624721527 4456788 4 -1
-1.5128780603408813 4.9706878662109375 0.6826300621032715 4456788 4 -1
-1.5128780603408813 4.9706878662109375 0.6826300621032715 4456788 4 -1
-1.3612463474273682 5.0446295738220215 0.4015471041202545 4456788 4 -1
-1.3241325616836548 5.066446781158447 0.20077355206012726 4456788 4 -1
-1.1628103256225586 5.102096080780029 0.28108298778533936 4456788 4 -1
-1.4804373979568481 5.007566928863525 0.44170182943344116 4456788 4 -1
-1.4404256343841553 5.019222259521484 0.44170182943344116 4456788 4 -1
-1.5204492807388306 4.995563507080078 0.44170182943344116 4456788 4 -1
-1.3457220792770386 4.987098217010498 0.8834036588668823 4456788 0 -1
-1.3814458847045898 4.96239709854126 0.9637130498886108 4456788 0 -1
-1.4383798837661743 5.012094020843506 -0.5220112204551697 4456788 4 -1
-1.2029072046279907 5.092791557312012 -0.28108298778533936 4456788 4 -1
-1.2825342416763306 5.070940017700195 -0.3212376832962036 4456788 4 -1
-1.2825342416763306 5.070940017700195 -0.3212376832962036 4456788 4 -1
-1.244211196899414 5.088089942932129 -0.1606188416481018 4523353 4 -1
-1.235405683517456 5.0520806312561035 -0.6424753665924072 4590430 4 -1
-1.202375888824463 5.090542316436768 -0.3212376832962036 4657508 4 -1
-1.1966580152511597 5.066333770751953 -0.602320671081543 4664956 4 -1
-1.3733770847320557 5.089584827423096 0.12121235579252243 4456788 4 -1
-1.1714098453521729 5.139828205108643 0.12121235579252243 4456788 4 -1
-1.1296868324279785 5.142815113067627 0.28282883763313293 4456788 4 -1
-1.1301190853118896 5.144783020019531 0.24242471158504486 4456788 4 -1
-1.170480489730835 5.135750770568848 0.24242471158504486 4456788 4 -1
-1.490557312965393 5.041797161102295 0.40404120087623596 4456788 4 -1
-1.3591036796569824 5.036689281463623 0.7676782608032227 4456788 4 -1
-1.2120879888534546 5.131660461425781 0.04040411859750748 4456788 4 -1
-1.209237813949585 5.119594097137451 -0.3636370599269867 4657508 4 -1
-1.2069886922836304 5.110071182250977 -0.4848494231700897 4664956 4 -1
-1.2069886922836304 5.110071182250977 -0.4848494231700897 4147337 4 -1
-1.3818546533584595 5.121001720428467 0.1219605803489685 4456788 4 -1
-1.1377639770507812 5.1795854568481445 0.162614107131958 4456788 4 -1
-1.1772551536560059 5.165476322174072 0.2845746874809265 4456788 4 -1
-1.1761455535888672 5.16060733795166 0.3658817410469055 4456788 4 -1
-1.1767351627349854 5.16319465637207 0.325228214263916 4456788 4 -1
-1.1777056455612183 5.167452812194824 0.243921160697937 4456788 4 -1
-1.3690098524093628 5.073400497436523 0.731763482093811 4456788 4 -1
-1.2115232944488525 5.129269599914551 0.6098029017448425 4456788 4 -1
-4.530549049377441 2.709958076477051 -0.5284958481788635 4456788 0 -1
-1.1695646047592163 4.951627731323242 1.5041805505752563 4728182 0 -1
-1.1449795961380005 5.212433815002441 0.12270880490541458 4456788 4 -1
-1.1833611726760864 5.192267417907715 0.36812642216682434 4456788 4 -1
-1.225321650505066 5.18768835067749 0.2863205373287201 4456788 4 -1
-1.223480463027954 5.179893493652344 0.40902936458587646 4456788 4 -1
-1.2209850549697876 5.169328212738037 0.5317381620407104 4456788 4 -1
-4.537346363067627 2.7140235900878906 -0.7362528443336487 4456788 0 -1
-1.2227215766906738 5.176680088043213 0.4499322772026062 4523353 4 -1
-1.2166329622268677 5.15090274810791 0.6953498721122742 4590430 4 -1
-1.192857265472412 5.233933925628662 0.1646093726158142 4456788 4 -1
-1.2683610916137695 5.1868486404418945 0.5761328339576721 4456788 4 -1
-1.2322485446929932 5.217015266418457 0.3292187452316284 4456788 4 -1
-1.2703182697296143 5.194852828979492 0.4938281178474426 4456788 4 -1
-1.2683610916137695 5.1868486404418945 0.5761328339576721 4456788 4 -1
-1.2293403148651123 5.204702377319336 0.4938281178474426 4456788 4 -1
-1.2711830139160156 5.198389053344727 0.45267578959465027 4456788 4 -1
-1.2284300327301025 5.200848579406738 0.5349804759025574 4456788 4 -1
-4.528990268707275 2.800516366958618 -0.6995898485183716 4456788 0 -1
-1.2301771640777588 5.208245277404785 0.45267578959465027 4523353 4 -1
-1.22744619846344 5.196683406829834 0.5761328339576721 4590430 4 -1
-1.1989225149154663 5.2605462074279785 0.28981226682662964 4456788 4 -1
-1.2390955686569214 5.2460036277771 0.3726157546043396 4456788 4 -1
-1.2770708799362183 5.222466945648193 0.5382227897644043 4456788 4 -1
-1.234885334968567 5.228178024291992 0.5796245336532593 4456788 4 -1
-1.2376327514648438 5.239810466766357 0.45541927218437195 4590430 4 -1
-1.2338212728500366 5.223673343658447 0.6210262775421143 4725613 4 -1
-1.1937224864959717 5.237730026245117 0.5796245336532593 4726897 4 -1
-3.7857913970947266 3.486419439315796 1.749348759651184 4590430 0 -1
2.9700708389282227 4.865303993225098 -0.570645809173584 2328718 5 -1
3.1596648693084717 4.776747703552246 0.1316874921321869 2328718 5 -1
2.940934419631958 4.916006565093994 0.04389583319425583 2264205 5 -1
3.160407304763794 4.777869701385498 0.04389583319425583 2264205 5 -1
2.902696132659912 4.85208797454834 0.9218124747276306 2070922 5 -1
3.1133086681365967 4.801675319671631 0.2633749842643738 2070922 5 -1
3.1601288318634033 4.777449131011963 0.08779166638851166 2006409 5 -1
2.940934419631958 4.916006565093994 -0.04389583319425583 2666112 5 -1
2.940934419631958 4.916006565093994 -0.04389583319425583 2994813 5 -1
2.9869463443756104 4.892947673797607 -0.5738881230354309 2977934 5 -1
2.981982469558716 4.884816646575928 -0.662178635597229 2523534 5 -1
2.99870228767395 4.912205219268799 -0.2648714482784271 2328718 5 -1
3.176964044570923 4.802900314331055 0.17658096551895142 2328718 5 -1
2.9132437705993652 4.969642639160156 -0.08829048275947571 2070155 5 -1
2.957383871078491 4.943502902984619 0.08829048275947571 2070922 5 -1
2.957731246948242 4.944083213806152 0 2468738 5 -1
2.95764422416687 4.943938255310059 -0.044145241379737854 2666112 5 -1
2.957731246948242 4.944083213806152 0 2994813 5 -1
2.95764422416687 4.943938255310059 -0.044145241379737854 3257723 5 -1
2.95764422416687 4.943938255310059 0.044145241379737854 3651704 5 -1
2.957383871078491 4.943502902984619 -0.08829048275947571 4505456 5 -1
2.95764422416687 4.943938255310059 0.044145241379737854 4899181 5 -1
2.9278957843780518 4.9946370124816895 -0.2219732403755188 2523534 5 -1
3.1850404739379883 4.815110206604004 0.48834115266799927 2458766 5 -1
3.1930348873138428 4.82719612121582 0.2663678824901581 2328718 5 -1
2.9743542671203613 4.971869945526123 0.04439464956521988 2264205 5 -1
2.9299607276916504 4.998159885406494 -0.04439464956521988 2199437 5 -1
2.9744415283203125 4.972015857696533 0 2134668 5 -1
2.9299607276916504 4.998159885406494 0.04439464956521988 2070155 5 -1
2.9740922451019287 4.971432209014893 0.08878929913043976 2070922 5 -1
2.9743542671203613 4.971869945526123 0.04439464956521988 2468738 5 -1
2.9744415283203125 4.972015857696533 0 2666112 5 -1
2.9743542671203613 4.971869945526123 -0.04439464956521988 2994813 5 -1
3.018038511276245 4.943880081176758 -0.13318394124507904 3257723 5 -1
2.9730441570281982 4.969680309295654 -0.17757859826087952 4505456 5 -1
2.967360258102417 4.960179328918457 -0.3995518386363983 9360965 5 -1
2.967360258102417 4.960179328918457 -0.3995518386363983 11918891 5 -1
2.9638571739196777 4.9543232917785645 -0.48834115266799927 12640037 5 -1
2.9638571739196777 4.9543232917785645 -0.48834115266799927 13164576 5 -1
2.9461617469787598 5.025796890258789 -0.08928811550140381 2912910 5 -1
2.946507692337036 5.0263872146606445 0 2588302 5 -1
2.9464213848114014 5.02623987197876 -0.044644057750701904 2523534 5 -1
2.9910640716552734 4.999802112579346 0.044644057750701904 2458766 5 -1
2.9422662258148193 5.01915168762207 0.31250840425491333 2328718 5 -1
2.943392276763916 5.0210723876953125 0.2678643465042114 2264205 5 -1
2.9461617469787598 5.025796890258789 0.08928811550140381 2199437 5 -1
2.991151809692383 4.999948978424072 0 2134668 5 -1
2.991151809692383 4.999948978424072 0 2070155 5 -1
2.9910640716552734 4.999802112579346 0.044644057750701904 2070922 5 -1
2.9910640716552734 4.999802112579346 0.044644057750701904 2468738 5 -1
2.9910640716552734 4.999802112579346 0.044644057750701904 2666112 5 -1
2.982357978820801 4.985249042510986 -0.44644057750701904 8705099 5 -1
2.9422662258148193 5.01915168762207 -0.31250840425491333 9360965 5 -1
2.943392276763916 5.0210723876953125 -0.2678643465042114 11197490 5 -1
2.9422662258148193 5.01915168762207 -0.31250840425491333 11918891 5 -1
2.93949294090271 5.014420986175537 -0.40179651975631714 12640037 5 -1
2.9629688262939453 5.054467678070068 0 2912910 5 -1
2.9615767002105713 5.052093029022217 0.17957386374473572 2523534 5 -1
3.007862091064453 5.027881622314453 0 2458766 5 -1
3.0046818256378174 5.022564888000488 0.2693607807159424 2328718 5 -1
2.962185859680176 5.053132057189941 0.1346803903579712 2264205 5 -1
2.962620735168457 5.0538740158081055 0.08978693187236786 2199437 5 -1
2.962185859680176 5.053132057189941 0.1346803903579712 2134668 5 -1
3.0077738761901855 5.02773380279541 0.04489346593618393 2070155 5 -1
3.0968306064605713 4.971753120422363 0.1346803903579712 2072968 5 -1
2.9628818035125732 5.054319381713867 0.04489346593618393 2139270 5 -1
2.827956199645996 5.130441188812256 0.08978693187236786 2666112 5 -1
3.05275559425354 5.00075101852417 0 2666112 5 -1
2.8677785396575928 5.096438407897949 -0.35914772748947144 3651704 5 -1
2.9607932567596436 5.050756931304932 -0.22446732223033905 11197490 5 -1
2.9607932567596436 5.050756931304932 -0.22446732223033905 11918891 5 -1
2.9559147357940674 5.042434215545654 -0.40404120087623596 12640037 5 -1
2.9542577266693115 5.039607524871826 -0.4489346444606781 13164576 5 -1
2.978642463684082 5.081204891204834 0.13542862236499786 2718350 5 -1
2.9738266468048096 5.0729899406433105 0.36114299297332764 2523534 5 -1
3.1585166454315186 4.969955921173096 0.18057149648666382 2523534 5 -1
2.8360345363616943 4.83793306350708 1.8057149648666382 2264205 0 -1
3.114492416381836 5.000108242034912 0.09028574824333191 2070155 5 -1
2.8439176082611084 5.159398078918457 0.045142874121665955 6343264 5 -1
2.843249559402466 5.158186435699463 0.13542862236499786 6933851 5 -1
2.843249559402466 5.158186435699463 0.13542862236499786 7589974 5 -1
2.889059066772461 5.134256839752197 0.045142874121665955 8180304 5 -1
2.8837106227874756 5.124752044677734 -0.36114299297332764 11197490 5 -1
2.9339423179626465 5.108143329620361 0.09028574824333191 11918891 5 -1
2.932908296585083 5.106342792510986 -0.18057149648666382 12640037 5 -1
2.843249559402466 5.158186435699463 -0.13542862236499786 13164576 5 -1
2.843249559402466 5.158186435699463 -0.13542862236499786 13164576 5 -1
3.1714842319488525 4.990360736846924 0.36313825845718384 4456788 5 -1
3.0304605960845947 5.065656661987305 0.4993151128292084 2718350 5 -1
3.0776004791259766 5.041449546813965 0.4539228081703186 2523534 5 -1
3.0591323375701904 4.91123104095459 1.2709839344024658 2458766 0 -1
2.859377861022949 5.187446117401123 0.09078456461429596 6343264 5 -1
2.8589580059051514 5.186684608459473 0.13617683947086334 6933851 5 -1
2.8589580059051514 5.186684608459473 0.13617683947086334 7589974 5 -1
2.9050207138061523 5.162622928619385 0.04539228230714798 8180304 5 -1
2.902034282684326 5.157315731048584 -0.2723536789417267 11197490 5 -1
2.859377861022949 5.187446117401123 -0.09078456461429596 13164576 5 -1
2.395890712738037 5.391229152679443 0.8215504288673401 4456788 0 -1
3.1257967948913574 4.918470859527588 1.2323256731033325 2782862 0 -1
3.1417791843414307 5.043914794921875 0.41077521443367004 2718350 5 -1
3.1469645500183105 5.052239418029785 0.22820845246315002 2523534 5 -1
2.964531660079956 5.161401271820068 0.22820845246315002 2199437 5 -1
2.8733153343200684 5.21273136138916 0.22820845246315002 2994813 5 -1
2.874666690826416 5.215182781219482 0.13692507147789001 3257723 5 -1
2.875088691711426 5.215948581695557 0.09128338098526001 3651704 5 -1
2.875088691711426 5.215948581695557 0.09128338098526001 4045940 5 -1
2.9209823608398438 5.190989017486572 0.045641690492630005 6933851 5 -1
2.875088691711426 5.215948581695557 0.09128338098526001 7589974 5 -1
2.9179794788360596 5.185652256011963 -0.27385014295578003 11197490 5 -1
2.915574789047241 5.181379318237305 -0.36513352394104004 11918891 5 -1
2.9196958541870117 5.188702583312988 -0.18256676197052002 13164576 5 -1
-4.726644515991211 3.677790403366089 0.04589109867811203 4456788 0 -1
-4.337971210479736 4.0860137939453125 0.5965842604637146 4456788 0 -1
-3.9596264362335205 4.246673583984375 1.468515157699585 4456788 0 -1
-4.588571071624756 3.8478574752807617 -0.09178219735622406 4456788 0 -1
3.166404962539673 4.982368469238281 1.0096042156219482 2782862 5 -1
3.158947229385376 5.07147741317749 0.41301989555358887 2718350 5 -1
3.2115280628204346 5.053369998931885 0.1376732885837555 2523534 5 -1
2.8897809982299805 5.242602825164795 0.18356439471244812 2199437 5 -1
2.8788914680480957 5.2228474617004395 0.550693154335022 2006409 5 -1
2.8880820274353027 5.239521026611328 0.275346577167511 2994813 5 -1
2.8903751373291016 5.243680953979492 0.1376732885837555 3257723 5 -1
2.891054391860962 5.244913101196289 0.04589109867811203 3651704 5 -1
2.8907997608184814 5.24445104598999 0.09178219735622406 4045940 5 -1
2.932802438735962 5.2119951248168945 -0.3212376832962036 11197490 5 -1
2.9348740577697754 5.215676307678223 -0.22945548593997955 11918891 5 -1
-4.5196452140808105 3.97480845451355 -0.18456202745437622 4456788 0 -1
-4.377038478851318 4.122811794281006 -0.3229835331439972 4456788 0 -1
-4.5657639503479 3.921746253967285 -0.18456202745437622 4456788 0 -1
3.1316540241241455 5.129994869232178 -0.36912405490875244 2912910 5 -1
2.952310800552368 5.036286354064941 1.4764962196350098 2588302 0 -1
2.8999314308166504 5.2610182762146 0.4152645468711853 2264205 5 -1
2.9047176837921143 5.26970100402832 0.23070253431797028 2199437 5 -1
2.9013853073120117 5.263655662536621 0.36912405490875244 2994813 5 -1
2.9054861068725586 5.271095275878906 0.18456202745437622 3651704 5 -1
-4.481151103973389 3.9409549236297607 1.020578145980835 4456788 0 -1
-4.589229583740234 3.9419021606445312 -0.2319495677947998 4456788 0 -1
-4.350270748138428 4.189779758453369 -0.4175092279911041 4456788 0 -1
-4.539667129516602 3.992417097091675 -0.32472941279411316 4456788 0 -1
3.1036500930786133 5.1879987716674805 -0.32472941279411316 3757452 5 -1
3.143289089202881 5.149054527282715 -0.5102890729904175 2977934 5 -1
3.153032064437866 5.165014743804932 -0.18555966019630432 2912910 5 -1
2.942943572998047 5.0203070640563965 1.6700369119644165 2588302 0 -1
2.8618698120117188 5.300889492034912 0.6030688881874084 2468738 5 -1
-4.4243574142456055 4.167382717132568 -0.32647526264190674 4456788 0 -1
3.118957996368408 5.213587284088135 -0.37311458587646484 3757452 5 -1
3.137683629989624 5.1398725509643555 0.886147141456604 2977934 5 -1
2.8595921993255615 5.187835216522217 1.3991796970367432 2994813 0 -1
-4.453906536102295 4.195215225219727 -0.09377746284008026 4456788 0 -1
3.000185966491699 5.117955684661865 1.5004394054412842 3887499 0 -1
3.1544628143310547 5.1673583984375 0.8908858895301819 2977934 5 -1
3.1030495166778564 5.0831379890441895 1.406661868095398 2912910 0 -1
3.1884336471557617 5.223006248474121 0 2264205 5 -1
2.8748841285705566 5.215577602386475 1.406661868095398 2994813 0 -1
3.274566411972046 4.852670669555664 1.7817717790603638 6343264 0 -1
2.9304957389831543 5.207895278930664 1.4612822532653809 4341894 0 -1
3.1088221073150635 5.196644306182861 1.0841771364212036 2782862 5 -1
3.034696102142334 5.283560752868652 0.8484864830970764 2718350 5 -1
3.2020041942596436 5.245236396789551 0.28282883763313293 2264205 5 -1
2.9382619857788086 5.115664005279541 1.744111180305481 2994813 0 -1
-4.105251312255859 4.590251922607422 0.5686505436897278 4341894 0 -1
-3.7805652618408203 4.58736515045166 -1.7059516906738281 4341894 0 -1
3.0319793224334717 5.2788310050964355 1.0899136066436768 2977934 5 -1
3.1143288612365723 5.31266975402832 0.5686505436897278 2912910 5 -1
3.0906341075897217 5.272249221801758 0.9477509260177612 2782862 5 -1
3.050752639770508 5.311516284942627 0.8529758453369141 2718350 5 -1
3.2558891773223877 5.227110862731934 0.5686505436897278 2588302 5 -1
3.168994903564453 5.297227382659912 0.37910038232803345 2264205 5 -1
3.0142178535461426 5.038505554199219 1.9428894519805908 2994813 0 -1
3.0142178535461426 5.038505554199219 1.9428894519805908 2994813 0 -1
3.1139910221099854 5.312093257904053 0.8574652075767517 2977934 5 -1
3.134795665740967 5.347583770751953 0.47636955976486206 2912910 5 -1
3.1105411052703857 5.30620813369751 0.9051021337509155 2782862 5 -1
2.9656779766082764 5.380294322967529 0.9527391195297241 2271109 5 -1
3.139554977416992 5.3557024002075195 0.7182954549789429 3107982 5 -1
3.1447808742523193 5.364617347717285 0.6225227117538452 2977934 5 -1
3.20235276222229 5.352987766265869 0.38309091329574585 2912910 5 -1
3.240077257156372 5.3076043128967285 0.6225227117538452 2782862 5 -1
3.240077257156372 5.3076043128967285 0.6225227117538452 2718350 5 -1
3.1810498237609863 5.317378520965576 0.8140681982040405 2134668 5 -1
3.217418670654297 5.378171920776367 0.4332219362258911 2912910 5 -1
3.2636091709136963 5.346152305603027 0.48135772347450256 2782862 5 -1
3.0124564170837402 5.4651594161987305 0.722036600112915 2718350 5 -1
3.2114341259002686 5.368168354034424 0.5776292681694031 2718350 5 -1
2.9529268741607666 5.469550132751465 1.1128591299057007 3302798 5 -1
2.9140212535858154 5.397487163543701 1.4999405145645142 3107982 0 -1
3.1693315505981445 5.406497955322266 0.7741628885269165 3107982 5 -1
3.230271100997925 5.399655818939209 0.5322369933128357 2782862 5 -1
2.9712109565734863 5.503416538238525 0.8709332346916199 2718350 5 -1
3.228073835372925 5.39598274230957 0.580622136592865 2718350 5 -1
2.9569501876831055 5.477002143859863 1.0644739866256714 2523534 5 -1
3.1749942302703857 5.4161577224731445 0.6773925423622131 2523534 5 -1
3.193918228149414 5.448439598083496 0.632249653339386 2782862 5 -1
2.9896528720855713 5.537575721740723 0.8267880082130432 2718350 5 -1
3.2423107624053955 5.41978120803833 0.632249653339386 2718350 5 -1
3.043673515319824 5.521792888641357 0.7295188307762146 2588302 5 -1
3.246922016143799 5.427489280700684 0.5349804759025574 2588302 5 -1
