VERSION .7
FIELDS x y z rgb label object
SIZE 4 4 4 4 4 4
TYPE F F F I I I
COUNT 1 1 1 1 1 1
WIDTH 690
HEIGHT 1
POINTS 690
VIEWPOINT 0 0 0 1 0 0 0
DATA ascii
-2.7303855419158936 2.6296558380126953 0.6180333495140076 4212104 0 -1
-3.4996178150177 1.5757794380187988 0.14715079963207245 4147337 0 -1
-2.970273017883301 2.1924936771392822 1.0594857931137085 4147337 0 -1
0 3.7448151111602783 -0.8534746766090393 3887499 0 -1
3.329728841781616 1.855595350265503 0.4708825647830963 3887499 0 -1
-2.88932204246521 2.541018486022949 0.4451935291290283 4456788 0 -1
-2.9296388626098633 2.5164027214050293 0.29679569602012634 4456788 0 -1
-3.092845916748047 2.282970428466797 0.4748730957508087 4456788 0 -1
-3.5346810817718506 1.511184811592102 0.4748730957508087 4456788 0 -1
-2.196960926055908 3.1285860538482666 -0.6232709288597107 4456788 0 -1
-2.9983835220336914 2.3932082653045654 0.5342322587966919 4456788 0 -1
-2.9803385734558105 2.4388694763183594 0.4155139625072479 4456788 0 -1
-2.9482877254486084 2.472358226776123 0.4451935291290283 4523353 0 -1
-2.8816161155700684 2.300008535385132 1.1871827840805054 4657508 0 -1
-2.9514307975769043 2.2965009212493896 1.0091053247451782 3887499 0 -1
-2.648402214050293 2.7811052799224854 0.5045526623725891 3107982 0 -1
-3.38053035736084 1.8137705326080322 0.5342322587966919 11197490 0 -1
-3.367647409439087 1.9458497762680054 -0.35914772748947144 4456788 0 -1
-3.1424503326416016 2.3195855617523193 0.02992897666990757 4456788 0 -1
-3.318603754043579 2.052069664001465 -0.17957386374473572 4456788 0 -1
-2.952425241470337 2.5359747409820557 0.3292187452316284 4456788 0 -1
-2.9482321739196777 2.5323731899261475 0.38907670974731445 4456788 0 -1
-3.097132682800293 2.347925901412964 0.38907670974731445 4456788 0 -1
-2.348720073699951 3.0884201526641846 0.4489346444606781 4456788 0 -1
-3.075345754623413 2.392918825149536 0.2693607807159424 4456788 0 -1
-2.967397451400757 2.4883830547332764 0.5087926387786865 4456788 0 -1
-3.026745319366455 2.4158456325531006 0.5087926387786865 4456788 0 -1
-3.0053834915161133 2.459364175796509 0.41900569200515747 4456788 0 -1
-2.9730632305145264 2.4931344985961914 0.4489346444606781 4523353 0 -1
-3.0498404502868652 2.3730733394622803 0.5686505436897278 4590430 0 -1
-2.8903496265411377 2.3069794178009033 1.2570170164108276 4657508 0 -1
-3.0470147132873535 2.4320240020751953 0.23943181335926056 4725613 0 -1
-3.0804214477539062 2.3968682289123535 -0.1496448814868927 3887499 0 -1
-3.801471710205078 1.0258243083953857 0.09053515642881393 4456788 0 -1
-3.3679516315460205 2.01454758644104 -0.3319622278213501 4456788 0 -1
-3.1377227306365967 2.378696918487549 0.09053515642881393 4456788 0 -1
-2.5343143939971924 3.0134286880493164 -0.09053515642881393 4456788 0 -1
-2.313891649246216 3.1664583683013916 0.36214062571525574 4456788 0 -1
-3.0106539726257324 2.5246570110321045 0.2716054618358612 4456788 0 -1
-3.2195937633514404 2.2482974529266357 0.30178385972976685 4456788 0 -1
-2.4620871543884277 2.9875144958496094 0.7242812514305115 4456788 0 -1
-3.1293249130249023 2.3723304271698 0.30178385972976685 4456788 0 -1
-2.9770286083221436 2.557107925415039 0.3319622278213501 4456788 0 -1
-3.0992350578308105 2.4115073680877686 0.30178385972976685 4456788 0 -1
-2.9978389739990234 2.5139105319976807 0.45267578959465027 4456788 0 -1
-3.057795524597168 2.440629005432129 0.45267578959465027 4456788 0 -1
-3.030428409576416 2.479858875274658 0.42249739170074463 4456788 0 -1
-3.0004241466522217 2.516078472137451 0.42249739170074463 4523353 0 -1
-3.0749404430389404 2.4543135166168213 0.18107031285762787 4657508 0 -1
-3.0708670616149902 2.4510622024536133 0.2716054618358612 4725613 0 -1
-3.1384599208831787 2.379255771636963 -0.030178384855389595 3887499 0 -1
-3.37756609916687 1.9515810012817383 0.5432109236717224 3107982 0 -1
-2.9079036712646484 2.6174185276031494 0.45267578959465027 3107982 0 -1
-3.379582166671753 2.0215046405792236 -0.06035676971077919 3257723 0 -1
-2.9704198837280273 2.551431179046631 0.42249739170074463 3257723 0 -1
-2.6319422721862793 2.9428837299346924 0.4259890913963318 4456788 0 -1
-3.161144495010376 2.3964529037475586 0.18256676197052002 4456788 0 -1
-2.802398204803467 2.639629602432251 0.9736893773078918 4456788 0 -1
-3.0198254585266113 2.532348155975342 0.4868446886539459 4456788 0 -1
-3.1104202270507812 2.420210361480713 0.4868446886539459 4456788 0 -1
-2.8625128269195557 2.6361517906188965 0.7911226153373718 4456788 0 -1
-3.0802221298217773 2.458528995513916 0.4868446886539459 4456788 0 -1
-3.0554730892181396 2.5003535747528076 0.4259890913963318 4523353 0 -1
-3.085008382797241 2.400437355041504 0.6998392343521118 4590430 0 -1
-3.094510316848755 2.46993350982666 0.3042779266834259 4725613 0 -1
-3.054056406021118 2.4991941452026367 -0.6748984456062317 4456788 0 -1
-2.864546537399292 2.7588672637939453 -0.46015802025794983 4456788 0 -1
-3.1997594833374023 2.3618881702423096 0.46015802025794983 4456788 0 -1
-2.5112650394439697 2.866447925567627 1.2270880937576294 4456788 0 -1
-2.428663730621338 3.0070605278015137 1.0430248975753784 4456788 0 -1
-2.8789870738983154 2.59139084815979 1.01234769821167 4456788 0 -1
-2.871382474899292 2.644319772720337 0.8896388411521912 4456788 0 -1
-2.819626569747925 2.655857563018799 1.01234769821167 4523353 0 -1
-3.144771099090576 2.384040355682373 0.6748984456062317 4590430 0 -1
-3.110295295715332 2.4201130867004395 -0.7055756449699402 4657508 0 -1
-3.798497200012207 1.2466061115264893 0.21474041044712067 4147337 0 -1
-3.546835422515869 1.752781629562378 0.6135440468788147 4147337 0 -1
-2.5252292156219482 3.0026257038116455 0.7976072430610657 4147337 0 -1
-1.245461344718933 3.5689592361450195 1.3191196918487549 4147337 0 -1
-2.9275729656219482 2.7575342655181885 -0.3401927053928375 4456788 0 -1
-2.444903612136841 3.1512339115142822 0.6185321807861328 4456788 0 -1
-3.30671763420105 2.3091375827789307 -0.1546330451965332 4456788 0 -1
-2.995562791824341 2.6963210105895996 -0.21648626029491425 4456788 0 -1
-2.7485060691833496 2.9477548599243164 0.21648626029491425 4456788 0 -1
-2.8439114093780518 2.8613414764404297 0.12370643764734268 4523353 0 -1
-3.0487639904022217 2.6187245845794678 -0.37111932039260864 4590430 0 -1
-2.4754648208618164 3.1272833347320557 0.6185321807861328 4590430 0 -1
-2.4617483615875244 3.2370452880859375 -0.12470407038927078 4456788 0 -1
-2.436664581298828 3.20406174659729 0.592344343662262 4456788 0 -1
-2.351503610610962 3.282656192779541 0.49881628155708313 4456788 0 -1
-2.3624114990234375 3.2978835105895996 0.31176018714904785 4456788 0 -1
-3.1037158966064453 2.5398316383361816 -0.6858723759651184 4456788 0 -1
-3.013312578201294 2.7122979164123535 0.3429361879825592 4456788 0 -1
-3.273097515106201 2.416022300720215 -0.06235203519463539 4456788 0 -1
-3.2096211910247803 2.4973983764648438 -0.12470407038927078 4523353 0 -1
-2.430586814880371 3.2605082988739014 -0.12470407038927078 4590430 0 -1
-2.4823172092437744 3.264091968536377 0.06285085529088974 4456788 0 -1
-3.0843451023101807 2.5864524841308594 0.7856356501579285 4456788 0 -1
-2.430298328399658 3.2601213455200195 0.5342322587966919 4456788 0 -1
-3.0846095085144043 2.6495141983032227 0.5342322587966919 4456788 0 -1
-2.3665385246276855 3.1745903491973877 1.0684645175933838 4456788 0 -1
-3.291814088821411 2.429837942123413 -0.28282883763313293 4456788 0 -1
-3.2027297019958496 2.427978515625 0.8170610666275024 4523353 0 -1
-2.4126439094543457 3.3015964031219482 -0.3142542541027069 4523353 0 -1
-2.3143117427825928 3.1045310497283936 1.3512933254241943 4590430 0 -1
-2.4495863914489746 3.2859952449798584 0.5384721755981445 4456788 0 -1
-2.4618453979492188 3.3024399280548096 0.34842318296432495 4456788 0 -1
-3.2059667110443115 2.4304325580596924 0.9502450227737427 4456788 0 -1
-3.0867269039154053 2.6513328552246094 0.7285211682319641 4456788 0 -1
-2.438675880432129 3.3372201919555664 0.06334967166185379 4456788 0 -1
3.476814031600952 2.0089271068573 -0.9819198250770569 4456788 0 -1
-3.3007683753967285 2.4364473819732666 -0.5067973732948303 4456788 0 -1
-2.5768141746520996 3.1904938220977783 0.7342575788497925 4456788 0 -1
-2.4009244441986084 3.2855589389801025 0.8938787579536438 4456788 0 -1
-2.5160109996795654 3.3083972930908203 0.2873181700706482 4456788 0 -1
-2.3805017471313477 3.3899576663970947 0.4469393789768219 4456788 0 -1
-2.465635061264038 3.307523488998413 1.0781913995742798 4456788 0 -1
-2.54575777053833 3.415004014968872 0.19603480398654938 4456788 0 -1
-2.5311572551727295 3.395418167114258 0.7242812514305115 4456788 0 -1
-3.3000214099884033 2.9022088050842285 0.929294764995575 4523353 0 -1
-3.3064565658569336 2.9078681468963623 1.040031909942627 4523353 0 -1
-4.116668701171875 2.9566969871520996 -1.4545482397079468 4456788 0 -1
-3.9562413692474365 3.2374699115753174 -1.2929317951202393 4456788 0 -1
-3.026768445968628 4.225313663482666 -0.8888906240463257 4456788 0 -1
-3.4046618938446045 3.651477575302124 -1.6969729661941528 4456788 0 -1
-3.251643419265747 3.7883806228637695 -1.6969729661941528 4456788 0 -1
-4.557079315185547 2.6331117153167725 0.3232329487800598 4456788 0 -1
-4.251967430114746 2.79970383644104 -1.3737400770187378 4590430 0 -1
-3.194148302078247 4.116934299468994 -0.8080824017524719 4590430 0 -1
4.802156448364258 2.053069591522217 0.7272741198539734 4590430 0 -1
-3.5765650272369385 3.916933059692383 0.1219605803489685 4456788 0 -1
-3.414896249771118 4.060485363006592 0 4456788 0 -1
-3.17741060256958 4.178096771240234 0.7724170088768005 4456788 0 -1
-3.406327962875366 3.6532645225524902 -1.788755178451538 4456788 0 -1
-4.592634677886963 2.653655767440796 0.1219605803489685 4456788 0 -1
-3.5765650272369385 3.916933059692383 -0.1219605803489685 4590430 0 -1
-3.240709066390991 4.176946640014648 0.4471887946128845 4590430 0 -1
-3.3733510971069336 4.0932488441467285 0.1219605803489685 4725613 0 -1
-4.965975284576416 1.3400646448135376 1.300912857055664 4017546 0 -1
-4.34861946105957 2.950099468231201 0.731763482093811 3887499 0 -1
-3.9960501194000244 3.2700462341308594 1.219605803489685 3887499 0 -1
-3.6113595962524414 3.873159646987915 0.325228214263916 3887499 0 -1
-2.5941765308380127 4.610209941864014 0.406535267829895 3887499 0 -1
-1.4186902046203613 5.096185207366943 -0.406535267829895 3887499 0 -1
2.6904101371765137 4.407188892364502 -1.219605803489685 3887499 0 -1
5.0677690505981445 1.367533564567566 0.7724170088768005 3887499 0 -1
4.786226272583008 2.1551029682159424 0.7724170088768005 2782862 0 -1
4.984708309173584 1.1794955730438232 1.382219910621643 2782862 0 -1
-4.453705787658691 2.9325380325317383 0.24541760981082916 4456788 0 -1
-3.4125454425811768 3.8157083988189697 -1.5134086608886719 4456788 0 -1
-3.0556063652038574 4.265571117401123 0.9816704392433167 4456788 0 -1
-1.869065761566162 4.9624247550964355 -0.6135440468788147 4456788 0 -1
4.959062099456787 1.75882089138031 -0.8998645544052124 4456788 0 -1
-2.6150197982788086 4.647251605987549 0.24541760981082916 4456788 0 -1
-3.4758307933807373 4.0495734214782715 0.12270880490541458 4456788 0 -1
-3.6704413890838623 3.854355812072754 -0.40902936458587646 4456788 0 -1
-3.5985071659088135 3.9409635066986084 0.12270880490541458 4456788 0 -1
-3.434938669204712 4.084316730499268 -0.12270880490541458 4456788 0 -1
-3.6403613090515137 3.904263496398926 0 4456788 0 -1
-3.4257452487945557 4.073385238647461 -0.40902936458587646 4456788 0 -1
-3.596815586090088 3.9391109943389893 -0.20451468229293823 4456788 0 -1
-3.3753530979156494 4.095677852630615 -0.5726410746574402 4456788 0 -1
-4.620810508728027 2.669935941696167 0.12270880490541458 4456788 0 -1
-3.3828628063201904 4.104790210723877 -0.4499322772026062 4456788 0 -1
-3.5568835735321045 3.9770987033843994 -0.1636117398738861 4523353 0 -1
-3.3828628063201904 4.104790210723877 -0.4499322772026062 4523353 0 -1
-3.5977671146392822 3.940153121948242 -0.1636117398738861 4590430 0 -1
-3.5977671146392822 3.940153121948242 -0.1636117398738861 4590430 0 -1
-3.3940465450286865 4.11836051940918 0.12270880490541458 4725613 0 -1
-4.4163498878479 2.9960477352142334 0.12270880490541458 4536450 0 -1
-3.475116014480591 4.048740863800049 -0.1636117398738861 4536450 0 -1
-4.615378379821777 2.666797399520874 -0.2863205373287201 4471684 0 -1
-3.715167284011841 3.819157123565674 -0.3272234797477722 4471684 0 -1
-3.3033971786499023 4.173220157623291 0.40902936458587646 4471684 0 -1
-4.041818618774414 3.307499408721924 1.1043792963027954 3887499 0 -1
-3.636512041091919 3.9001352787017822 0.24541760981082916 3887499 0 -1
4.890886306762695 2.0910041332244873 0.4499322772026062 3887499 0 -1
-3.6197047233581543 3.9641783237457275 0.1646093726158142 4456788 0 -1
-3.621406316757202 3.9660415649414062 0 4456788 0 -1
-3.577625274658203 4.000290870666504 -0.20576171576976776 4456788 0 -1
-4.646800518035889 2.684953451156616 0.20576171576976776 4456788 0 -1
-3.401174783706665 4.127010345458984 -0.4938281178474426 4456788 0 -1
-3.5785717964172363 4.001349449157715 -0.1646093726158142 4523353 0 -1
-3.579307794570923 4.002172470092773 -0.12345702946186066 4590430 0 -1
-3.7421138286590576 3.846857786178589 -0.20576171576976776 4725613 0 -1
-3.41524338722229 4.144081115722656 0.0823046863079071 4725613 0 -1
-3.6967458724975586 3.8819782733917236 -0.3292187452316284 4471684 0 -1
-0.41074952483177185 5.3448076248168945 0.3292187452316284 4471684 0 -1
-3.877915859222412 3.734851360321045 0.45541927218437195 4456788 0 -1
-3.556785821914673 4.059842586517334 -0.24841050803661346 4456788 0 -1
-4.676199913024902 2.7019405364990234 0.1656070053577423 4456788 0 -1
-3.8876495361328125 3.7442259788513184 0.24841050803661346 4456788 0 -1
-3.8431220054626465 3.783578395843506 0.3312140107154846 4523353 0 -1
-3.5554251670837402 4.058289527893066 -0.28981226682662964 4523353 0 -1
-3.6353626251220703 3.57903790473938 -1.7802753448486328 4590430 0 -1
-3.510770797729492 4.090281009674072 -0.3726157546043396 4590430 0 -1
-3.4985947608947754 4.160006999969482 -0.0416511595249176 4456788 0 -1
-3.4977729320526123 4.159029960632324 0.12495347857475281 4456788 0 -1
-3.9460811614990234 3.551887273788452 1.1662324666976929 4456788 0 -1
-3.9141745567321777 3.7697722911834717 0.12495347857475281 4456788 0 -1
-3.870713949203491 3.8107428550720215 -0.208255797624588 4523353 0 -1
-3.9012768268585205 3.757350444793701 -0.45816275477409363 4590430 0 -1
-3.4554221630096436 4.192834377288818 -0.1666046380996704 4590430 0 -1
-4.063877582550049 3.657916784286499 -0.08380113542079926 4456788 0 -1
-3.932983636856079 3.7878875732421875 -0.2933039665222168 4456788 0 -1
-4.582465648651123 2.9256415367126465 0.5866079330444336 4456788 0 -1
-3.891143321990967 3.83085560798645 -0.2933039665222168 4523353 0 -1
-4.188088417053223 3.5120232105255127 -0.1676022708415985 4590430 0 -1
-3.932983636856079 3.7878875732421875 -0.2933039665222168 4590430 0 -1
-4.592188835144043 3.0237224102020264 0.1685999035835266 4456788 0 -1
-3.321322441101074 4.030116558074951 -1.7281490564346313 4456788 0 -1
-4.583409786224365 3.017941474914551 0.37934979796409607 4456788 0 -1
-4.1717448234558105 3.5833051204681396 0.12644992768764496 4523353 0 -1
-3.5109288692474365 4.090465068817139 1.0958993434906006 4523353 0 -1
-3.392146587371826 3.952075958251953 1.770298957824707 4590430 0 -1
-4.582156181335449 3.017116069793701 0.7207895517349243 4456788 0 -1
-3.4891645908355713 4.2337775230407715 0.7207895517349243 4456788 0 -1
-4.598547458648682 3.02790904045105 0.5511919856071472 4456788 0 -1
-3.63786244392395 3.9840641021728516 1.2295821905136108 4456788 0 -1
-3.4687867164611816 4.209051132202148 0.9327864646911621 4456788 0 -1
-3.615279197692871 4.126608848571777 0.7207895517349243 4456788 0 -1
-4.610530376434326 3.035799264907837 0.3815944492816925 4456788 0 -1
-3.5259768962860107 4.107996940612793 1.1447833776474 4523353 0 -1
-3.5551838874816895 4.058013916015625 1.2295821905136108 4590430 0 -1
-4.520768642425537 3.066885471343994 -1.0662198066711426 4456788 0 -1
-3.573969602584839 4.249631404876709 0.38383913040161133 4456788 0 -1
-2.0132365226745605 4.969775199890137 1.4927077293395996 4456788 0 -1
-4.601199150085449 3.1214494705200195 -0.2558927536010742 4456788 0 -1
-3.699383497238159 4.0514397621154785 0.9382734298706055 4456788 0 -1
-3.447152853012085 4.2681074142456055 0.9382734298706055 4456788 0 -1
-3.6890337467193604 4.124861717224121 0.5970830917358398 4456788 0 -1
-4.635051250457764 3.0519449710845947 0.42648792266845703 4456788 0 -1
-4.6846137046813965 2.9908571243286133 -0.2985415458679199 4523353 0 -1
-3.641730308532715 4.071969509124756 1.0662198066711426 4523353 0 -1
-4.130198955535889 4.3371500968933105 0 4456788 0 -1
-3.3381290435791016 4.946866035461426 -0.5048021078109741 4456788 0 -1
-3.5452957153320312 4.755833148956299 -0.8260397911071777 4456788 0 -1
-3.502063512802124 4.697839736938477 -1.2390596866607666 4523353 0 -1
-4.3121795654296875 4.153094291687012 -0.6459670662879944 4456788 0 -1
-3.3515045642852783 4.966687202453613 -0.5998265743255615 4456788 0 -1
-2.756702423095703 5.324883460998535 0.5536860823631287 4456788 0 -1
-3.526017665863037 4.825199127197266 -0.7382481098175049 4456788 0 -1
-3.526017665863037 4.825199127197266 -0.7382481098175049 4456788 0 -1
-3.4922266006469727 4.778957843780518 -1.1073721647262573 4523353 0 -1
-3.4870235919952393 4.7718377113342285 -1.1535125970840454 4590430 0 -1
-3.686598539352417 4.75165319442749 -0.6958487033843994 4456788 0 -1
-3.50528883934021 4.893319606781006 -0.6494588255882263 4456788 0 -1
-3.6673552989959717 4.726850509643555 -0.9277982711791992 4456788 0 -1
-3.5080983638763428 4.897241592407227 -0.6030688881874084 4456788 0 -1
-3.5080983638763428 4.897241592407227 -0.6030688881874084 4523353 0 -1
2.925581455230713 5.4188995361328125 0.5686505436897278 4456788 0 -1
2.9727683067321777 5.393157482147217 0.5686505436897278 4456788 0 -1
2.9293901920318604 5.425954341888428 0.4738754630088806 4456788 0 -1
2.970567226409912 5.389164447784424 0.6160380840301514 4456788 0 -1
3.0390591621398926 5.291157245635986 1.1909239292144775 4456788 0 -1
2.9724459648132324 5.39257287979126 0.8574652075767517 4456788 5 -1
2.9838101863861084 5.41318941116333 0.6669173836708069 4456788 0 -1
2.993983268737793 5.43164587020874 0.42873260378837585 4456788 0 -1
2.9904487133026123 5.425233364105225 0.5240064859390259 4456788 0 -1
3.0379161834716797 5.398796558380127 0.5240064859390259 4456788 0 -1
2.9884145259857178 5.421542644500732 0.5716434717178345 4456788 0 -1
3.033601760864258 5.391129493713379 0.6192803978919983 4456788 0 -1
2.942981243133545 5.4511284828186035 0.5240064859390259 4456788 0 -1
3.0638949871063232 5.334397315979004 1.101386308670044 4456788 0 -1
2.9492788314819336 5.462792873382568 0.7182954549789429 4456788 5 -1
2.9492788314819336 5.462792873382568 0.7182954549789429 4456788 5 -1
3.0096585750579834 5.460083484649658 0.4309772551059723 4456788 5 -1
3.011167526245117 5.462821006774902 0.38309091329574585 4456788 5 -1
3.0416078567504883 5.405357360839844 0.7661818265914917 4456788 5 -1
2.729442596435547 5.6217570304870605 0.04788636416196823 4456788 0 -1
2.960225820541382 5.48306941986084 0.4788636267185211 4456788 0 -1
2.8701436519622803 5.544007778167725 0.2873181700706482 4456788 0 -1
3.0946521759033203 5.3879475593566895 0.670409083366394 4456788 5 -1
2.9717750549316406 5.504461288452148 0.5776292681694031 4456788 5 -1
2.969574451446533 5.500385761260986 0.6257650256156921 4456788 5 -1
2.9756436347961426 5.511627197265625 0.48135772347450256 4456788 5 -1
3.0748958587646484 5.46451473236084 0.38508617877960205 4456788 5 -1
2.9717750549316406 5.504461288452148 0.5776292681694031 4456788 5 -1
2.7866244316101074 5.616994857788086 0.38508617877960205 4456788 5 -1
2.7397892475128174 5.643067836761475 0.3369503915309906 4456788 5 -1
2.738579273223877 5.640575408935547 0.38508617877960205 4456788 5 -1
2.743013858795166 5.649709701538086 0.14440731704235077 4456788 5 -1
2.742449998855591 5.648547649383545 0.19254308938980103 4456788 5 -1
2.9428186416625977 5.56596040725708 0.4838517904281616 4456788 5 -1
3.111528158187866 5.41732931137085 0.919318437576294 4456788 5 -1
2.68648362159729 5.655124187469482 0.8225480318069458 4456788 5 -1
2.9483749866485596 5.576469898223877 0.2903110682964325 4456788 5 -1
2.8042800426483154 5.652583122253418 0.2419258952140808 4456788 5 -1
2.698091506958008 5.679559230804443 0.580622136592865 4456788 5 -1
2.853384494781494 5.62982702255249 0.19354072213172913 4456788 5 -1
2.8479292392730713 5.619063854217529 0.43546661734580994 4456788 5 -1
2.9009792804718018 5.603570461273193 0.2419258952140808 4456788 5 -1
2.8543903827667236 5.631811618804932 -0.09677036106586456 4456788 0 -1
2.757631301879883 5.679816722869873 0.09677036106586456 4456788 5 -1
2.9027698040008545 5.607028961181641 0.09677036106586456 4456788 5 -1
2.7559304237365723 5.6763129234313965 0.2419258952140808 4456788 5 -1
2.6243395805358887 5.774084568023682 0.24317294359207153 4456788 5 -1
2.655653715133667 5.352997303009033 2.1399219036102295 4456788 0 -1
2.808856248855591 5.661807537078857 0.5836150646209717 4456788 5 -1
2.8680925369262695 5.658846378326416 0.19453835487365723 4456788 5 -1
2.764021396636963 5.6929779052734375 0.48634588718414307 4456788 5 -1
2.717052936553955 5.719473361968994 0.43771129846572876 4456788 5 -1
2.914989709854126 5.6306328773498535 0.29180753231048584 4456788 5 -1
2.820723295211792 5.685727596282959 0.04863458871841431 4456788 5 -1
2.771846055984497 5.709094047546387 0.09726917743682861 4456788 5 -1
2.88110613822937 5.68452262878418 -0.2933039665222168 4456788 0 -1
2.784342050552368 5.734831809997559 -0.24441997706890106 4456788 5 -1
2.785078763961792 5.736349105834961 -0.19553598761558533 4456788 5 -1
2.88110613822937 5.68452262878418 -0.2933039665222168 4456788 0 -1
2.8738925457000732 5.670290470123291 -0.537723958492279 4456788 0 -1
2.8820383548736572 5.686361789703369 -0.24441997706890106 4456788 5 -1
2.833939790725708 5.712368011474609 -0.19553598761558533 4456788 5 -1
2.8331902027130127 5.710857391357422 -0.24441997706890106 4456788 5 -1
2.7346091270446777 5.756429672241211 0.2933039665222168 4456788 5 -1
2.673105001449585 5.7521071434021 0.6843759417533875 4456788 5 -1
2.9275238513946533 5.654844284057617 0.39107197523117065 4456788 5 -1
2.785651445388794 5.7375288009643555 0.1466519832611084 4456788 5 -1
2.8345224857330322 5.713542938232422 0.1466519832611084 4456788 5 -1
2.846724033355713 5.738137722015381 -0.29480043053627014 4456788 5 -1
2.846724033355713 5.738137722015381 -0.29480043053627014 4456788 5 -1
2.846724033355713 5.738137722015381 -0.29480043053627014 4456788 5 -1
2.846724033355713 5.738137722015381 -0.29480043053627014 4456788 5 -1
2.896742582321167 5.715373992919922 -0.24566702544689178 4456788 5 -1
2.8975088596343994 5.716886043548584 -0.19653362035751343 4456788 5 -1
2.8476452827453613 5.739994049072266 -0.24566702544689178 4456788 5 -1
2.846724033355713 5.738137722015381 -0.29480043053627014 4456788 5 -1
2.8483986854553223 5.741512775421143 -0.19653362035751343 4456788 5 -1
2.8483986854553223 5.741512775421143 -0.19653362035751343 4456788 5 -1
2.8308517932891846 5.706143856048584 0.7370010614395142 4456788 5 -1
3.035430908203125 5.622367858886719 0.5404674410820007 4456788 5 -1
2.890348196029663 5.702757835388184 0.49133405089378357 4456788 5 -1
2.7475099563598633 5.783586025238037 0.3439338207244873 4456788 5 -1
2.944887161254883 5.688383102416992 0.29480043053627014 4456788 5 -1
2.6525027751922607 5.836049556732178 0.14740021526813507 4456788 5 -1
2.896742582321167 5.715373992919922 0.24566702544689178 4456788 5 -1
2.751389741897583 5.791753768920898 -0.04913340508937836 4456788 5 -1
2.8002750873565674 5.767648696899414 0.09826681017875671 4456788 5 -1
2.848984479904175 5.7426934242248535 0.14740021526813507 4456788 5 -1
2.792370319366455 5.751367568969727 0.49133405089378357 4456788 5 -1
2.6454033851623535 5.820429801940918 -0.49133405089378357 4456788 5 -1
2.9864723682403564 5.648526191711426 0.5404674410820007 4456788 5 -1
2.946427583694458 5.345370769500732 1.9653362035751343 4456788 0 -1
3.12526798248291 5.22413444519043 2.014469623565674 4456788 0 -1
2.582152843475342 5.681265354156494 1.4740021228790283 11197490 0 -1
2.86210036277771 5.769131183624268 -0.2469140589237213 4456788 5 -1
2.8628575801849365 5.770657539367676 -0.19753125309944153 4456788 5 -1
2.86210036277771 5.769131183624268 -0.2469140589237213 4456788 5 -1
2.86210036277771 5.769131183624268 -0.2469140589237213 4456788 5 -1
2.912816047668457 5.747087478637695 -0.14814843237400055 4456788 5 -1
2.8634462356567383 5.771844387054443 -0.14814843237400055 4456788 5 -1
2.8557825088500977 5.756396293640137 0.4938281178474426 4456788 5 -1
2.854011058807373 5.752825736999512 0.5432109236717224 4456788 5 -1
2.9573967456817627 5.7125468254089355 0.39506250619888306 4456788 5 -1
2.7651126384735107 5.820640563964844 0.09876562654972076 4456788 5 -1
2.81349778175354 5.7948832511901855 -0.19753125309944153 4456788 5 -1
2.9135003089904785 5.748437881469727 -0.04938281327486038 4456788 5 -1
2.9135003089904785 5.748437881469727 0.04938281327486038 4456788 5 -1
2.8611745834350586 5.767265319824219 0.2962968647480011 4456788 5 -1
2.8634462356567383 5.771844387054443 0.14814843237400055 4456788 5 -1
2.8634462356567383 5.771844387054443 0.14814843237400055 4456788 5 -1
2.9615767002105713 5.720621109008789 -0.19753125309944153 4456788 5 -1
3.0527329444885254 5.654415607452393 -0.4938281178474426 4456788 5 -1
3.054445266723633 5.657587051391602 -0.44444531202316284 4456788 5 -1
3.0016322135925293 5.677198886871338 -0.5432109236717224 4456788 5 -1
3.0016322135925293 5.677198886871338 -0.5432109236717224 4456788 5 -1
2.868425130844116 5.7818803787231445 -0.5459544062614441 4456788 5 -1
2.8765552043914795 5.7982683181762695 -0.24816110730171204 4456788 5 -1
2.9275271892547607 5.776113033294678 -0.14889666438102722 4456788 5 -1
2.7773637771606445 5.846429347991943 -0.24816110730171204 4456788 5 -1
2.828704357147217 5.826203346252441 -0.09926444292068481 4456788 5 -1
2.8765552043914795 5.7982683181762695 -0.24816110730171204 4456788 5 -1
2.878584146499634 5.802358150482178 -0.04963222146034241 4456788 5 -1
2.8779079914093018 5.800995349884033 0.14889666438102722 4456788 5 -1
2.866473913192749 5.777946949005127 0.5955866575241089 4456788 5 -1
2.817051887512207 5.80220365524292 0.5955866575241089 4456788 5 -1
2.817051887512207 5.80220365524292 0.5955866575241089 4456788 5 -1
2.866473913192749 5.777946949005127 0.5955866575241089 4456788 5 -1
2.817051887512207 5.80220365524292 0.5955866575241089 4456788 5 -1
2.967336416244507 5.731746673583984 0.5459544062614441 4456788 5 -1
2.8745248317718506 5.794175624847412 0.34742555022239685 4456788 5 -1
2.977933168411255 5.752215385437012 0 4456788 5 -1
2.927957057952881 5.776961326599121 -0.09926444292068481 4456788 5 -1
2.8773162364959717 5.799802303314209 0.19852888584136963 4456788 5 -1
3.0763845443725586 5.698224067687988 0.14889666438102722 4456788 5 -1
2.878330707550049 5.801846981048584 0.09926444292068481 4456788 5 -1
2.9757468700408936 5.747992515563965 -0.24816110730171204 4456788 5 -1
3.02187180519104 5.715479373931885 -0.39705777168273926 4456788 5 -1
3.018664598464966 5.709413051605225 -0.4963222146034241 4456788 5 -1
3.068150758743286 5.682973384857178 -0.4963222146034241 4456788 5 -1
3.071410655975342 5.689011573791504 -0.39705777168273926 4456788 5 -1
3.016792058944702 5.70587158203125 -0.5459544062614441 4456788 5 -1
3.014739751815796 5.701990127563477 -0.5955866575241089 4456788 5 -1
2.8601109981536865 5.643098831176758 -1.3897022008895874 4726897 0 -1
2.8601109981536865 5.643098831176758 -1.3897022008895874 4726897 0 -1
2.8876936435699463 5.8207197189331055 0.39905303716659546 4456788 5 -1
2.8291115760803223 5.827042579650879 0.6484611630439758 4456788 5 -1
2.8291115760803223 5.827042579650879 0.6484611630439758 4456788 5 -1
2.7867209911346436 5.866126537322998 0.4489346444606781 4456788 5 -1
3.04242205619812 5.754347324371338 0.09976325929164886 4456788 5 -1
2.9426705837249756 5.805991172790527 -0.09976325929164886 4456788 5 -1
2.941633462905884 5.803945064544678 0.19952651858329773 4456788 5 -1
2.9422383308410645 5.805139064788818 0.1496448814868927 4456788 5 -1
3.091843843460083 5.726858139038086 -0.1496448814868927 4456788 5 -1
2.987269401550293 5.770249366760254 -0.39905303716659546 4456788 5 -1
3.0852982997894287 5.7147345542907715 -0.4489346444606781 4456788 5 -1
3.0168540477752686 5.705988883972168 -0.847987711429596 4456788 0 -1
3.0276458263397217 5.726399898529053 -0.6484611630439758 4456788 5 -1
3.0226144790649414 5.716883659362793 -0.7482244372367859 4456788 5 -1
3.0198254585266113 5.71160888671875 -0.7981060743331909 4456788 0 -1
3.0252208709716797 5.721813678741455 -0.6983428001403809 4456788 5 -1
2.9260334968566895 5.773165702819824 -0.6983428001403809 3238030 5 -1
2.6212010383605957 5.898221969604492 -0.847987711429596 8705099 5 -1
2.6113805770874023 5.745572090148926 1.5962121486663818 9360965 0 -1
2.8043696880340576 5.903277397155762 -0.30078622698783875 4456788 5 -1
2.857133626937866 5.884758472442627 -0.10026207566261292 4456788 5 -1
2.9054653644561768 5.856542110443115 -0.2506551742553711 4456788 5 -1
2.8473010063171387 5.864506244659424 0.5514414310455322 4456788 5 -1
3.1036500930786133 5.748726844787598 0.350917249917984 4456788 5 -1
2.9534735679626465 5.827306270599365 0.350917249917984 4456788 5 -1
3.0056538581848145 5.805761337280273 -0.2506551742553711 4456788 5 -1
3.0075089931488037 5.809344291687012 -0.10026207566261292 4456788 5 -1
2.9569497108459473 5.834164619445801 0.15039311349391937 4456788 5 -1
2.956563949584961 5.710938453674316 -1.203144907951355 4456788 0 -1
3.0349247455596924 5.740167140960693 -0.8020966053009033 4456788 0 -1
-3.868129014968872 5.086348056793213 -1.403668999671936 4590430 0 -1
2.4442036151885986 6.033638954162598 -0.6517034769058228 2523534 5 -1
2.8713481426239014 5.914035797119141 -0.10076089203357697 4456788 5 -1
2.921722650527954 5.889311790466309 -0.10076089203357697 4456788 5 -1
3.0206074714660645 5.834645748138428 -0.2519022226333618 4456788 5 -1
2.971660852432251 5.863190174102783 0.15114133059978485 4456788 5 -1
2.921722650527954 5.889311790466309 0.10076089203357697 4456788 5 -1
2.9220657348632812 5.890003681182861 0 4456788 5 -1
2.9220657348632812 5.890003681182861 0 4456788 5 -1
3.0156302452087402 5.825031757354736 0.45342400670051575 4456788 5 -1
3.173874855041504 5.758002281188965 0.05038044601678848 4456788 5 -1
3.0731170177459717 5.812402725219727 -0.05038044601678848 4456788 5 -1
2.968167304992676 5.856297492980957 -0.3526630997657776 4456788 5 -1
3.1735951900482178 5.757495403289795 0.10076089203357697 4456788 5 -1
3.0206074714660645 5.834645748138428 -0.2519022226333618 4456788 5 -1
2.975513219833374 5.747541427612305 1.1587501764297485 4456788 0 -1
2.779405117034912 5.98084831237793 0.40503883361816406 4456788 5 -1
3.0355608463287354 5.863529682159424 -0.25314927101135254 4456788 5 -1
2.9868104457855225 5.893081188201904 -0.10125970840454102 4456788 5 -1
3.083975315093994 5.832940101623535 -0.35440897941589355 4456788 5 -1
2.885138988494873 5.942440509796143 0.15188956260681152 4456788 5 -1
3.0377912521362305 5.867837905883789 0 4456788 5 -1
2.9868104457855225 5.893081188201904 0.10125970840454102 4456788 5 -1
2.9849681854248047 5.889446258544922 0.25314927101135254 4456788 5 -1
2.9870736598968506 5.8936004638671875 0.05062985420227051 4456788 5 -1
2.9364452362060547 5.918988227844238 0.05062985420227051 4456788 5 -1
3.1386821269989014 5.813614845275879 0.10125970840454102 4456788 5 -1
2.9840028285980225 5.8875412940979 0.30377912521362305 4456788 5 -1
3.2394542694091797 5.756957530975342 0.15188956260681152 4456788 5 -1
3.0883302688598633 5.841176986694336 0.05062985420227051 4456788 5 -1
3.0883302688598633 5.841176986694336 -0.05062985420227051 4456788 5 -1
3.0876049995422363 5.8398051261901855 -0.15188956260681152 4456788 5 -1
3.0876049995422363 5.8398051261901855 -0.15188956260681152 4456788 5 -1
2.9502172470092773 5.946748733520508 -0.152637779712677 4456788 5 -1
2.9509971141815186 5.948320388793945 0 4456788 5 -1
2.9996724128723145 5.918458461761475 -0.25439631938934326 4456788 5 -1
2.847899913787842 5.99491024017334 -0.20351704955101013 4456788 5 -1
3.0375723838806152 5.867415428161621 -0.6614304184913635 4456788 5 -1
3.001523971557617 5.9221110343933105 0.10175852477550507 4456788 5 -1
2.845137119293213 5.989094257354736 0.35615482926368713 4456788 5 -1
3.103543758392334 5.869951248168945 0.05087926238775253 4456788 5 -1
3.049527645111084 5.89050817489624 0.305275559425354 4456788 5 -1
2.8970513343811035 5.966976165771484 0.305275559425354 4456788 5 -1
3.103543758392334 5.869951248168945 0.05087926238775253 4456788 5 -1
2.9996724128723145 5.918458461761475 0.25439631938934326 4456788 5 -1
3.20304012298584 5.810913562774658 0.25439631938934326 4456788 5 -1
2.9502172470092773 5.946748733520508 0.152637779712677 4456788 5 -1
3.154143810272217 5.8422532081604 -0.10175852477550507 4456788 5 -1
3.003812313079834 5.926626205444336 -0.6135440468788147 4456788 5 -1
2.9135639667510986 6.000986576080322 -0.15338601171970367 4456788 5 -1
2.96467924118042 5.975899696350098 -0.15338601171970367 4456788 5 -1
3.015174150466919 5.9490437507629395 -0.20451468229293823 4456788 5 -1
2.914248466491699 6.002396583557129 -0.05112867057323456 4456788 5 -1
3.061951160430908 5.914505481719971 0.40902936458587646 4456788 5 -1
3.0015881061553955 5.922237873077393 0.6646726727485657 4456788 5 -1
3.219592809677124 5.840943336486816 0.20451468229293823 4456788 5 -1
3.014376640319824 5.947470188140869 0.2556433379650116 4456788 5 -1
3.220254898071289 5.842144966125488 0.15338601171970367 4456788 5 -1
3.015174150466919 5.9490437507629395 -0.20451468229293823 4456788 5 -1
3.2713701725006104 5.813676357269287 -0.15338601171970367 4456788 5 -1
-3.821004867553711 5.441308498382568 -0.562415361404419 4456788 0 -1
2.9121944904327393 5.998166084289551 -0.2556433379650116 4456788 5 -1
-3.7764062881469727 5.485952377319336 -0.40902936458587646 4456788 0 -1
-3.7807438373565674 5.492253303527832 -0.2556433379650116 4456788 0 -1
-3.7807438373565674 5.492253303527832 -0.2556433379650116 4523353 0 -1
-3.767493486404419 5.4730048179626465 -0.6135440468788147 4590430 0 -1
2.566880226135254 5.908756732940674 -1.7383747100830078 8705099 0 -1
2.8771722316741943 6.0565290451049805 0 4456788 5 -1
2.8771722316741943 6.0565290451049805 0 4456788 5 -1
2.9743244647979736 5.9953413009643555 0.41102463006973267 4456788 5 -1
2.75999116897583 5.939072608947754 -1.4385861158370972 4456788 0 -1
3.0717151165008545 5.933365821838379 0.5651588439941406 4456788 5 -1
3.0804214477539062 5.950182914733887 0.2568903863430023 4456788 5 -1
2.8649837970733643 6.030871868133545 -0.6165369153022766 4456788 5 -1
2.9447286128997803 5.935685157775879 -1.0275615453720093 4456788 5 -1
-3.847808837890625 5.47947883605957 -0.3596465289592743 4456788 0 -1
-3.794827699661255 5.512713432312012 -0.41102463006973267 4456788 0 -1
-3.7979576587677 5.51725959777832 -0.3082684576511383 4456788 0 -1
-3.7979576587677 5.51725959777832 -0.3082684576511383 4523353 0 -1
-3.79292631149292 5.509951114654541 -0.46240270137786865 4590430 0 -1
-3.837031841278076 5.464131832122803 -0.6165369153022766 4724328 0 -1
2.8374269008636475 6.1057024002075195 -0.25813743472099304 4456788 5 -1
2.801136016845703 5.7694220542907715 -2.0650994777679443 4456788 0 -1
2.964893102645874 5.607711315155029 -2.271609306335449 4456788 0 -1
2.8603358268737793 6.021087646484375 -0.9809222221374512 4456788 5 -1
-3.869218587875366 5.50996732711792 -0.25813743472099304 4456788 0 -1
-3.813249349594116 5.539474010467529 -0.41301989555358887 4456788 0 -1
-4.541084289550781 4.973241806030273 -0.20650994777679443 4456788 0 -1
-4.017356872558594 5.3890790939331055 -0.4646473824977875 4456788 0 -1
-3.8194243907928467 5.548444747924805 -0.15488246083259583 4456788 0 -1
-3.817629098892212 5.545836448669434 -0.25813743472099304 4523353 0 -1
-3.869218587875366 5.50996732711792 -0.25813743472099304 4590430 0 -1
2.9037411212921143 6.112457275390625 0.20750758051872253 4456788 5 -1
3.004528522491455 6.0562238693237305 0.36313825845718384 4456788 5 -1
2.828918695449829 6.0873942375183105 -0.8819071650505066 4456788 5 -1
2.8773415088653564 6.056885242462158 -0.9337840676307678 4456788 5 -1
-3.8879106044769287 5.536585330963135 -0.2593844532966614 4523353 0 -1
2.8615550994873047 6.157622337341309 0.41701042652130127 4456788 5 -1
2.85040283203125 6.13362455368042 0.7297682166099548 4456788 5 -1
3.072199821472168 6.061557292938232 0.31275781989097595 4456788 5 -1
3.0176398754119873 6.0826520919799805 0.41701042652130127 4456788 5 -1
2.965611696243286 6.108187675476074 0.41701042652130127 4456788 5 -1
3.0125670433044434 6.072427272796631 0.5733892917633057 4456788 5 -1
2.945621967315674 6.200617790222168 0.21050047874450684 4456788 5 -1
2.834990978240967 6.237560749053955 0.473626047372818 4456788 5 -1
2.9587996006011963 6.228356838226318 0.2643726170063019 4456788 5 -1
2.8484270572662354 6.267122745513916 0.4758707284927368 4456788 5 -1
-5.219853401184082 5.138979434967041 -0.6763948798179626 4456788 0 -1
-4.673450946807861 5.670799255371094 0.3381974399089813 4456788 0 -1
-4.508107662200928 5.810495376586914 0.16909871995449066 4456788 0 -1
-4.62148904800415 5.722116470336914 0.11273247748613358 4590430 0 -1
-5.242949962615967 5.161717891693115 -0.6793878078460693 4456788 0 -1
-4.641256332397461 5.746592044830322 0.16984695196151733 4456788 0 -1
-3.5100672245025635 6.501511573791504 0.05661564692854881 4456788 0 -1
-4.529252052307129 5.837748050689697 0 4456788 0 -1
-4.524462699890137 5.831575393676758 0.33969390392303467 4590430 0 -1
-4.998833656311035 5.47455358505249 -0.3411903381347656 4456788 0 -1
-4.605934143066406 5.818730354309082 0.05686505511403084 4456788 0 -1
-4.549070835113525 5.863293170928955 -0.05686505511403084 4456788 0 -1
-4.509922981262207 5.930266857147217 -0.22845785319805145 4456788 0 -1
-4.469650745391846 5.9958086013793945 -0.3441832363605499 4456788 0 -1
-4.470207691192627 6.758012294769287 0.1863078773021698 4456788 0 -1
-6.674851894378662 4.261509895324707 -2.1369290351867676 4456788 0 -1
-5.042268753051758 6.243107318878174 -1.6969729661941528 4456788 0 -1
-3.7446236610412598 7.082470893859863 -1.7598237991333008 4456788 0 -1
-4.693844795227051 6.684277534484863 -0.7542102336883545 4456788 0 -1
-4.523135185241699 6.8380279541015625 -0.25140342116355896 4456788 0 -1
-4.880537033081055 6.417601108551025 -1.508420467376709 4523353 0 -1
-4.541084289550781 6.8651628494262695 -0.25240105390548706 4456788 0 -1
-6.746656894683838 4.4423298835754395 -1.9079723358154297 4456788 0 -1
-5.536746501922607 5.691723346710205 -2.416764974594116 4456788 0 -1
-4.902130126953125 6.575957298278809 -1.2719814777374268 4456788 0 -1
-5.056122779846191 6.387458801269531 -1.5899769067764282 4456788 0 -1
-4.631679534912109 6.863814353942871 -0.5723916888237 4456788 0 -1
-4.443562984466553 6.9919891357421875 -0.5087926387786865 4456788 0 -1
-5.530575752258301 5.685379981994629 -2.5539393424987793 4456788 0 -1
-4.824483394622803 6.734891414642334 -0.8938787579536438 4456788 0 -1
-4.764819622039795 6.785349369049072 -0.8300303220748901 4456788 0 -1
-4.469262599945068 7.0324273109436035 -0.06384848058223724 4456788 0 -1
-5.034780502319336 6.489323616027832 -1.4046666622161865 4590430 0 -1
-5.236854553222656 6.354436874389648 -1.4742515087127686 4456788 0 -1
-4.8934855461120605 6.696518898010254 -1.0896642208099365 4456788 0 -1
-5.2050251960754395 6.315814971923828 -1.7306431531906128 4456788 0 -1
-4.8472113609313965 6.766618728637695 -0.8332725763320923 4456788 0 -1
-4.484744548797607 7.056788444519043 -0.2563915550708771 4456788 0 -1
-5.478545188903809 5.999917507171631 -2.1234610080718994 4456788 0 -1
-4.926139831542969 6.608165264129639 -1.6086825132369995 4456788 0 -1
-4.848727226257324 6.768735408782959 -1.0939041376113892 4456788 0 -1
-4.433572292327881 7.117802143096924 -0.45043110847473145 4456788 0 -1
-5.301957607269287 6.698024272918701 -1.5982073545455933 4456788 0 -1
-4.965578079223633 7.071239471435547 -0.9322876334190369 4456788 0 -1
-3.741421937942505 7.7061028480529785 -1.465023398399353 4456788 0 -1
-5.518802642822266 6.429771423339844 -1.9311672449111938 4456788 0 -1
-5.144532680511475 6.901127815246582 -1.1986554861068726 4456788 0 -1
-4.455239772796631 7.447288513183594 -0.46614381670951843 4456788 0 -1
-3.050670862197876 8.518725395202637 0.0693354606628418 3107982 4 -1
-3.130951404571533 8.523378372192383 0.13916973769664764 4147337 4 -1
-3.1312272548675537 8.524128913879395 0.06958486884832382 3887499 4 -1
-3.0616445541381836 8.549367904663086 0.06958486884832382 3692940 4 -1
-3.060925245285034 8.547359466552734 0.20875461399555206 3107982 4 -1
-2.990743637084961 8.570191383361816 0.2783394753932953 2977934 4 -1
-2.9920616149902344 8.573967933654785 -0.06958486884832382 2912910 4 -1
-3.142542600631714 8.554932594299316 0 4147337 4 -1
-3.1424503326416016 8.554681777954102 0.06983427703380585 3887499 4 -1
-3.072618007659912 8.580010414123535 0.06983427703380585 3757452 4 -1
-3.0027859210968018 8.60469913482666 0.06983427703380585 3562893 4 -1
-3.002521276473999 8.603940963745117 0.1396685540676117 2912910 4 -1
-3.0020804405212402 8.602677345275879 0.20950284600257874 2070922 4 -1
-3.0020804405212402 8.602677345275879 0.20950284600257874 2006409 4 -1
-2.9329535961151123 8.628751754760742 0.06983427703380585 2139270 4 -1
-3.0835916996002197 8.6106538772583 0.07008368521928787 4536450 4 -1
-3.2238495349884033 8.559415817260742 0 4147337 4 -1
-3.01350998878479 8.635430335998535 0.07008368521928787 3887499 4 -1
-3.083320140838623 8.609895706176758 0.14016737043857574 3757452 4 -1
-3.0128023624420166 8.633401870727539 0.2102510631084442 3238030 4 -1
-3.083320140838623 8.609895706176758 0.14016737043857574 2588302 4 -1
-2.9404025077819824 8.650666236877441 0.4205021262168884 2070155 4 -1
-2.942737102508545 8.6575345993042 0.2102510631084442 2070922 4 -1
-2.942131996154785 8.655754089355469 0.2803347408771515 2006409 4 -1
-3.0104119777679443 8.62655258178711 0.4205021262168884 2072968 4 -1
-2.873093843460083 8.6823091506958 0.14016737043857574 2139270 4 -1
-2.9434285163879395 8.659568786621094 0.07008368521928787 3257723 4 -1
-2.9434285163879395 8.659568786621094 -0.07008368521928787 4505456 4 -1
-2.8734312057495117 8.683328628540039 0 4899181 4 -1
-2.8734312057495117 8.683328628540039 0 13164576 4 -1
-3.0942928791046143 8.640535354614258 0.1406661868095398 4600703 4 -1
-3.0945653915405273 8.64129638671875 0.0703330934047699 4536450 4 -1
-3.1648964881896973 8.6157865524292 0.0703330934047699 4341894 4 -1
-3.2344675064086914 8.587606430053711 -0.2109992951154709 4147337 4 -1
-3.023524045944214 8.664125442504883 0.2109992951154709 3238030 4 -1
-3.1648964881896973 8.6157865524292 0.0703330934047699 3107982 4 -1
-3.1646175384521484 8.61502742767334 0.1406661868095398 2977934 4 -1
-3.1648964881896973 8.6157865524292 0.0703330934047699 2782862 4 -1
-3.0945653915405273 8.64129638671875 0.0703330934047699 2328718 4 -1
-2.9526021480560303 8.68655776977539 0.2813323736190796 2070922 4 -1
-2.9518213272094727 8.684260368347168 0.3516654670238495 2006409 4 -1
-2.9526021480560303 8.68655776977539 0.2813323736190796 2072968 4 -1
-3.023524045944214 8.664125442504883 0.2109992951154709 3257723 4 -1
-2.9539899826049805 8.690640449523926 0 4505456 4 -1
-2.8835723400115967 8.713974952697754 0.0703330934047699 4899181 4 -1
-2.8833181858062744 8.713207244873047 0.1406661868095398 5424489 4 -1
-2.8836569786071777 8.71423053741455 0 8180304 4 -1
-3.023524045944214 8.664125442504883 0.2109992951154709 9360965 4 -1
-2.8132412433624268 8.736933708190918 0.0703330934047699 13164576 4 -1
-3.105539083480835 8.671939849853516 0.07058250159025192 4536450 4 -1
-3.1052653789520264 8.671175956726074 0.14116500318050385 4341894 4 -1
-3.2459373474121094 8.618059158325195 -0.21174751222133636 4147337 4 -1
-3.0336217880249023 8.693061828613281 0.2823300063610077 3238030 4 -1
-3.1753733158111572 8.644308090209961 0.21174751222133636 2977934 4 -1
-3.176212787628174 8.646592140197754 0 2912910 4 -1
-3.1056301593780518 8.672194480895996 0 2782862 4 -1
-3.105539083480835 8.671939849853516 0.07058250159025192 2134668 4 -1
-3.0318384170532227 8.68795108795166 0.42349502444267273 2072968 4 -1
-3.17583966255188 8.645577430725098 0.14116500318050385 2139270 4 -1
-2.822554111480713 8.765856742858887 -0.21174751222133636 2139270 4 -1
-3.10417103767395 8.668119430541992 0.2823300063610077 5424489 4 -1
-2.7526369094848633 8.790329933166504 -0.07058250159025192 5424489 4 -1
-3.105539083480835 8.671939849853516 -0.07058250159025192 12640037 4 -1
-2.8232173919677734 8.767915725708008 -0.07058250159025192 12640037 4 -1
-3.32753586769104 8.619735717773438 -0.2833276391029358 3432845 4 -1
-3.0435361862182617 8.721471786499023 -0.35415956377983093 3432845 4 -1
-3.187436103820801 8.677145957946777 0 3107982 4 -1
-2.9037673473358154 8.775002479553223 -0.1416638195514679 3107982 4 -1
-3.1870617866516113 8.676126480102539 0.1416638195514679 2977934 4 -1
-3.256737232208252 8.646733283996582 0.2833276391029358 2912910 4 -1
-3.256737232208252 8.646733283996582 0.2833276391029358 2912910 4 -1
-3.045682907104492 8.727622985839844 0.07083190977573395 2782862 4 -1
-3.045414447784424 8.72685432434082 0.1416638195514679 2134668 4 -1
-2.9727561473846436 8.745850563049316 0.35415956377983093 2006409 4 -1
-3.1165125370025635 8.702582359313965 0.07083190977573395 2139270 4 -1
-2.974940299987793 8.752276420593262 0 2468738 4 -1
-2.9037673473358154 8.775002479553223 -0.1416638195514679 10016830 4 -1
-2.9681880474090576 8.73241138458252 -0.9951384663581848 4728182 4 -1
-2.9681880474090576 8.73241138458252 -0.9951384663581848 4729209 4 -1
-3.1230759620666504 8.72091007232666 -0.4975692331790924 4600703 4 -1
-2.8331351280212402 8.798717498779297 -0.7818945050239563 4600703 4 -1
-3.1280651092529297 8.305105209350586 -2.701090097427368 3432845 0 -1
-3.1978142261505127 8.705398559570312 0.21324396133422852 2977934 4 -1
-3.1978142261505127 8.705398559570312 0.21324396133422852 2912910 4 -1
-3.1986594200134277 8.707698822021484 0 2199437 4 -1
-2.911252498626709 8.797622680664062 0.42648792266845703 2199437 4 -1
-3.0564968585968018 8.758611679077148 0 2139270 4 -1
-2.98506498336792 8.782062530517578 0.14216263592243195 4045940 4 -1
-3.056137800216675 8.757582664489746 0.14216263592243195 9360965 4 -1
-2.772090196609497 8.852452278137207 -0.07108131796121597 9360965 4 -1
-2.978602886199951 8.76305103302002 -0.9986302256584167 4728182 4 -1
-2.980990171432495 8.770074844360352 -0.9272994995117188 4729209 4 -1
-2.980990171432495 8.770074844360352 -0.9272994995117188 4729209 4 -1
-2.770113468170166 8.846139907836914 -0.855968713760376 4536450 4 -1
-2.9870827198028564 8.787999153137207 -0.71330726146698 4471684 4 -1
-3.0672214031219482 8.78934383392334 0 3238030 4 -1
-3.280346393585205 8.709416389465332 0.213992178440094 2912910 4 -1
-3.1293249130249023 8.738359451293945 0.71330726146698 2458766 4 -1
-2.84307599067688 8.829590797424316 0.784637987613678 2458766 4 -1
-2.9242165088653564 8.836798667907715 -0.142661452293396 2134668 4 -1
-2.9955387115478516 8.81287670135498 -0.142661452293396 2139270 4 -1
-2.9950990676879883 8.811582565307617 0.213992178440094 4045940 4 -1
-2.9231858253479004 8.833683967590332 -0.285322904586792 5424489 4 -1
-2.9890174865722656 8.793691635131836 -1.002121925354004 4728182 4 -1
-3.066993236541748 8.788689613342285 -0.7873815298080444 4729209 4 -1
-2.7834181785583496 8.888627052307129 -0.7158013582229614 4729209 4 -1
-2.9936299324035645 8.807260513305664 -0.8589616417884827 4664956 4 -1
-2.9975271224975586 8.818726539611816 -0.7158013582229614 4471684 4 -1
-2.854787826538086 8.865962982177734 -0.7158013582229614 3887499 4 -1
-2.8530168533325195 8.86046314239502 -0.7873815298080444 3757452 4 -1
-2.930561065673828 8.855971336364746 -0.501060962677002 3692940 4 -1
