VERSION .7
FIELDS x y z rgb label object
SIZE 4 4 4 4 4 4
TYPE F F F I I I
COUNT 1 1 1 1 1 1
WIDTH 679
HEIGHT 1
POINTS 679
VIEWPOINT 0 0 0 1 0 0 0
DATA ascii
0.0380016453564167 1.652722954750061 0.36313825845718384 4456788 0 -1
-0.11650350689888 1.6853690147399902 -0.10375379025936127 4657508 0 -1
-0.03890310227870941 1.6919280290603638 -0.025938447564840317 4657508 0 -1
0.0896015465259552 1.6681132316589355 -0.2723536789417267 4725613 0 -1
0.09040805697441101 1.6831282377243042 0.4983174800872803 4456788 0 -1
0.3470206558704376 1.6410666704177856 0.5252535343170166 4456788 0 -1
0.39843112230300903 1.6293482780456543 0.5252535343170166 4456788 0 -1
1.2402571439743042 1.1163616180419922 -0.5521896481513977 4456788 0 -1
-1.6700369119644165 0.5480794310569763 0 4456788 0 -1
-0.27525487542152405 1.6883127689361572 -0.40404120087623596 4725613 0 -1
0.1095816120505333 1.7842836380004883 -0.09602213650941849 4456788 0 -1
0.47772279381752014 1.716064453125 0.178326815366745 4456788 0 -1
0.552823543548584 1.670598030090332 0.3292187452316284 4456788 0 -1
-0.2035694420337677 1.759411096572876 -0.2606315016746521 4725613 0 -1
0.09451919049024582 1.7596652507781982 -0.31550130248069763 4725613 0 -1
0.17780254781246185 1.7760816812515259 -0.13717447221279144 4725613 0 -1
-0.5465874075889587 1.6975075006484985 -0.37710511684417725 4657508 0 -1
-0.45895370841026306 1.7560663223266602 -0.1676022708415985 4657508 0 -1
-0.3905090093612671 1.7777631282806396 -0.09776799380779266 4657508 0 -1
-0.15274886786937714 1.8058048486709595 -0.19553598761558533 4657508 0 -1
-0.15274886786937714 1.8058048486709595 -0.19553598761558533 4657508 0 -1
-0.34475263953208923 1.6957964897155762 -0.5726410746574402 4725613 0 -1
-0.20727071166038513 1.7914003133773804 -0.26537024974823 4725613 0 -1
0.09636884182691574 1.7941001653671265 -0.3072708249092102 4725613 0 -1
-1.8260281085968018 1.7586621046066284 -0.13617683947086334 4456788 0 -1
-1.4480310678482056 2.0620710849761963 -0.3112613558769226 4456788 0 -1
-1.5335628986358643 1.9373676776885986 -0.5836150646209717 4729209 0 -1
-1.274401068687439 2.0876095294952393 -0.6808842420578003 4212104 0 -1
-1.2374157905578613 2.06843900680542 -0.7976072430610657 4147337 0 -1
-1.831917405128479 1.8035345077514648 -0.059109728783369064 4456788 0 -1
-1.5148591995239258 2.032106399536133 -0.43347135186195374 4456788 0 -1
-1.4018762111663818 2.1193413734436035 -0.39406487345695496 4456788 0 -1
-1.3962994813919067 2.1535212993621826 -0.1576259434223175 4456788 0 -1
-1.398766040802002 2.157325267791748 0.039406485855579376 4456788 0 -1
-1.3516786098480225 2.1700291633605957 -0.27584540843963623 4456788 0 -1
-1.193154215812683 2.2100162506103516 -0.5516908168792725 4456788 0 -1
-1.5639703273773193 1.975781798362732 -0.5122843384742737 4729209 0 -1
-1.4470410346984863 2.1021039485931396 -0.315251886844635 4729209 0 -1
-1.2719857692718506 2.083652973175049 -0.8078329563140869 4212104 0 -1
-1.6521148681640625 1.8857829570770264 -0.5713940262794495 4147337 0 -1
-1.5063520669937134 2.1028401851654053 -0.2992897629737854 4456788 0 -1
-1.4059516191482544 2.168407678604126 -0.3192424178123474 4456788 0 -1
-1.6861978769302368 1.8854076862335205 -0.6185321807861328 4456788 0 -1
-1.5733689069747925 2.0279135704040527 -0.4389583170413971 4456788 0 -1
-1.1251838207244873 2.317509889602661 -0.37910038232803345 4456788 0 -1
-0.9946995377540588 2.3982012271881104 -0.19952651858329773 4456788 0 -1
-1.3092759847640991 2.2334671020507812 0.2793371081352234 4657508 0 -1
-1.2277454137802124 2.2273597717285156 -0.5586742162704468 4212104 0 -1
-1.263364315032959 2.2451729774475098 -0.37910038232803345 3562893 0 -1
-1.333296775817871 2.2744436264038086 -0.02020205929875374 4456788 0 -1
-1.422125220298767 2.193352460861206 -0.34343501925468445 4456788 0 -1
-1.54069185256958 2.1083688735961914 -0.3636370599269867 4456788 0 -1
-1.4238239526748657 2.110004186630249 -0.6868700385093689 4456788 0 -1
-1.4524544477462769 2.195805072784424 -0.14141441881656647 4456788 0 -1
-1.4719769954681396 2.181363344192505 -0.1616164743900299 4456788 0 -1
-1.552633285522461 2.1247100830078125 -0.1616164743900299 4657508 0 -1
-1.4714245796203613 2.2244839668273926 -0.10225734114646912 4456788 0 -1
-1.4927817583084106 2.2121946811676025 -0.04090293496847153 4456788 0 -1
-1.4714245796203613 2.2244839668273926 -0.10225734114646912 4456788 0 -1
-1.5597127676010132 2.1343979835510254 -0.36812642216682434 4456788 0 -1
-1.5628834962844849 2.1387369632720947 -0.3272234797477722 4456788 0 -1
-1.3820232152938843 2.31016206741333 0.22770963609218597 4456788 0 -1
-1.3038105964660645 2.365356206893921 -0.062102627009153366 4456788 0 -1
-1.3572033643722534 2.31522536277771 -0.31051313877105713 4456788 0 -1
-1.4682080745697021 2.2644262313842773 -0.12420525401830673 4456788 0 -1
-1.530245065689087 2.222973585128784 -0.12420525401830673 4456788 0 -1
-1.469071626663208 2.2657582759857178 -0.08280350267887115 4456788 0 -1
-1.57115638256073 2.1500580310821533 -0.45541927218437195 4456788 0 -1
-1.5901726484298706 2.1760809421539307 -0.1863078773021698 4456788 0 -1
-1.5927971601486206 2.1796724796295166 -0.10350438207387924 4456788 0 -1
-1.5503307580947876 2.2077512741088867 0.14490613341331482 4456788 0 -1
-1.4876601696014404 2.2490286827087402 0.1656070053577423 4456788 0 -1
-1.4904192686080933 2.253200054168701 -0.02070087566971779 4456788 0 -1
-1.5803864002227783 2.162688970565796 -0.3519148826599121 4456788 0 -1
-1.5690186023712158 2.147132635116577 -0.47612014412879944 4456788 0 -1
-1.5690186023712158 2.147132635116577 -0.47612014412879944 4456788 0 -1
-1.5690186023712158 2.147132635116577 -0.47612014412879944 4456788 0 -1
-1.566782832145691 2.144073009490967 -0.49682101607322693 4456788 0 -1
-1.5690186023712158 2.147132635116577 -0.47612014412879944 4456788 0 -1
-1.57115638256073 2.1500580310821533 -0.45541927218437195 4523353 0 -1
-1.3307034969329834 2.3648438453674316 -0.335204541683197 4456788 0 -1
-1.3559995889663696 2.3608646392822266 -0.25140342116355896 4456788 0 -1
-1.3330810070037842 2.3690690994262695 -0.2933039665222168 4456788 0 -1
-1.3341494798660278 2.3709678649902344 -0.2723536789417267 4456788 0 -1
-1.5577740669250488 2.174624443054199 -0.5656576752662659 4456788 0 -1
-1.6655464172363281 2.1041040420532227 -0.5237571001052856 4456788 0 -1
-1.569435477256775 2.190903425216675 -0.4609062373638153 4456788 0 -1
-1.5941165685653687 2.1814780235290527 -0.41900569200515747 4456788 0 -1
-1.5832971334457397 2.1666722297668457 -0.5237571001052856 4456788 0 -1
-1.4151781797409058 2.3182179927825928 0.3142542541027069 4456788 0 -1
-1.5899295806884766 2.219512701034546 -0.1466519832611084 4456788 0 -1
-1.589227318763733 2.2185323238372803 -0.1676022708415985 4456788 0 -1
-1.58792245388031 2.173001766204834 -0.4818565249443054 4456788 0 -1
-1.58792245388031 2.173001766204834 -0.4818565249443054 4456788 0 -1
-1.58792245388031 2.173001766204834 -0.4818565249443054 4456788 0 -1
-1.5856596231460571 2.169905185699463 -0.5028068423271179 4456788 0 -1
-1.61073637008667 2.1607205867767334 -0.4609062373638153 4523353 0 -1
-1.3452200889587402 2.390641927719116 -0.36039477586746216 4456788 0 -1
-1.3500322103500366 2.39919376373291 -0.2755959928035736 4456788 0 -1
-1.348950982093811 2.3972721099853516 -0.29679569602012634 4456788 0 -1
-1.348950982093811 2.3972721099853516 -0.29679569602012634 4456788 0 -1
-1.6476918458938599 2.210294485092163 -0.23319661617279053 4456788 0 -1
-1.4197120666503906 2.373161792755127 0.08479876816272736 4456788 0 -1
-1.4292963743209839 2.3413453102111816 0.36039477586746216 4456788 0 -1
-1.4278017282485962 2.3388967514038086 0.3815944492816925 4456788 0 -1
-1.4418450593948364 2.3147852420806885 0.46639323234558105 4456788 0 -1
-1.4036014080047607 2.346231698989868 0.423993855714798 4456788 0 -1
-1.4109662771224976 2.3585426807403564 0.3179953694343567 4456788 0 -1
-1.4278017282485962 2.3388967514038086 0.3815944492816925 4456788 0 -1
-1.7966760396957397 2.0932469367980957 -0.211996927857399 4456788 0 -1
-1.6276941299438477 2.1834685802459717 -0.4875929057598114 4456788 0 -1
-1.6276941299438477 2.1834685802459717 -0.4875929057598114 4456788 0 -1
-1.7955615520477295 2.0919485092163086 -0.23319661617279053 4456788 0 -1
-1.5940104722976685 2.2252097129821777 -0.40279415249824524 4456788 0 -1
-1.69418203830719 2.1836295127868652 0.12719815969467163 2718350 0 -1
-1.4310017824172974 2.392033576965332 -0.2573891878128052 4456788 0 -1
-1.4310017824172974 2.392033576965332 -0.2573891878128052 4456788 0 -1
-1.3915696144104004 2.4227938652038574 -0.1715928018093109 4456788 0 -1
-1.46250581741333 2.347954511642456 0.4289819896221161 4456788 0 -1
-1.398918628692627 2.3863866329193115 0.4289819896221161 4456788 0 -1
-1.4183628559112549 2.3709065914154053 0.45043110847473145 4456788 0 -1
-1.46250581741333 2.347954511642456 0.4289819896221161 4456788 0 -1
-1.4217783212661743 2.3766157627105713 0.4075329005718231 4456788 0 -1
-1.4217783212661743 2.3766157627105713 0.4075329005718231 4456788 0 -1
-1.4217783212661743 2.3766157627105713 0.4075329005718231 4456788 0 -1
-1.8437559604644775 2.1045291423797607 -0.08579640090465546 4456788 0 -1
-1.6073524951934814 2.1995909214019775 0.6434730291366577 4456788 0 -1
-1.8441351652145386 2.10496187210083 -0.0643472969532013 4456788 0 -1
-1.756966471672058 2.1753957271575928 -0.1286945939064026 3238030 0 -1
-1.4623324871063232 2.3476765155792236 0.6075582504272461 4456788 0 -1
-1.39021897315979 2.4204421043395996 0.47736719250679016 4456788 0 -1
-1.4671845436096191 2.355465888977051 0.5641612410545349 4456788 0 -1
-1.4199460744857788 2.3735530376434326 0.6075582504272461 4456788 0 -1
-1.4481735229492188 2.3722681999206543 0.5424627065658569 4456788 0 -1
-1.4348554611206055 2.398475408554077 0.45566868782043457 4456788 0 -1
-1.4329948425292969 2.3953652381896973 0.47736719250679016 4456788 0 -1
-1.4246574640274048 2.3814284801483154 0.5641612410545349 4456788 0 -1
-1.4651923179626465 2.3522677421569824 0.7242812514305115 4456788 0 -1
-1.4468982219696045 2.3701791763305664 0.7023333311080933 4456788 0 -1
-1.455145001411438 2.38368821144104 0.6364895701408386 4456788 0 -1
-1.455145001411438 2.38368821144104 0.6364895701408386 4456788 0 -1
-1.5576351881027222 2.354816198348999 0.4828541576862335 4456788 0 -1
-1.4474939107894897 2.4196014404296875 0.5048021078109741 4456788 0 -1
-1.66681706905365 2.3268463611602783 0.10973957926034927 4456788 0 -1
-1.5651472806930542 2.366173028945923 0.39506250619888306 4456788 0 -1
-1.5450248718261719 2.382901430130005 0.37311458587646484 4456788 0 -1
-1.4683935642242432 2.4545369148254395 -0.1536354124546051 4456788 0 -1
-1.4603662490844727 2.3922412395477295 0.7325116991996765 4456788 0 -1
-1.481842279434204 2.378998041152954 0.7325116991996765 4456788 0 -1
-1.4689968824386597 2.406379222869873 0.6659197211265564 4456788 0 -1
-1.4689968824386597 2.406379222869873 0.6659197211265564 4456788 0 -1
-1.5299959182739258 2.4563052654266357 -0.13318394124507904 4456788 0 -1
-1.4871771335601807 2.4859349727630615 0.02219732478260994 4456788 0 -1
-1.548642635345459 2.486241579055786 -0.04489346593618393 4456788 0 -1
-1.5480968952178955 2.485365390777588 -0.08978693187236786 4456788 0 -1
-1.5484153032302856 2.4858765602111816 -0.0673401951789856 4456788 0 -1
-1.524763822555542 2.4977316856384277 -0.1346803903579712 4456788 0 -1
-1.5484153032302856 2.4858765602111816 -0.0673401951789856 4456788 0 -1
-1.525660753250122 2.4992008209228516 -0.08978693187236786 4456788 0 -1
-1.5476874113082886 2.484708070755005 -0.11223366111516953 4456788 0 -1
-1.565619945526123 2.5134973526000977 -0.06808841973543167 4456788 0 -1
-1.565619945526123 2.5134973526000977 -0.06808841973543167 4456788 0 -1
-1.565849781036377 2.513866424560547 -0.04539228230714798 4456788 0 -1
-1.543156385421753 2.527860403060913 -0.04539228230714798 4456788 0 -1
-1.5426125526428223 2.5269696712493896 -0.09078456461429596 4456788 0 -1
-1.565619945526123 2.5134973526000977 -0.06808841973543167 4456788 0 -1
-1.559885025024414 2.5552639961242676 -0.06883664429187775 4456788 0 -1
-1.582824468612671 2.5411181449890137 -0.06883664429187775 4456788 0 -1
-1.559885025024414 2.5552639961242676 -0.06883664429187775 4456788 0 -1
-1.893929123878479 2.3449766635894775 -0.2783394753932953 4456788 0 -1
-1.5770719051361084 2.5834178924560547 0.04638991504907608 4456788 0 -1
-1.882813572883606 2.378580331802368 -0.3985542058944702 4456788 0 -1
-1.6159507036209106 2.5943000316619873 0.1406661868095398 4456788 0 -1
-1.8864086866378784 2.383121967315674 -0.3516654670238495 4456788 0 -1
-1.6295849084854126 2.7798755168914795 0.02469140663743019 4456788 0 -1
-0.9372813105583191 3.0795164108276367 0.14814843237400055 4456788 0 -1
-1.7242835760116577 2.713176727294922 -0.22222265601158142 4456788 0 -1
-1.5553759336471558 2.8217427730560303 0.04938281327486038 4456788 0 -1
-0.835332453250885 3.0956504344940186 0.320988267660141 4456788 0 -1
-1.7960586547851562 2.6616289615631104 -0.2716054618358612 4456788 0 -1
-1.5802500247955322 2.8083224296569824 0 4456788 0 -1
-0.9118639826774597 3.084372043609619 0.19753125309944153 4456788 0 -1
-1.7735488414764404 2.681232213973999 -0.22222265601158142 4456788 0 -1
-1.6047528982162476 2.793956756591797 -0.04938281327486038 4456788 0 -1
-1.7714550495147705 2.6780669689178467 -0.2716054618358612 4456788 0 -1
-1.5555585622787476 2.8220741748809814 0 4456788 0 -1
-1.1356712579727173 3.0152409076690674 -0.04938281327486038 4456788 0 -1
-0.9378325939178467 3.0813276767730713 0.09876562654972076 4456788 0 -1
-2.1450600624084473 2.3984804153442383 0.17283983528614044 4456788 0 -1
-1.4443806409835815 2.849813461303711 0.41975390911102295 4456788 0 -1
-1.5663145780563354 2.6182196140289307 -1.037039041519165 4456788 0 -1
-1.4933427572250366 2.8244643211364746 0.41975390911102295 4456788 0 -1
-2.0599019527435303 2.3999226093292236 -0.6172851324081421 4456788 0 -1
-1.907523274421692 2.558845043182373 -0.44444531202316284 4456788 0 -1
-1.8773863315582275 2.6207971572875977 -0.4489346444606781 4456788 0 -1
-1.6702494621276855 2.7919552326202393 -0.09976325929164886 4456788 0 -1
-2.287808895111084 2.301830768585205 -0.24940814077854156 4456788 0 -1
-1.9020887613296509 2.602924346923828 -0.4489346444606781 4456788 0 -1
-1.7417006492614746 2.7405824661254883 -0.22446732223033905 4456788 0 -1
-1.571271300315857 2.8505799770355225 0 4456788 0 -1
-1.8378016948699951 2.6697585582733154 -0.2992897629737854 4456788 0 -1
-1.5962121486663818 2.8366892337799072 0 4456788 0 -1
-1.7665820121765137 2.7246103286743164 -0.22446732223033905 4456788 0 -1
-1.5961652994155884 2.836606025695801 -0.024940814822912216 4456788 0 -1
-1.5961652994155884 2.836606025695801 -0.024940814822912216 4456788 0 -1
-1.7450367212295532 2.7458319664001465 -0.09976325929164886 4456788 0 -1
-1.6702494621276855 2.7919552326202393 -0.09976325929164886 4456788 0 -1
-1.6702494621276855 2.7919552326202393 -0.09976325929164886 4456788 0 -1
-2.2583260536193848 2.321537733078003 -0.3242305815219879 4456788 0 -1
-1.6448851823806763 2.805975914001465 -0.12470407038927078 4456788 0 -1
-2.066967248916626 2.408154249191284 -0.723283588886261 4456788 0 -1
-1.9175432920455933 2.572286367416382 -0.5486978888511658 4456788 0 -1
-1.7590625286102295 2.713012933731079 -0.37411221861839294 4456788 0 -1
-1.9504437446594238 2.4640181064605713 -0.847987711429596 4456788 0 -1
-2.079224109649658 2.4723031520843506 0.39905303716659546 4456788 0 -1
-2.182126522064209 2.389791250228882 -0.34917140007019043 3432845 0 -1
-1.4714648723602295 2.9032514095306396 -0.024940814822912216 3432845 0 -1
1.9309478998184204 2.3908116817474365 -1.0724550485610962 3432845 0 -1
-1.7208656072616577 2.7627339363098145 0.024940814822912216 3302798 0 -1
-2.0949668884277344 2.4910221099853516 -0.024940814822912216 2328718 0 -1
-1.5710867643356323 2.850245237350464 -0.04988162964582443 2328718 0 -1
-2.261537790298462 2.3248395919799805 -0.2743489444255829 2006409 0 -1
-2.0950284004211426 2.4910953044891357 0 2006409 0 -1
-1.3410985469818115 2.9506914615631104 0.2992897629737854 2006409 0 -1
-2.0949668884277344 2.4910221099853516 0.024940814822912216 2072968 0 -1
-1.4195799827575684 2.9238693714141846 0.17458570003509521 2072968 0 -1
-2.3096697330474854 2.2738845348358154 -0.2992897629737854 8705099 0 -1
-1.571271300315857 2.8505799770355225 0 8705099 0 -1
-1.9995063543319702 2.5259995460510254 -0.6549457907676697 4456788 0 -1
-1.8731695413589478 2.667490243911743 -0.4282337725162506 4456788 0 -1
-1.7348566055297852 2.7851955890655518 -0.20152178406715393 4456788 0 -1
-1.2541754245758057 3.0237927436828613 -0.3022826611995697 4456788 0 -1
-2.309253692626953 2.323406934738159 -0.27709245681762695 4456788 0 -1
-1.759117603302002 2.767988443374634 -0.22671200335025787 4456788 0 -1
-1.759117603302002 2.767988443374634 -0.22671200335025787 4456788 0 -1
-1.8310961723327637 2.7135519981384277 -0.3022826611995697 4456788 0 -1
-1.6121269464492798 2.8649721145629883 0.02519022300839424 4456788 0 -1
-2.2408764362335205 2.403325319290161 -0.10076089203357697 4456788 0 -1
-1.6373645067214966 2.8507351875305176 0 4456788 0 -1
-1.7558456659317017 2.7628397941589355 -0.3022826611995697 4456788 0 -1
-1.7599995136260986 2.769376039505005 -0.20152178406715393 4456788 0 -1
-1.8961601257324219 2.647005081176758 -0.45342400670051575 4456788 0 -1
-2.0230231285095215 2.555708646774292 -0.4282337725162506 4456788 0 -1
-1.6456574201583862 2.6419923305511475 1.0579893589019775 4456788 0 -1
-1.759117603302002 2.767988443374634 -0.22671200335025787 4456788 0 -1
-1.9480963945388794 2.613271713256836 -0.4282337725162506 4456788 0 -1
-2.9430134296417236 1.4543837308883667 -0.1763315498828888 4456788 0 -1
-2.744332790374756 1.696967363357544 -0.6297555565834045 4456788 0 -1
2.89284610748291 1.366748571395874 -0.7557066679000854 4456788 0 -1
-1.9300000667572021 2.641119956970215 -0.32747289538383484 3302798 0 -1
-1.763108491897583 2.77426815032959 -0.05038044601678848 3302798 0 -1
-1.58530592918396 2.8760414123535156 0.15114133059978485 2588302 0 -1
-1.13302743434906 3.0844366550445557 0.10076089203357697 2588302 0 -1
-2.33276629447937 2.296623468399048 -0.3022826611995697 2328718 0 -1
-2.115978717803955 2.5160062313079834 0 2328718 0 -1
-2.430002450942993 2.1370692253112793 -0.5793750882148743 2006409 0 -1
-2.282599449157715 2.3464906215667725 -0.3022826611995697 2006409 0 -1
-1.5867975950241089 2.8787477016448975 -0.05038044601678848 2006409 0 -1
-1.380532145500183 2.9706907272338867 0.27709245681762695 2006409 0 -1
-2.3561038970947266 2.2691822052001953 -0.32747289538383484 2139270 0 -1
-2.1657867431640625 2.472106456756592 -0.07557066529989243 2139270 0 -1
-1.5869840383529663 2.8790857791900635 0 2139270 0 -1
-1.7128475904464722 2.6951820850372314 0.7808969020843506 3257723 0 -1
-2.33276629447937 2.296623468399048 -0.3022826611995697 8705099 0 -1
-2.1662955284118652 2.472687244415283 -0.02519022300839424 10016830 0 -1
-1.980969786643982 2.604851484298706 -0.5596718788146973 4456788 0 -1
-1.800903558731079 2.7775447368621826 -0.25439631938934326 4456788 0 -1
-2.0004611015319824 2.578392505645752 -0.610551118850708 4456788 0 -1
-1.7997864484786987 2.7758216857910156 -0.27983593940734863 4456788 0 -1
-2.065807580947876 2.5066659450531006 -0.6868700385093689 4456788 0 -1
-1.9401304721832275 2.654982805252075 -0.457913339138031 4456788 0 -1
-2.0691628456115723 2.510737180709839 -0.6614304184913635 4456788 0 -1
-1.8238940238952637 2.7573435306549072 -0.305275559425354 4456788 0 -1
-1.6533818244934082 2.878622055053711 0.05087926238775253 4456788 0 -1
-1.8028169870376587 2.7804958820343018 -0.20351704955101013 4456788 0 -1
-1.8043038845062256 2.7827889919281006 -0.152637779712677 4456788 0 -1
-1.9440746307373047 2.6603801250457764 -0.40703409910202026 4456788 0 -1
-1.7520334720611572 2.812771797180176 -0.20351704955101013 4456788 0 -1
-2.0111303329467773 2.592144012451172 -0.5087926387786865 4456788 0 -1
-1.8536006212234497 2.7469019889831543 -0.20351704955101013 4456788 0 -1
-1.825135588645935 2.7592203617095947 -0.27983593940734863 4456788 0 -1
-1.7548706531524658 2.817326784133911 -0.0763188898563385 4456788 0 -1
-2.8170764446258545 1.7419486045837402 -0.2289566695690155 4456788 0 -1
-2.7884016036987305 1.7802343368530273 -0.27983593940734863 4590430 0 -1
-2.7865047454833984 1.779023289680481 -0.305275559425354 4724328 0 -1
-2.3624799251556396 2.3258767127990723 -0.17807741463184357 2588302 0 -1
-2.3589301109313965 2.3223817348480225 -0.25439631938934326 2328718 0 -1
-1.8028169870376587 2.7804958820343018 -0.20351704955101013 2328718 0 -1
-1.6279451847076416 2.893083333969116 0.05087926238775253 2328718 0 -1
-1.7257765531539917 2.827012538909912 -0.2289566695690155 2006409 0 -1
-1.5772570371627808 2.9214696884155273 0 2006409 0 -1
-2.5635926723480225 1.9947251081466675 -0.6868700385093689 8705099 0 -1
-1.7274047136306763 2.8296797275543213 -0.17807741463184357 8705099 0 -1
-2.187551259994507 2.4969494342803955 -0.05087926238775253 10016830 0 -1
-2.6944968700408936 1.9889308214187622 0.15413422882556915 4456788 0 -1
-1.8133968114852905 2.7968130111694336 -0.3596465289592743 4456788 0 -1
-1.8174314498901367 2.8030357360839844 -0.2825794219970703 4456788 0 -1
-1.8204916715621948 2.807755470275879 -0.20551231503486633 4456788 0 -1
-1.9337078332901 2.6994211673736572 -0.46240270137786865 4456788 0 -1
-1.720963478088379 2.87672758102417 -0.05137807875871658 4456788 0 -1
-1.7435694932937622 2.8561594486236572 -0.20551231503486633 4456788 0 -1
-1.8373531103134155 2.777690887451172 -0.3853355646133423 4456788 0 -1
-2.825711250305176 1.8040544986724854 -0.02568903937935829 4456788 0 -1
-2.8237195014953613 1.8027828931808472 0.12844519317150116 4456788 0 -1
-2.8511483669281006 1.763017177581787 0.05137807875871658 4523353 0 -1
-2.7142460346221924 1.6783630847930908 1.0275615453720093 4657508 0 -1
-2.707113265991211 1.673952579498291 -1.0532505512237549 4726897 0 -1
-2.8143253326416016 1.7402476072311401 0.539469838142395 4471684 0 -1
-2.781564950942993 1.7758694887161255 0.590847909450531 4341894 0 -1
-1.8277370929718018 2.818930149078369 -0.41501516103744507 4456788 0 -1
-1.8310025930404663 2.8239665031433105 -0.36313825845718384 4456788 0 -1
-2.852475166320801 1.8211417198181152 0.07781533896923065 4456788 0 -1
-2.8502120971679688 1.8196969032287598 0.1556306779384613 4456788 0 -1
-2.8761231899261475 1.7784603834152222 0.1556306779384613 4523353 0 -1
-2.873753070831299 1.7769948244094849 0.20750758051872253 4590430 0 -1
-2.877053737640381 1.7790358066558838 0.1296922266483307 4657508 0 -1
-2.8600869178771973 1.768544316291809 0.38907670974731445 4724328 0 -1
-2.868922233581543 1.7740076780319214 0.285322904586792 4725613 0 -1
-2.8451578617095947 1.7593129873275757 0.5187689065933228 4471684 0 -1
-2.8379640579223633 1.7548646926879883 0.570645809173584 4341894 0 -1
-2.841649055480957 1.7571431398391724 0.5447073578834534 2328718 0 -1
-2.734816551208496 1.746023416519165 -1.073702096939087 4456788 0 -1
-1.8277604579925537 2.8759984970092773 -0.2618785500526428 4456788 0 -1
-1.9333471059799194 2.7531862258911133 -0.602320671081543 4456788 0 -1
-2.06665301322937 2.717519521713257 -0.15712712705135345 4456788 0 -1
-2.8765172958374023 1.8364912271499634 0.1833149790763855 4456788 0 -1
-2.8776180744171143 1.8371939659118652 0.15712712705135345 4456788 0 -1
-2.87524676322937 1.8356800079345703 0.20950284600257874 4456788 0 -1
-2.90266752243042 1.7948741912841797 0.1833149790763855 4523353 0 -1
-2.8999314308166504 1.793182373046875 0.23569069802761078 4590430 0 -1
-2.90266752243042 1.7948741912841797 0.1833149790763855 4657508 0 -1
-2.8923943042755127 1.7885217666625977 0.34044212102890015 4724328 0 -1
-2.8999314308166504 1.793182373046875 0.23569069802761078 4726897 0 -1
-2.882084608078003 1.782146692276001 0.4451935291290283 4471684 0 -1
-2.8849234580993652 1.7839021682739258 0.41900569200515747 4341894 0 -1
-2.853133201599121 1.8215616941452026 0.47138139605522156 3562893 0 -1
-2.976029396057129 1.596741795539856 -0.5237571001052856 8705099 0 -1
-1.9569567441940308 2.7868075370788574 -0.5551825165748596 4456788 0 -1
-2.1110036373138428 2.7208704948425293 -0.21149811148643494 4456788 0 -1
-2.0091729164123535 2.8047690391540527 0.026437263935804367 4456788 0 -1
-1.8999032974243164 2.872253656387329 0.21149811148643494 4456788 0 -1
-2.9275498390197754 1.81026029586792 0.2379353642463684 4456788 0 -1
-2.9554052352905273 1.7677820920944214 0.21149811148643494 4523353 0 -1
-2.9275498390197754 1.81026029586792 0.2379353642463684 4590430 0 -1
-2.9275498390197754 1.81026029586792 0.2379353642463684 4657508 0 -1
-2.9259088039398193 1.8092454671859741 0.2643726170063019 4724328 0 -1
-2.9176025390625 1.8041092157363892 0.37012168765068054 4728182 0 -1
-2.043015956878662 2.7957770824432373 0.3736133873462677 4456788 0 -1
-2.0446536540985107 2.798017978668213 0.3469267189502716 4456788 0 -1
-2.0695486068725586 2.776193857192993 0.3736133873462677 4456788 0 -1
-2.0695486068725586 2.776193857192993 0.3736133873462677 4456788 0 -1
-3.095653772354126 1.5958693027496338 0 4724328 0 -1
-2.959747314453125 1.7101624011993408 -0.6671667695045471 4724328 0 -1
-2.819805383682251 1.912953495979309 -0.7205401062965393 4724328 0 -1
-2.085164785385132 2.7971420288085938 0.4309772551059723 4456788 0 -1
-2.087090492248535 2.799725294113159 0.40404120087623596 4456788 0 -1
-3.034440755844116 1.6910368204116821 -0.5387215614318848 4657508 0 -1
-3.0413658618927 1.6948959827423096 -0.4848494231700897 4724328 0 -1
-2.935023784637451 1.9325634241104126 0.6858723759651184 4456788 0 -1
-2.373096227645874 2.5989346504211426 0.6584374904632568 4456788 0 -1
-2.938912868499756 1.99375581741333 0.6644232869148254 4456788 0 -1
-2.394669771194458 2.62256121635437 0.6644232869148254 4456788 0 -1
-2.998845338821411 2.2135841846466064 -0.3441832363605499 4456788 0 -1
-2.0579376220703125 2.9306094646453857 1.0899136066436768 4456788 0 -1
3.168402910232544 1.5657671689987183 -1.2333232164382935 4456788 0 -1
-2.4792418479919434 2.829895257949829 -0.3182447850704193 4456788 0 -1
-2.1811366081237793 2.868058443069458 1.1283224821090698 4456788 0 -1
3.5212209224700928 1.3376961946487427 -0.2603820860385895 4456788 0 -1
-3.0148749351501465 2.225416421890259 -0.4629015028476715 4456788 0 -1
-3.0119082927703857 2.223226547241211 -0.4918328523635864 4456788 0 -1
-3.175355911254883 1.899346113204956 0.7522149682044983 3432845 0 -1
-1.280977487564087 3.4010329246520996 1.1380493640899658 4456788 0 -1
-3.1553845405578613 1.8874002695083618 -0.9921455979347229 4456788 0 -1
-2.8786144256591797 2.4725754261016846 -0.320988267660141 4456788 0 -1
-2.783132553100586 2.447629928588867 0.8754225969314575 4456788 0 -1
-2.9830405712127686 2.2614328861236572 0.7003380656242371 4456788 0 -1
-2.964128255844116 2.2470955848693848 0.8170610666275024 4456788 0 -1
3.554927110671997 1.3505010604858398 -0.2042652666568756 4456788 0 -1
-3.2643494606018066 2.018521547317505 -0.14715079963207245 4456788 0 -1
-3.08980393409729 2.2807250022888184 0.05886032059788704 4456788 0 -1
-2.859628677368164 2.4562675952911377 0.7357540130615234 4456788 0 -1
3.5819318294525146 1.360759973526001 -0.2648714482784271 4456788 0 -1
-2.904665470123291 2.4357776641845703 0.6180333495140076 4456788 0 -1
-2.904665470123291 2.4357776641845703 0.6180333495140076 4456788 0 -1
-2.8840208053588867 2.4184656143188477 -0.7651841640472412 4456788 0 -1
-2.9032180309295654 2.493708610534668 0.32373178005218506 4456788 0 -1
-2.9093918800354004 2.499011516571045 0.20601113140583038 4456788 0 -1
-2.8089921474456787 2.5868630409240723 0.41202226281166077 2199437 0 -1
-2.871506690979004 2.4079718589782715 -0.9794257879257202 4456788 0 -1
-2.9508302211761475 2.4744904041290283 0.4155139625072479 4456788 0 -1
-2.9689877033233643 2.4295806884765625 0.5342322587966919 4456788 0 -1
-2.957395553588867 2.4799959659576416 0.32647526264190674 4456788 0 -1
-2.9508302211761475 2.4744904041290283 0.4155139625072479 4456788 0 -1
-2.9455676078796387 2.4700772762298584 0.4748730957508087 4456788 0 -1
-2.953195571899414 2.476473808288574 0.38583439588546753 4456788 0 -1
-2.9777705669403076 2.436768054962158 0.4451935291290283 4456788 0 -1
-2.9455676078796387 2.4700772762298584 0.4748730957508087 4456788 0 -1
-2.993321418762207 2.449493408203125 0.20775698125362396 4725613 0 -1
-2.9482877254486084 2.472358226776123 0.4451935291290283 4045940 0 -1
-2.992809772491455 2.5096933841705322 -0.02992897666990757 4456788 0 -1
-2.987269401550293 2.50504732131958 0.23943181335926056 4456788 0 -1
-2.9840986728668213 2.5023884773254395 0.2992897629737854 4456788 0 -1
-3.0077922344207764 2.4613354206085205 0.38907670974731445 4456788 0 -1
-3.0053834915161133 2.459364175796509 0.41900569200515747 4456788 0 -1
-3.0077922344207764 2.4613354206085205 0.38907670974731445 4456788 0 -1
-3.0053834915161133 2.459364175796509 0.41900569200515747 4456788 0 -1
-3.0053834915161133 2.459364175796509 0.41900569200515747 4456788 0 -1
-3.000023365020752 2.4549779891967773 0.4788636267185211 4456788 0 -1
-3.002794027328491 2.457245111465454 0.4489346444606781 4456788 0 -1
-3.002794027328491 2.457245111465454 0.4489346444606781 4456788 0 -1
-3.000023365020752 2.4549779891967773 0.4788636267185211 4456788 0 -1
-3.0053834915161133 2.459364175796509 0.41900569200515747 4657508 0 -1
-3.0120701789855957 2.4648358821868896 0.3292187452316284 4725613 0 -1
-3.035139799118042 2.422545909881592 0.41900569200515747 4045940 0 -1
-3.0328571796417236 2.481846570968628 0.392318993806839 4456788 0 -1
-2.9978389739990234 2.5139105319976807 0.45267578959465027 4456788 0 -1
-3.035104513168335 2.4836854934692383 0.36214062571525574 4456788 0 -1
-3.037170648574829 2.4853761196136475 0.3319622278213501 4456788 0 -1
-3.035104513168335 2.4836854934692383 0.36214062571525574 4456788 0 -1
-2.9978389739990234 2.5139105319976807 0.45267578959465027 4456788 0 -1
-3.0004241466522217 2.516078472137451 0.42249739170074463 4456788 0 -1
-3.0004241466522217 2.516078472137451 0.42249739170074463 4456788 0 -1
-3.002829074859619 2.5180952548980713 0.392318993806839 4456788 0 -1
-2.9978389739990234 2.5139105319976807 0.45267578959465027 4456788 0 -1
-2.9978389739990234 2.5139105319976807 0.45267578959465027 4523353 0 -1
-3.0278172492980957 2.47772216796875 0.45267578959465027 4657508 0 -1
-2.960627794265747 2.4227397441864014 1.0649727582931519 4456788 0 -1
-2.8374640941619873 2.613083600997925 0.9432615637779236 4456788 0 -1
-2.9621620178222656 2.6050777435302734 0.45641690492630005 4456788 0 -1
-3.0962460041046143 2.4713189601898193 0.27385014295578003 4456788 0 -1
-2.967092752456665 2.6094141006469727 0.3955613076686859 4456788 0 -1
-3.1021769046783447 2.4760525226593018 0.12171117216348648 4456788 0 -1
-3.101356267929077 2.4753975868225098 0.15213896334171295 4456788 0 -1
-3.130748748779297 2.436028003692627 0.18256676197052002 4456788 0 -1
-3.122910261154175 2.429928779602051 0.33470574021339417 4456788 0 -1
-3.156956911087036 2.393278121948242 0.27385014295578003 4456788 0 -1
-2.9923882484436035 2.570301055908203 0.45641690492630005 4456788 0 -1
-3.0658907890319824 2.508878469467163 0.27385014295578003 4456788 0 -1
-3.12078595161438 2.4282758235931396 0.36513352394104004 4523353 0 -1
-2.9995903968811035 2.5764870643615723 0.36513352394104004 4523353 0 -1
-3.004953384399414 2.6427104473114014 0.12270880490541458 4456788 0 -1
-2.362075090408325 3.2323954105377197 0.030677201226353645 4456788 0 -1
-2.0799167156219482 3.4071333408355713 0.30677202343940735 4456788 0 -1
-3.0277445316314697 2.5389885902404785 -0.6442212462425232 4456788 0 -1
-2.3313632011413574 3.1903676986694336 -0.6442212462425232 4456788 0 -1
-3.1593806743621826 2.458306312561035 0.06135440245270729 4456788 0 -1
-3.0060126781463623 2.6436421871185303 -0.06135440245270729 4456788 0 -1
-3.1564106941223145 2.4559953212738037 0.18406321108341217 4456788 0 -1
-3.019517660140991 2.5936036109924316 0.42948082089424133 4456788 0 -1
-3.2380077838897705 2.325620174407959 -0.36812642216682434 4456788 0 -1
-2.8095293045043945 2.5288712978363037 1.3191196918487549 4456788 0 -1
-3.244041919708252 2.329953908920288 -0.27609482407569885 4456788 0 -1
-2.9956676959991455 2.6345443725585938 0.33744922280311584 4456788 0 -1
-3.2116363048553467 2.370654821395874 -0.30677202343940735 4456788 0 -1
-2.9864420890808105 2.6264307498931885 0.46015802025794983 4456788 0 -1
-2.331467390060425 3.254686117172241 0 4536450 0 -1
-2.3313989639282227 3.2545905113220215 0.030677201226353645 4471684 0 -1
-3.0527329444885254 2.622133731842041 -0.3092660903930664 4456788 0 -1
-3.0597105026245117 2.5657944679260254 -0.5876055955886841 4456788 0 -1
-3.239563226699829 2.3912689685821533 -0.2783394753932953 4456788 0 -1
-2.3501462936401367 3.280761480331421 0.06185321882367134 4536450 0 -1
-2.350353240966797 3.281050443649292 0.03092660941183567 4471684 0 -1
-2.543478488922119 3.086275339126587 -0.7482244372367859 4456788 0 -1
-3.144245147705078 2.5729973316192627 0.21823212504386902 4536450 0 -1
2.6540114879608154 3.631897449493408 0.48534825444221497 4456788 5 -1
2.68735671043396 3.6775288581848145 0.1396685540676117 4456788 5 -1
2.677229881286621 3.6636710166931152 0.41900569200515747 4456788 5 -1
2.5990846157073975 3.486539363861084 -1.3617684841156006 4456788 0 -1
2.6383893489837646 3.6831436157226562 0.4888399541378021 4456788 5 -1
2.7503442764282227 3.6165311336517334 0.34917140007019043 4456788 5 -1
2.8252978324890137 3.5692312717437744 0.20950284600257874 4456788 5 -1
2.706552028656006 3.703796863555908 -0.1406661868095398 4456788 5 -1
2.7400903701782227 3.6756913661956787 0.2109992951154709 4456788 5 -1
2.772932767868042 3.646233320236206 0.2813323736190796 4456788 5 -1
2.7364604473114014 3.6708221435546875 0.31649893522262573 4456788 5 -1
2.9166805744171143 3.539121389389038 -0.17583273351192474 4456788 5 -1
2.901980400085449 3.5212841033935547 0.49233168363571167 4456788 5 -1
2.9180521965026855 3.540785789489746 0.10549964755773544 4456788 5 -1
2.882894992828369 3.5694689750671387 0.10549964755773544 4456788 5 -1
2.8823020458221436 3.568734884262085 0.1406661868095398 4456788 5 -1
2.8782339096069336 3.5636980533599854 0.2813323736190796 4456788 5 -1
2.8833181858062744 3.569993019104004 0.0703330934047699 4456788 5 -1
2.881539821624756 3.567790985107422 -0.17583273351192474 4456788 5 -1
2.9803686141967773 3.47232723236084 -0.3516654670238495 4657508 5 -1
2.9064583778381348 3.5267179012298584 0.4219985902309418 4729209 5 -1
2.9536430835723877 3.5120317935943604 0.0703330934047699 4341894 5 -1
2.9888055324554443 3.482156991958618 -0.0703330934047699 4017546 5 -1
2.7768521308898926 3.6513869762420654 -0.1406661868095398 3692940 5 -1
2.978519916534424 3.4701733589172363 0.38683202862739563 3692940 5 -1
2.9102423191070557 3.531309127807617 0.3516654670238495 3432845 5 -1
2.9157371520996094 3.5379765033721924 -0.2109992951154709 2070922 5 -1
2.1802618503570557 4.038383960723877 0.03516654670238495 2072968 0 -1
3.210916042327881 3.230595588684082 0.5626647472381592 2072968 5 -1
2.9187378883361816 3.5416176319122314 -0.03516654670238495 2139270 5 -1
2.457029104232788 3.8661587238311768 0.2813323736190796 6933851 5 -1
2.3828158378601074 3.903315544128418 0.38683202862739563 12640037 0 -1
3.083643913269043 3.3771026134490967 0.38683202862739563 12640037 5 -1
2.7250266075134277 3.7290782928466797 0.17707978188991547 4456788 5 -1
2.7526144981384277 3.6924917697906494 0.3895755112171173 4456788 5 -1
2.793833017349243 3.6737160682678223 0.24791169166564941 4456788 5 -1
2.7558679580688477 3.6968562602996826 0.31874361634254456 4456788 5 -1
2.865659236907959 3.620220422744751 -0.21249572932720184 4456788 5 -1
2.865659236907959 3.620220422744751 -0.21249572932720184 4456788 5 -1
2.930882215499878 3.556353807449341 0.35415956377983093 4456788 5 -1
2.974154233932495 3.5364205837249756 0.10624786466360092 4456788 5 -1
2.937366247177124 3.5642213821411133 0.17707978188991547 4456788 5 -1
2.9391791820526123 3.5664212703704834 0.07083190977573395 4456788 5 -1
2.938143253326416 3.56516432762146 0.1416638195514679 4456788 5 -1
2.9391791820526123 3.5664212703704834 0.07083190977573395 4456788 5 -1
2.937366247177124 3.5642213821411133 0.17707978188991547 4456788 5 -1
2.974591016769409 3.536939859390259 0.07083190977573395 4456788 5 -1
3.010267972946167 3.507161855697632 -0.035415954887866974 4456788 5 -1
2.938143253326416 3.56516432762146 0.1416638195514679 4456788 5 -1
3.065863609313965 3.4280691146850586 -0.46040743589401245 4456788 5 -1
3.0306236743927 3.4592623710632324 -0.46040743589401245 4657508 5 -1
3.032869338989258 3.4618256092071533 -0.4249914586544037 4725613 5 -1
3.0681352615356445 3.4306092262268066 -0.4249914586544037 4729209 5 -1
2.9980998039245605 3.422138214111328 -0.814566969871521 3692940 5 -1
2.8986470699310303 3.588972330093384 -0.2833276391029358 3432845 5 -1
2.8986470699310303 3.588972330093384 -0.2833276391029358 3432845 5 -1
2.721900224685669 3.7248001098632812 -0.2833276391029358 3107982 5 -1
3.0810978412628174 3.4451029300689697 0.035415954887866974 3107982 5 -1
2.9391791820526123 3.5664212703704834 -0.07083190977573395 2523534 5 -1
3.1133086681365967 3.409590482711792 0.21249572932720184 2523534 5 -1
2.9364161491394043 3.5630686283111572 -0.21249572932720184 2070922 5 -1
2.9394381046295166 3.5667355060577393 -0.035415954887866974 2139270 5 -1
2.7611467838287354 3.703937292098999 -0.1416638195514679 7589974 5 -1
2.778956890106201 3.7278287410736084 0.213992178440094 4456788 5 -1
2.7719991207122803 3.7184953689575195 0.392318993806839 4456788 5 -1
2.7719991207122803 3.7184953689575195 0.392318993806839 4456788 5 -1
2.8502120971679688 3.673635721206665 0.213992178440094 4456788 5 -1
2.9936909675598145 3.5596508979797363 0.178326815366745 4456788 5 -1
2.958051919937134 3.5893216133117676 0.178326815366745 4456788 5 -1
2.9594430923461914 3.5910096168518066 0.106996089220047 4456788 5 -1
2.9598774909973145 3.5915369987487793 0.071330726146698 4456788 5 -1
2.958834409713745 3.590271234512329 0.142661452293396 4456788 5 -1
2.995802640914917 3.562161684036255 0.035665363073349 4456788 5 -1
3.061453104019165 3.4944522380828857 -0.285322904586792 4456788 5 -1
3.0657804012298584 3.4993913173675537 -0.142661452293396 4456788 5 -1
3.079479455947876 3.443293571472168 -0.570645809173584 4456788 5 -1
3.079479455947876 3.443293571472168 -0.570645809173584 4657508 5 -1
3.054227590560913 3.4862048625946045 -0.427984356880188 4725613 5 -1
3.062452793121338 3.42425537109375 -0.7489726543426514 3692940 5 -1
2.9594430923461914 3.5910096168518066 0.106996089220047 2977934 5 -1
2.9598774909973145 3.5915369987487793 0.071330726146698 2523534 5 -1
2.7719991207122803 3.7184953689575195 0.392318993806839 2139270 5 -1
2.7778937816619873 3.726402759552002 -0.2496575564146042 7589974 5 -1
2.680211067199707 3.8167591094970703 0.4668920338153839 4456788 5 -1
2.6757569313049316 3.8104162216186523 0.5387215614318848 4456788 5 -1
2.791383743286133 3.7444987297058105 0.39506250619888306 4456788 5 -1
2.8541407585144043 3.678699254989624 0.5387215614318848 4456788 5 -1
2.864734649658203 3.6923537254333496 0.35914772748947144 4456788 5 -1
2.898744583129883 3.662017822265625 0.39506250619888306 4456788 5 -1
2.8677785396575928 3.696276903152466 0.2873181700706482 4456788 5 -1
2.9787375926971436 3.614421844482422 0.17957386374473572 4456788 5 -1
2.941897392272949 3.6425230503082275 0.21548862755298615 4456788 5 -1
2.9801385402679443 3.616121530532837 0.10774431377649307 4456788 5 -1
3.016840934753418 3.587177276611328 0 4456788 5 -1
3.08721923828125 3.523862600326538 -0.1436590850353241 4456788 5 -1
3.085404396057129 3.5217912197113037 -0.21548862755298615 4456788 5 -1
3.1010143756866455 3.467372417449951 -0.5746363401412964 4657508 5 -1
3.0733087062835693 3.5079843997955322 -0.4668920338153839 4725613 5 -1
3.1171464920043945 3.485410690307617 -0.3232329487800598 4471684 5 -1
3.0682013034820557 3.50215482711792 -0.5387215614318848 3887499 5 -1
3.091294527053833 3.4565045833587646 -0.6823806762695312 3757452 5 -1
2.9808385372161865 3.616971254348755 0.035914771258831024 2977934 5 -1
2.785187005996704 3.7361862659454346 -0.5028068423271179 7589974 5 -1
2.7403972148895264 3.825544834136963 0.3616417944431305 4456788 5 -1
2.7368342876434326 3.820571184158325 0.4339701533317566 4456788 5 -1
2.7008233070373535 3.8461122512817383 0.4339701533317566 4456788 5 -1
2.9223248958587646 3.6918067932128906 0.32547762989997864 4456788 5 -1
2.880878210067749 3.7131612300872803 0.4339701533317566 4456788 5 -1
2.9584028720855713 3.662959575653076 0.32547762989997864 4456788 5 -1
2.998453140258789 3.6383447647094727 0.2169850766658783 4456788 5 -1
3.0002167224884033 3.6404848098754883 0.1446567177772522 4456788 5 -1
3.1078362464904785 3.5473954677581787 0.18082089722156525 4456788 5 -1
3.1454522609710693 3.5170605182647705 -0.10849253833293915 4456788 5 -1
3.1100282669067383 3.5498974323272705 -0.03616417944431305 4456788 5 -1
3.102715253829956 3.5415501594543457 -0.32547762989997864 4456788 5 -1
3.119476556777954 3.48801589012146 -0.6147910952568054 4657508 5 -1
2.779405117034912 3.8034932613372803 -0.2893134355545044 4471684 5 -1
3.1748714447021484 3.4770119190216064 0.32547762989997864 4471684 5 -1
3.0015387535095215 3.6420888900756836 -0.03616417944431305 3562893 5 -1
3.0970380306243896 3.4629263877868652 -0.8317761421203613 3562893 5 -1
2.7764551639556885 3.7994561195373535 -0.3616417944431305 4045940 5 -1
2.7608442306518555 3.854088544845581 0.32772231101989746 4456788 5 -1
2.7152597904205322 3.8666703701019287 0.5097902417182922 4456788 5 -1
2.7213008403778076 3.8752732276916504 0.4005494713783264 4456788 5 -1
2.7998101711273193 3.831416606903076 0.2548951208591461 4456788 5 -1
2.797171115875244 3.827805280685425 0.32772231101989746 4456788 5 -1
2.831909656524658 3.7988622188568115 0.36413589119911194 4456788 5 -1
2.830152988433838 3.7965056896209717 0.4005494713783264 4456788 5 -1
2.8644871711730957 3.7666215896606445 0.4369630515575409 4456788 5 -1
2.9061520099639893 3.7457363605499268 0.32772231101989746 4456788 5 -1
2.9061520099639893 3.7457363605499268 0.32772231101989746 4456788 5 -1
2.939005136489868 3.712879180908203 0.4005494713783264 4456788 5 -1
2.9816160202026367 3.6917009353637695 0.2548951208591461 4456788 5 -1
3.0543384552001953 3.6317636966705322 0.2548951208591461 4456788 5 -1
3.122361898422241 3.5639755725860596 0.36413589119911194 4456788 5 -1
3.12042498588562 3.56176495552063 0.4005494713783264 4456788 5 -1
3.16788911819458 3.5421481132507324 0.036413587629795074 4456788 5 -1
3.1307411193847656 3.573539972305298 0.10924076288938522 4456788 5 -1
3.165656328201294 3.539651393890381 0.18206794559955597 4456788 5 -1
3.0151326656341553 3.658583641052246 -0.32772231101989746 4657508 5 -1
3.1377053260803223 3.5083982944488525 -0.6554446220397949 4657508 5 -1
1.99898099899292 4.301496982574463 -0.2913087010383606 3562893 0 -1
2.9855635166168213 3.6965885162353516 -0.07282717525959015 3562893 5 -1
2.7399399280548096 3.9018161296844482 0.4032929539680481 4456788 5 -1
2.7338573932647705 3.8931543827056885 0.5132819414138794 4456788 5 -1
2.741640567779541 3.904237985610962 0.366629958152771 4456788 5 -1
2.8163299560546875 3.854022979736328 0.3299669623374939 4456788 5 -1
2.7091562747955322 3.935567855834961 0.2566409707069397 4456788 5 -1
2.8495376110076904 3.822509288787842 0.4032929539680481 4456788 5 -1
2.8189868927001953 3.857659101486206 0.2566409707069397 4456788 5 -1
2.852905511856079 3.8270273208618164 0.3299669623374939 4456788 5 -1
2.88948130607605 3.799487590789795 0.3299669623374939 4456788 5 -1
2.964118003845215 3.7446045875549316 0.2933039665222168 4456788 5 -1
2.9244167804718018 3.769277811050415 0.366629958152771 4456788 5 -1
2.905008316040039 3.744262218475342 0.6599339246749878 4456788 5 -1
2.9591352939605713 3.738309860229492 0.4032929539680481 4456788 5 -1
2.92061448097229 3.7643771171569824 0.4399559497833252 4456788 5 -1
3.035618543624878 3.6095049381256104 0.8065859079360962 4456788 5 -1
3.004953384399414 3.7205960750579834 0.1466519832611084 4456788 5 -1
3.0429394245147705 3.692324638366699 0.0366629958152771 4456788 5 -1
3.1437480449676514 3.5883865356445312 0.366629958152771 4456788 5 -1
3.0793299674987793 3.661479949951172 0.0733259916305542 4456788 5 -1
3.2262489795684814 3.5332789421081543 -0.0366629958152771 4456788 5 -1
3.0055713653564453 3.7213611602783203 -0.1099889874458313 4523353 5 -1
2.970853567123413 3.678375244140625 -0.733259916305542 3757452 5 -1
3.1052653789520264 3.61784029006958 0.4032929539680481 3757452 5 -1
3.185089111328125 3.56138014793396 0.2566409707069397 2458766 5 -1
2.8669705390930176 3.8458945751190186 0.4429488480091095 4456788 5 -1
2.8338990211486816 3.878065586090088 0.36912405490875244 4456788 5 -1
2.7199463844299316 3.951242446899414 0.4429488480091095 4456788 5 -1
2.723487377166748 3.9563863277435303 0.36912405490875244 4456788 5 -1
2.8723132610321045 3.8530614376068115 0.3322116434574127 4456788 5 -1
2.8369100093841553 3.8821861743927 0.295299232006073 4456788 5 -1
2.8354885578155518 3.8802409172058105 0.3322116434574127 4456788 5 -1
2.903726577758789 3.8182191848754883 0.4429488480091095 4456788 5 -1
2.9856009483337402 3.7717440128326416 0.2583868205547333 4456788 5 -1
2.989553689956665 3.776737689971924 0.07382480800151825 4456788 5 -1
3.026728391647339 3.7475569248199463 -0.036912404000759125 4456788 5 -1
3.062920093536377 3.716569423675537 -0.11073721200227737 4456788 5 -1
3.050750732421875 3.701802968978882 -0.4429488480091095 4456788 5 -1
3.0564358234405518 3.7087013721466064 -0.3322116434574127 4456788 5 -1
3.0460503101348877 3.6960995197296143 -0.5167736411094666 4456788 5 -1
3.017918586730957 3.7366490364074707 -0.36912405490875244 4456788 5 -1
3.0236167907714844 3.743704080581665 -0.22147442400455475 4456788 5 -1
3.025395154953003 3.745906114578247 -0.1476496160030365 4456788 5 -1
2.903726577758789 3.8182191848754883 -0.4429488480091095 4456788 5 -1
3.0528273582458496 3.7043230533599854 -0.40603646636009216 4456788 5 -1
2.8931703567504883 3.881040334701538 0.2972944974899292 4456788 5 -1
2.7383244037628174 3.977940082550049 0.4459417462348938 4456788 5 -1
2.7383244037628174 3.977940082550049 0.4459417462348938 4456788 5 -1
2.8931703567504883 3.881040334701538 0.2972944974899292 4456788 5 -1
2.9287939071655273 3.8511812686920166 0.33445632457733154 4456788 5 -1
2.9673542976379395 3.824620008468628 0.2972944974899292 4456788 5 -1
2.968665599822998 3.826310157775879 0.26013270020484924 4456788 5 -1
3.07536244392395 3.7316670417785645 -0.3716181218624115 4456788 5 -1
3.07536244392395 3.7316670417785645 -0.3716181218624115 4456788 5 -1
3.07708740234375 3.733760118484497 -0.33445632457733154 4456788 5 -1
3.0734546184539795 3.7293522357940674 -0.40877994894981384 4456788 5 -1
3.0734546184539795 3.7293522357940674 -0.40877994894981384 4456788 5 -1
3.0400140285491943 3.7640066146850586 -0.33445632457733154 4456788 5 -1
3.0400140285491943 3.7640066146850586 -0.33445632457733154 4456788 5 -1
3.0321128368377686 3.754223585128784 -0.48310357332229614 4456788 5 -1
3.027073860168457 3.7479848861694336 -0.557427167892456 4456788 5 -1
3.1182916164398193 3.7078073024749756 0.2229708731174469 4341894 5 -1
3.0201494693756104 3.591111183166504 1.2263398170471191 2523534 0 -1
3.08361554145813 3.7416813373565674 -0.11148543655872345 6343264 5 -1
2.7958571910858154 3.981445074081421 0.4115234315395355 4456788 5 -1
2.9822475910186768 3.843816041946411 0.4115234315395355 4456788 5 -1
3.091977119445801 3.7518274784088135 -0.4489346444606781 4456788 5 -1
3.0960023403167725 3.756711721420288 -0.37411221861839294 4456788 5 -1
3.0940818786621094 3.7543814182281494 -0.4115234315395355 4456788 5 -1
3.0960023403167725 3.756711721420288 -0.37411221861839294 4456788 5 -1
3.0568037033081055 3.784795045852661 -0.4115234315395355 4456788 5 -1
3.0940818786621094 3.7543814182281494 -0.4115234315395355 4456788 5 -1
3.058701276779175 3.787144184112549 -0.37411221861839294 4456788 5 -1
