VERSION .7
FIELDS x y z rgb label object
SIZE 4 4 4 4 4 4
TYPE F F F I I I
COUNT 1 1 1 1 1 1
WIDTH 682
HEIGHT 1
POINTS 682
VIEWPOINT 0 0 0 1 0 0 0
DATA ascii
0.10558449476957321 1.719199776649475 -0.35016903281211853 4456788 0 -1
-0.39419594407081604 1.612028956413269 -0.579125702381134 4657508 0 -1
-0.3157059848308563 1.6874643564224243 -0.37710511684417725 4657508 0 -1
-0.026060733944177628 1.700353980064392 -0.44444531202316284 4657508 0 -1
0.10634029656648636 1.7315062284469604 -0.28282883763313293 4657508 0 -1
1.452345609664917 0.839175283908844 0.5252535343170166 4725613 0 -1
-0.11810772120952606 1.7085760831832886 -0.5212630033493042 4456788 0 -1
-0.03989608958363533 1.7351139783859253 0.4389583170413971 4456788 0 -1
0.026597393676638603 1.7353687286376953 -0.4389583170413971 4456788 0 -1
0.10718412697315216 1.745246171951294 0.38408854603767395 4456788 0 -1
0.1083095595240593 1.7635712623596191 -0.28806641697883606 4456788 0 -1
0.2186981588602066 1.770395278930664 -0.15089192986488342 4456788 0 -1
0.46031561493873596 1.7058792114257812 -0.28806641697883606 4456788 0 -1
0.5318933725357056 1.6985597610473633 -0.19204427301883698 4456788 0 -1
0.6307061314582825 1.6745433807373047 -0.05486978963017464 4456788 0 -1
0.8287672400474548 1.567505955696106 -0.2469140589237213 4456788 0 -1
0.9032533168792725 1.4501123428344727 0.5349804759025574 4456788 0 -1
-0.2316511869430542 1.7632062435150146 -0.20576171576976776 4657508 0 -1
0.09510444104671478 1.7705607414245605 -0.2469140589237213 4657508 0 -1
0.17799146473407745 1.7779687643051147 -0.10973957926034927 4657508 0 -1
-0.22921951115131378 1.7446976900100708 -0.3292187452316284 4724328 0 -1
-0.27283233404159546 1.759296178817749 -0.39107197523117065 4456788 0 -1
0.20934902131557465 1.8093628883361816 0.06983427703380585 4456788 0 -1
-0.09230872988700867 1.718513011932373 0.600574791431427 4456788 0 -1
0.09703046083450317 1.806417465209961 -0.22346968948841095 4456788 0 -1
-0.23434250056743622 1.783691167831421 -0.2933039665222168 4724328 0 -1
-0.11152472347021103 1.815922737121582 -0.11173484474420547 4724328 0 -1
-0.027913203462958336 1.8212199211120605 0.06983427703380585 4341894 0 -1
-0.8077027201652527 2.508439540863037 0.08080823719501495 4456788 0 -1
2.5353550910949707 0.5999228358268738 -0.40404120087623596 4456788 0 -1
-1.4573301076889038 2.1596579551696777 -0.40404120087623596 4456788 0 -1
-0.16104136407375336 2.6221871376037598 0.22222265601158142 4456788 0 -1
-2.0453245639801025 1.5914620161056519 -0.4848494231700897 4456788 0 -1
-1.3924682140350342 2.235513925552368 -0.12121235579252243 4456788 0 -1
-1.54069185256958 2.1083688735961914 -0.3636370599269867 4456788 0 -1
-1.530842661857605 2.137028455734253 0.20202060043811798 4456788 0 -1
-1.4339672327041626 2.2116165161132812 -0.060606177896261215 4456788 0 -1
-1.6207293272018433 2.0067129135131836 -0.5454556345939636 4456788 0 -1
-1.5037245750427246 2.1413815021514893 -0.3232329487800598 4456788 0 -1
-1.3130953311920166 2.286165952682495 -0.02020205929875374 4456788 0 -1
-0.9090659618377686 2.4747471809387207 -0.02020205929875374 4456788 0 -1
-0.701738178730011 2.5207669734954834 0.3232329487800598 4456788 0 -1
-1.4934712648391724 2.1267802715301514 -0.44444531202316284 4456788 0 -1
-1.411895751953125 2.1775755882263184 -0.4646473824977875 4456788 0 -1
-0.28215551376342773 2.6150550842285156 0.18181852996349335 4456788 0 -1
-1.3055564165115356 2.273040294647217 0.28282883763313293 4590430 0 -1
-1.517220377922058 2.1180121898651123 -0.40404120087623596 4657508 0 -1
-1.517220377922058 2.1180121898651123 -0.40404120087623596 4657508 0 -1
-0.9077840447425842 2.471257209777832 -0.14141441881656647 4657508 0 -1
-1.551096796989441 2.080717086791992 -0.4646473824977875 4724328 0 -1
-1.3717625141143799 2.247098445892334 -0.14141441881656647 4724328 0 -1
-0.8074890971183777 2.5077760219573975 0.10101030021905899 4724328 0 -1
-1.2805750370025635 2.275758743286133 -0.3636370599269867 4729209 0 -1
-0.685234785079956 2.53940486907959 -0.18181852996349335 4729209 0 -1
-2.067490339279175 1.6087092161178589 -0.5112866759300232 4456788 0 -1
-1.9706454277038574 1.7737878561019897 -0.30677202343940735 4456788 0 -1
-1.4485973119735718 2.234180450439453 -0.18406321108341217 4456788 0 -1
-1.968827247619629 1.772151231765747 -0.3272234797477722 4456788 0 -1
-1.5058815479278564 2.1875810623168945 -0.2658690810203552 4456788 0 -1
-1.2670600414276123 2.3469083309173584 0.10225734114646912 4456788 0 -1
-1.859115719795227 1.9111534357070923 -0.12270880490541458 4456788 0 -1
-1.4295419454574585 2.2493979930877686 -0.14316026866436005 4456788 0 -1
-1.2451934814453125 2.3551220893859863 0.1636117398738861 4456788 0 -1
-1.4876445531845093 2.2045814990997314 -0.2249661386013031 4456788 0 -1
-1.246220350265503 2.3570644855499268 0.12270880490541458 4456788 0 -1
-1.5946121215820312 2.096815347671509 -0.42948082089424133 4456788 0 -1
-1.3293063640594482 2.314390182495117 -0.020451467484235764 4456788 0 -1
-1.6440722942352295 2.0769755840301514 -0.3272234797477722 4456788 0 -1
-1.622177243232727 2.090822696685791 -0.3476749360561371 4456788 0 -1
-1.6306402683258057 2.060006618499756 -0.47038376331329346 4456788 0 -1
-1.4477852582931519 2.2329280376434326 -0.20451468229293823 4456788 0 -1
-1.308740258216858 2.3258121013641357 0.04090293496847153 4456788 0 -1
-1.5487805604934692 2.16206955909729 -0.2249661386013031 4456788 0 -1
-1.5477269887924194 2.1605987548828125 -0.24541760981082916 4456788 0 -1
-1.5501147508621216 2.1212635040283203 -0.47038376331329346 4456788 0 -1
-1.5513885021209717 2.165710210800171 -0.1636117398738861 4590430 0 -1
-1.568091869354248 2.145864486694336 -0.24541760981082916 4657508 0 -1
-1.572385549545288 2.1092748641967773 -0.4499322772026062 4724328 0 -1
-1.4505188465118408 2.2371439933776855 -0.12270880490541458 4724328 0 -1
-1.4718139171600342 2.2250726222991943 -0.08180586993694305 4600703 0 -1
-1.8182560205459595 1.9500676393508911 -0.12270880490541458 2328718 0 -1
-1.6972724199295044 2.0594828128814697 0.04090293496847153 2328718 0 -1
-1.288291096687317 2.3372011184692383 -0.04090293496847153 2328718 0 -1
-1.5916728973388672 2.178133964538574 -0.14490613341331482 4456788 0 -1
-1.6053508520126343 2.153496265411377 -0.28981226682662964 4456788 0 -1
-1.5598618984222412 2.1775388717651367 -0.3519148826599121 4456788 0 -1
-1.6144787073135376 2.165740728378296 0.04140175133943558 4456788 0 -1
-1.6123440265655518 2.162877082824707 0.14490613341331482 4456788 0 -1
-1.5314600467681885 2.224738597869873 -0.062102627009153366 4456788 0 -1
-1.5690186023712158 2.147132635116577 -0.47612014412879944 4456788 0 -1
-1.5676681995391846 2.188436269760132 -0.22770963609218597 4657508 0 -1
-1.5565043687820435 2.172851800918579 -0.3933166265487671 4724328 0 -1
-1.7388224601745605 2.0675482749938965 0.02070087566971779 3562893 0 -1
-1.5408536195755005 2.1942551136016846 0.3312140107154846 3562893 0 -1
-1.5695210695266724 2.1910228729248047 0.1863078773021698 2977934 0 -1
-1.6330150365829468 2.147312879562378 0.14490613341331482 2523534 0 -1
-1.6521275043487549 2.129425525665283 0.1863078773021698 2994813 0 -1
-1.4671342372894287 2.2179980278015137 0.47612014412879944 2994813 0 -1
-1.7302250862121582 2.057325601577759 0.26911139488220215 5424489 0 -1
-1.6310490369796753 2.1879689693450928 -0.1676022708415985 4456788 0 -1
-1.624692440032959 2.1794419288635254 -0.2933039665222168 4456788 0 -1
-1.6546350717544556 2.1757419109344482 0.06285085529088974 4456788 0 -1
-1.6546350717544556 2.1757419109344482 0.06285085529088974 4456788 0 -1
-1.6533223390579224 2.174015760421753 0.12570171058177948 4456788 0 -1
-1.5910526514053345 2.2210805416107178 0.10475142300128937 4456788 0 -1
-1.6302317380905151 2.186872720718384 0.18855255842208862 4456788 0 -1
-1.58792245388031 2.173001766204834 -0.4818565249443054 4456788 0 -1
-1.6649154424667358 2.1459078788757324 0.3142542541027069 4590430 0 -1
-1.5675305128097534 2.2322444915771484 0.18855255842208862 4657508 0 -1
-1.6533223390579224 2.174015760421753 0.12570171058177948 4471684 0 -1
-1.6468408107757568 2.1654927730560303 0.2723536789417267 2718350 0 -1
-1.6468408107757568 2.1654927730560303 0.2723536789417267 6343264 0 -1
-1.6511956453323364 2.2149946689605713 -0.14839784801006317 4456788 0 -1
-1.6747757196426392 2.20222544670105 0 4456788 0 -1
-1.6739888191223145 2.201190710067749 0.08479876816272736 4456788 0 -1
-1.6739888191223145 2.201190710067749 0.08479876816272736 4456788 0 -1
-1.674333095550537 2.201643466949463 0.06359907984733582 4456788 0 -1
-1.652799129486084 2.2171456813812256 0.08479876816272736 4456788 0 -1
-1.608857274055481 2.2459356784820557 0.14839784801006317 4456788 0 -1
-1.6064398288726807 2.242560863494873 0.211996927857399 4456788 0 -1
-1.5199116468429565 2.297786235809326 0.25439631938934326 4456788 0 -1
-1.5711956024169922 2.2374637126922607 -0.423993855714798 4456788 0 -1
-1.5763190984725952 2.200512647628784 0.5723916888237 4523353 0 -1
-1.5881192684173584 2.2169857025146484 -0.46639323234558105 4590430 0 -1
-1.6723648309707642 2.1990554332733154 0.14839784801006317 4471684 0 -1
-1.6831814050674438 2.1694509983062744 0.3391950726509094 6343264 0 -1
-1.7154746055603027 2.211073637008667 0.0643472969532013 4456788 0 -1
-1.60186767578125 2.281142473220825 -0.2573891878128052 4456788 0 -1
-1.7361016273498535 2.1932373046875 0.10724549740552902 4456788 0 -1
-1.7586196660995483 2.1774425506591797 0.04289820045232773 4456788 0 -1
-1.7586196660995483 2.1774425506591797 0.04289820045232773 4456788 0 -1
-1.7588262557983398 2.1776983737945557 0 4456788 0 -1
-1.737173080444336 2.1945908069610596 0.04289820045232773 4456788 0 -1
-1.6940311193466187 2.2275452613830566 0.0643472969532013 4456788 0 -1
-1.6722438335418701 2.243229627609253 0.08579640090465546 4456788 0 -1
-1.6270660161972046 2.2713546752929688 0.1715928018093109 4456788 0 -1
-1.6262507438659668 2.270216464996338 0.19304190576076508 4456788 0 -1
-1.539794921875 2.327845573425293 0.21449099481105804 4456788 0 -1
-1.8426721096038818 2.1032919883728027 -0.1286945939064026 4456788 0 -1
-1.597454309463501 2.2300171852111816 0.5576766133308411 4456788 0 -1
-1.597454309463501 2.2300171852111816 0.5576766133308411 4523353 0 -1
-1.5999428033828735 2.2334911823272705 0.5362275242805481 4590430 0 -1
-1.5999428033828735 2.2334911823272705 0.5362275242805481 4657508 0 -1
-1.6459853649139404 2.2977657318115234 -0.17358806729316711 4456788 0 -1
-1.5329318046569824 2.3642501831054688 -0.28208062052726746 4456788 0 -1
-1.7285269498825073 2.2278966903686523 -0.2603820860385895 4456788 0 -1
-1.6232750415802002 2.2660624980926514 -0.49906569719314575 4456788 0 -1
-1.7575275897979736 2.2203049659729004 0.02169850841164589 4456788 0 -1
-1.7790687084197998 2.202761650085449 0.04339701682329178 4456788 0 -1
-1.7575275897979736 2.2203049659729004 -0.02169850841164589 4456788 0 -1
-1.7573727369308472 2.220109462738037 0.04339701682329178 4456788 0 -1
-1.8007646799087524 2.185060977935791 0.04339701682329178 4456788 0 -1
-1.7137291431427002 2.2534468173980713 0.06509552150964737 4456788 0 -1
-1.621597170829773 2.3092381954193115 0.23868359625339508 4456788 0 -1
-1.5223960876464844 2.3480007648468018 0.4339701533317566 4456788 0 -1
-1.4454108476638794 2.4161195755004883 0.30377912521362305 4456788 0 -1
-1.8647016286849976 2.1284372806549072 -0.10849253833293915 4456788 0 -1
-1.6422903537750244 2.2474019527435303 0.520764172077179 4456788 0 -1
-1.6160292625427246 2.2559475898742676 0.5641612410545349 4523353 0 -1
-1.6134089231491089 2.2522895336151123 0.5858597159385681 4590430 0 -1
-1.6185468435287476 2.2594618797302246 0.5424627065658569 4657508 0 -1
-1.7702500820159912 2.236377477645874 -0.2633749842643738 4456788 0 -1
-1.7777290344238281 2.24582576751709 0.021947916597127914 4456788 0 -1
-1.704837679862976 2.1537411212921143 -0.8120729327201843 4456788 0 -1
-1.6837903261184692 2.1702356338500977 -0.8120729327201843 4456788 0 -1
-1.7764760255813599 2.2442426681518555 0.10973957926034927 4456788 0 -1
-1.8214631080627441 2.210176467895508 0.04389583319425583 4456788 0 -1
-1.7334272861480713 2.279348611831665 0.06584374606609344 4456788 0 -1
-1.451348066329956 2.42604398727417 0.4609062373638153 4456788 0 -1
-1.4494661092758179 2.422898054122925 0.4828541576862335 4456788 0 -1
-1.4579812288284302 2.437131881713867 0.37311458587646484 4456788 0 -1
-1.4838460683822632 2.430703639984131 0.3072708249092102 4456788 0 -1
-1.6412543058395386 2.337230920791626 -0.21947915852069855 4590430 0 -1
-1.4840487241744995 2.382540225982666 0.570645809173584 4471684 0 -1
-1.4765441417694092 2.3704922199249268 0.6364895701408386 4147337 0 -1
-1.9277844429016113 2.1112444400787354 -0.17558333277702332 11197490 0 -1
-1.7977721691131592 2.271146297454834 0.04439464956521988 4456788 0 -1
-1.7953951358795166 2.26814341545105 0.15538127720355988 4456788 0 -1
-1.4897487163543701 2.440372943878174 0.46614381670951843 4456788 0 -1
-1.4678406715393066 2.4536125659942627 0.46614381670951843 4456788 0 -1
-1.4696532487869263 2.4566426277160645 0.4439464807510376 4456788 0 -1
-1.4791605472564697 2.4230282306671143 0.5771304368972778 4456788 0 -1
-1.474268913269043 2.415015459060669 0.6215251088142395 4456788 0 -1
-1.4791605472564697 2.4230282306671143 0.5771304368972778 4456788 0 -1
-1.471680760383606 2.410775661468506 0.643722414970398 4456788 0 -1
-1.637772798538208 2.379178285598755 -0.2219732403755188 4456788 0 -1
-1.868740439414978 2.1772067546844482 0.3995518386363983 4590430 0 -1
-1.6772618293762207 2.3414270877838135 -0.31076255440711975 4590430 0 -1
-1.597456455230713 2.41501784324646 0.08878929913043976 4724328 0 -1
-1.55547297000885 2.399015426635742 0.46614381670951843 4725613 0 -1
-1.4633402824401855 2.3971128463745117 0.7103143930435181 4725613 0 -1
-1.5076425075531006 2.4204185009002686 0.5105384588241577 4471684 0 -1
-1.52266526222229 2.395928382873535 0.5771304368972778 4147337 0 -1
-1.649757742881775 2.3493402004241943 0.5836150646209717 4456788 0 -1
-1.5177770853042603 2.4366888999938965 0.5836150646209717 4456788 0 -1
-1.8697253465652466 2.178354263305664 -0.5836150646209717 4456788 0 -1
-1.4225598573684692 2.4767494201660156 -0.6509552597999573 4456788 0 -1
-1.5133726596832275 2.479071617126465 0.3815944492816925 4456788 0 -1
-1.525660753250122 2.4992008209228516 0.08978693187236786 4456788 0 -1
-1.52637779712677 2.500375509262085 0 4456788 0 -1
-1.4933549165725708 2.4462802410125732 0.6060617566108704 4456788 0 -1
-1.495780348777771 2.4502532482147217 0.5836150646209717 4456788 0 -1
-1.4767749309539795 2.4191203117370605 0.7407422065734863 4456788 0 -1
-1.6129639148712158 2.39029598236084 0.5162748694419861 4456788 0 -1
-1.5235073566436768 2.495673179626465 -0.17957386374473572 4456788 0 -1
-1.5028269290924072 2.5120949745178223 0.11223366111516953 4657508 0 -1
-1.5038869380950928 2.513866901397705 -0.022446732968091965 4724328 0 -1
-1.524763822555542 2.4977316856384277 0.1346803903579712 4725613 0 -1
-1.5471868515014648 2.4839043617248535 0.1346803903579712 4341894 0 -1
-1.5480968952178955 2.485365390777588 0.08978693187236786 4212104 0 -1
-1.548642635345459 2.486241579055786 -0.04489346593618393 4147337 0 -1
-1.5451372861862183 2.480613946914673 -0.20202060043811798 3692940 0 -1
-1.2708346843719482 2.675143003463745 0.04539228230714798 4456788 0 -1
-1.8739614486694336 2.2282354831695557 -0.5447073578834534 4456788 0 -1
-1.9096397161483765 2.1797311305999756 -0.6127958297729492 4456788 0 -1
-1.9096397161483765 2.1797311305999756 -0.6127958297729492 4456788 0 -1
-1.5417057275772095 2.525484085083008 0.13617683947086334 4456788 0 -1
-1.54220449924469 2.526301383972168 0.11348070204257965 4456788 0 -1
-1.5426125526428223 2.5269696712493896 0.09078456461429596 4456788 0 -1
-1.5426125526428223 2.5269696712493896 0.09078456461429596 4456788 0 -1
-1.5285876989364624 2.503995418548584 0.4085305333137512 4456788 0 -1
-1.5433375835418701 2.5281574726104736 0 4725613 0 -1
-1.5659877061843872 2.5140879154205322 -0.02269614115357399 4212104 0 -1
-1.565619945526123 2.5134973526000977 -0.06808841973543167 4147337 0 -1
-1.542929768562317 2.527489423751831 -0.06808841973543167 3887499 0 -1
-1.5659877061843872 2.5140879154205322 0.02269614115357399 3757452 0 -1
-1.565619945526123 2.5134973526000977 -0.06808841973543167 3692940 0 -1
-1.41153883934021 2.5084996223449707 -0.8260397911071777 4456788 0 -1
-1.2992286682128906 2.675985097885132 -0.3441832363605499 4456788 0 -1
-1.6929786205291748 2.4593753814697266 -0.22945548593997955 4456788 0 -1
-1.559885025024414 2.5552639961242676 0.06883664429187775 4456788 0 -1
-1.5580512285232544 2.552260160446167 0.1606188416481018 4456788 0 -1
-1.559564232826233 2.5547385215759277 0.09178219735622406 4456788 0 -1
-1.5115582942962646 2.57853627204895 -0.18356439471244812 4456788 0 -1
-1.554745078086853 2.546844244003296 -0.25240105390548706 4456788 0 -1
-1.5601141452789307 2.5556392669677734 -0.04589109867811203 4725613 0 -1
-1.559564232826233 2.5547385215759277 -0.09178219735622406 4212104 0 -1
-1.582824468612671 2.5411181449890137 -0.06883664429187775 4147337 0 -1
-1.5824990272521973 2.540595769882202 -0.09178219735622406 4017546 0 -1
-1.559885025024414 2.5552639961242676 -0.06883664429187775 3887499 0 -1
-1.5832428932189941 2.5417897701263428 0 3757452 0 -1
-1.5601141452789307 2.5556392669677734 -0.04589109867811203 3692940 0 -1
-1.5815688371658325 2.539102077484131 -0.1376732885837555 3562893 0 -1
-1.7078900337219238 2.481036901473999 -0.3015344440937042 4456788 0 -1
-1.4597371816635132 2.6482362747192383 0.13916973769664764 4456788 0 -1
-1.5207219123840332 2.594168186187744 -0.3479243516921997 4456788 0 -1
-1.5263664722442627 2.603797197341919 -0.2319495677947998 4456788 0 -1
-1.5485321283340454 2.5884947776794434 -0.25514453649520874 4456788 0 -1
-1.576516032218933 2.582507371902466 -0.09277983009815216 4017546 0 -1
-1.600264072418213 2.5691163539886475 0.04638991504907608 3757452 0 -1
-1.6699879169464111 2.524669885635376 0.02319495752453804 3692940 0 -1
-1.5936720371246338 2.558533191680908 -0.2783394753932953 3562893 0 -1
-1.4789667129516602 2.6283280849456787 -0.5157760381698608 4456788 0 -1
-1.4827157258987427 2.634990692138672 -0.4688872992992401 4456788 0 -1
-1.4374420642852783 2.6077888011932373 -0.703330934047699 4456788 0 -1
-1.4450404644012451 2.6215736865997314 -0.6329978704452515 4456788 0 -1
-1.544418215751648 2.6345913410186768 -0.18755492568016052 4600703 0 -1
-1.5461920499801636 2.637617349624634 -0.11722182482481003 4536450 0 -1
-1.5451006889343262 2.635755777359009 -0.16411055624485016 4471684 0 -1
-1.4604132175445557 2.6494626998901367 -0.6397318840026855 4456788 0 -1
-1.6279981136322021 2.4611902236938477 0.9240571856498718 4729209 0 -1
-1.653175950050354 2.499253749847412 0.885897696018219 4729209 0 -1
-1.6409400701522827 2.4807558059692383 0.9577272534370422 4664956 0 -1
-1.649213194847107 2.493263006210327 0.9098408818244934 4600703 0 -1
-1.6366279125213623 2.4742367267608643 0.9816704392433167 4536450 0 -1
-1.6703965663909912 2.525287628173828 0.8951258063316345 4729209 0 -1
-1.7757387161254883 2.6845428943634033 0.8140681982040405 4523353 0 -1
-1.8373531103134155 2.777690887451172 -0.3853355646133423 4456788 0 -1
-1.8491220474243164 2.795482873916626 -0.07706711441278458 4456788 0 -1
-1.8225826025009155 2.8109803199768066 -0.12844519317150116 4456788 0 -1
-1.8417752981185913 2.7843761444091797 -0.3082684576511383 4456788 0 -1
-1.8404115438461304 2.7823145389556885 -0.3339574933052063 4456788 0 -1
-1.8697865009307861 2.770888328552246 -0.2568903863430023 4456788 0 -1
-1.8476550579071045 2.7932651042938232 -0.15413422882556915 4523353 0 -1
-1.809594750404358 2.7357261180877686 0.693604052066803 4590430 0 -1
-1.8404115438461304 2.7823145389556885 -0.3339574933052063 4657508 0 -1
-1.856791377067566 2.807077407836914 -0.36313825845718384 4456788 0 -1
-1.8294249773025513 2.821533441543579 -0.38907670974731445 4456788 0 -1
-1.8930063247680664 2.805298328399658 -0.07781533896923065 4456788 0 -1
-1.8396823406219482 2.837353467941284 -0.1556306779384613 4456788 0 -1
-1.859656572341919 2.8114089965820312 -0.3112613558769226 4456788 0 -1
-1.8609224557876587 2.8133227825164795 -0.285322904586792 4456788 0 -1
-1.8889987468719482 2.7993595600128174 -0.23344601690769196 4456788 0 -1
-1.864879846572876 2.819305419921875 -0.18156912922859192 4523353 0 -1
-1.8208765983581543 2.752781867980957 0.7522149682044983 4590430 0 -1
-2.8511343002319336 1.820285677909851 0.1296922266483307 4657508 0 -1
-1.8879398107528687 2.797790288925171 -0.2593844532966614 4657508 0 -1
-1.8551914691925049 2.8046586513519287 -0.38907670974731445 4724328 0 -1
-2.825847625732422 1.7473723888397217 0.6484611630439758 4341894 0 -1
-1.666569709777832 2.785804271697998 -0.9597225189208984 4341894 0 -1
-1.865593433380127 2.8203842639923096 -0.1556306779384613 3757452 0 -1
-1.7927725315093994 2.656759262084961 1.0894147157669067 2070922 0 -1
-1.9971932172775269 2.7330706119537354 -0.47138139605522156 4456788 0 -1
-1.8799822330474854 2.842137098312378 -0.2618785500526428 4456788 0 -1
-1.881036639213562 2.843731164932251 -0.23569069802761078 4456788 0 -1
-1.8819797039031982 2.8451569080352783 -0.20950284600257874 4523353 0 -1
-1.87881600856781 2.840373992919922 -0.28806641697883606 4590430 0 -1
-1.8746451139450073 2.834068536758423 -0.366629958152771 4724328 0 -1
-1.8746451139450073 2.834068536758423 -0.366629958152771 4724328 0 -1
-1.765601396560669 2.8922500610351562 -0.4451935291290283 4664956 0 -1
-1.727123498916626 2.8870246410369873 -0.602320671081543 4600703 0 -1
-2.0954203605651855 2.810899496078491 0.5437097549438477 4456788 0 -1
-2.044537305831909 2.797858953475952 0.7611936330795288 4456788 0 -1
-2.0811986923217773 2.7918217182159424 0.6796371936798096 4456788 0 -1
-2.0826163291931152 2.7937233448028564 0.823046863079071 4456788 0 -1
-2.0826163291931152 2.7937233448028564 0.823046863079071 4456788 0 -1
-2.0786750316619873 2.7884364128112793 0.8504817485809326 4456788 0 -1
-2.086421012878418 2.7988274097442627 0.7956119775772095 4456788 0 -1
3.5423455238342285 1.3457213640213013 -0.37934979796409607 4726897 0 -1
-2.9913675785064697 2.2677457332611084 0.641976535320282 4728182 0 -1
-2.862398624420166 2.517340660095215 0.4708825647830963 4456788 0 -1
-2.955293655395508 2.41837477684021 0.41202226281166077 4456788 0 -1
-2.994518280029297 2.2701339721679688 -0.794614315032959 4456788 0 -1
-2.3610622882843018 2.9233596324920654 -0.794614315032959 4456788 0 -1
-2.8694369792938232 2.406236171722412 -0.8534746766090393 4590430 0 -1
3.579923629760742 1.3599971532821655 -0.2943015992641449 4726897 0 -1
-3.05475115776062 2.376894474029541 0.14839784801006317 4456788 0 -1
-2.333024501800537 3.067781448364258 0.38583439588546753 4456788 0 -1
-2.9777705669403076 2.436768054962158 0.4451935291290283 4456788 0 -1
-2.9919991493225098 2.448411464691162 0.23743654787540436 4456788 0 -1
-2.7249128818511963 2.624384880065918 0.8310279250144958 4456788 0 -1
-2.9954357147216797 2.451223611831665 0.14839784801006317 4456788 0 -1
-3.3161981105804443 1.9835911989212036 0.26711612939834595 4456788 0 -1
-3.115967273712158 2.2379674911499023 0.5342322587966919 4456788 0 -1
-2.407794713973999 2.9812216758728027 0.5639117956161499 4456788 0 -1
-2.9622273445129395 2.424048662185669 0.5935913920402527 4456788 0 -1
-2.9777705669403076 2.436768054962158 0.4451935291290283 4456788 0 -1
-2.9919991493225098 2.448411464691162 0.23743654787540436 4590430 0 -1
-2.9622273445129395 2.424048662185669 0.5935913920402527 4657508 0 -1
-2.960891008377075 2.482927083969116 0.26711612939834595 4725613 0 -1
-3.6122870445251465 1.3722918033599854 0.26711612939834595 5949540 0 -1
-3.1163547039031982 2.300323247909546 0 5949540 0 -1
-2.8598392009735107 2.574155569076538 0.4451935291290283 5949540 0 -1
-2.8487014770507812 2.6234323978424072 0.5087926387786865 4456788 0 -1
-3.2906408309936523 2.1008851528167725 -0.11971590667963028 4456788 0 -1
-3.3217263221740723 2.0540006160736084 -0.05985795333981514 4456788 0 -1
-3.002794027328491 2.457245111465454 0.4489346444606781 4456788 0 -1
-3.164918899536133 2.273125648498535 0.2693607807159424 4456788 0 -1
-3.0196304321289062 2.471022605895996 0.17957386374473572 4456788 0 -1
-2.7429871559143066 2.6417925357818604 0.8679403066635132 4456788 0 -1
-3.0224716663360596 2.4733476638793945 0.05985795333981514 4456788 0 -1
-3.1188361644744873 2.302155017852783 0.4788636267185211 4456788 0 -1
3.56144380569458 1.6036179065704346 0.02992897666990757 4456788 0 -1
-3.0053834915161133 2.459364175796509 0.41900569200515747 4456788 0 -1
-3.002794027328491 2.457245111465454 0.4489346444606781 4456788 0 -1
-3.0171420574188232 2.4689862728118896 0.23943181335926056 4590430 0 -1
-2.9939370155334473 2.4499974250793457 0.5387215614318848 4657508 0 -1
-3.0156302452087402 2.4677493572235107 0.2693607807159424 4725613 0 -1
-3.1495392322540283 2.0107998847961426 1.1373010873794556 4341894 0 -1
-1.4029765129089355 3.46331787109375 1.1373010873794556 4341894 0 -1
-1.2791845798492432 3.5720083713531494 0.9277982711791992 4341894 0 -1
-3.171633243560791 2.2779481410980225 -0.08978693187236786 5949540 0 -1
-3.6107594966888428 1.5437105894088745 0.30178385972976685 4456788 0 -1
-2.948786973953247 2.5933148860931396 0.30178385972976685 4456788 0 -1
-2.7069320678710938 2.782700777053833 0.6639244556427002 4456788 0 -1
-2.9104113578796387 2.619675874710083 0.42249739170074463 4456788 0 -1
-3.0278172492980957 2.47772216796875 0.45267578959465027 4456788 0 -1
-3.045788288116455 2.248234987258911 -1.0864218473434448 4456788 0 -1
-3.162771463394165 2.334585428237915 0.24142707884311676 4456788 0 -1
-3.0146474838256836 2.528005838394165 0.18107031285762787 4456788 0 -1
-3.155306816101074 2.329075574874878 0.36214062571525574 4456788 0 -1
3.6187474727630615 1.5471256971359253 0.15089192986488342 4456788 0 -1
-3.0278172492980957 2.47772216796875 0.45267578959465027 4456788 0 -1
-3.0220468044281006 2.4730000495910645 0.5130325555801392 4456788 0 -1
-3.0278172492980957 2.47772216796875 0.45267578959465027 4456788 0 -1
-3.035104513168335 2.4836854934692383 0.36214062571525574 4590430 0 -1
-3.0220468044281006 2.4730000495910645 0.5130325555801392 4657508 0 -1
-3.0220468044281006 2.4730000495910645 0.5130325555801392 4724328 0 -1
-3.039055824279785 2.4869189262390137 0.30178385972976685 4725613 0 -1
-3.467966318130493 1.8606828451156616 -0.15089192986488342 4341894 0 -1
-1.4245707988739014 3.5166244506835938 1.0562435388565063 4341894 0 -1
-1.3111315965652466 3.569288969039917 1.0260651111602783 4341894 0 -1
-2.8625128269195557 2.6361517906188965 0.7911226153373718 4456788 0 -1
-2.8492727279663086 2.683781623840332 0.6694114804267883 4456788 0 -1
-3.0198254585266113 2.532348155975342 0.4868446886539459 4456788 0 -1
-2.8530466556549072 2.627434015274048 0.8519781827926636 4456788 0 -1
-3.310392379760742 2.1797244548797607 -0.24342234432697296 4523353 0 -1
-3.0068371295928955 2.521456241607666 0.6085558533668518 4523353 0 -1
-2.841341257095337 2.6763110160827637 0.7302670478820801 4523353 0 -1
-3.0438361167907715 2.490830659866333 0.5477002859115601 4590430 0 -1
-3.183549404144287 2.3499226570129395 0.33470574021339417 4657508 0 -1
-3.036905527114868 2.485159158706665 0.6085558533668518 4657508 0 -1
-2.8578712940216064 2.6318771839141846 0.8215504288673401 4657508 0 -1
-2.295973777770996 3.1419389247894287 0.7911226153373718 4657508 0 -1
-2.4847803115844727 3.139051914215088 0.030677201226353645 4456788 0 -1
-2.5065791606903076 3.103531837463379 0.33744922280311584 4456788 0 -1
-3.115818977355957 2.486941337585449 0.36812642216682434 4456788 0 -1
-3.0983972549438477 2.5354793071746826 0 4456788 0 -1
3.8489527702331543 1.0386370420455933 -0.36812642216682434 4456788 0 -1
-2.9363532066345215 2.704152822494507 -0.30677202343940735 4456788 0 -1
-3.1915628910064697 2.292262077331543 0.7669300436973572 4456788 0 -1
-2.860236167907715 2.5745129585266113 1.1043792963027954 4456788 0 -1
-3.1525166034698486 2.2642180919647217 0.9816704392433167 4523353 0 -1
-2.855109214782715 2.62933349609375 0.9816704392433167 4657508 0 -1
-2.316016435623169 3.233116626739502 0.46015802025794983 4657508 0 -1
-3.239497184753418 2.3266899585723877 0.6185321807861328 4456788 0 -1
-3.2471985816955566 2.3969051837921143 0.03092660941183567 4456788 0 -1
-2.535907506942749 3.1398448944091797 0.03092660941183567 4523353 0 -1
-2.3460021018981934 3.2749764919281006 -0.24741287529468536 4523353 0 -1
-3.2471985816955566 2.3969051837921143 0.03092660941183567 4590430 0 -1
-2.3170430660247803 3.299589157104492 -0.18555966019630432 4657508 0 -1
-3.242210626602173 2.457908868789673 0.031176017597317696 4456788 0 -1
-2.5863938331604004 3.1383490562438965 0.12470407038927078 4523353 0 -1
-2.3668720722198486 3.304110288619995 -0.18705610930919647 4523353 0 -1
-2.187549591064453 3.241790294647217 1.1223366260528564 4657508 0 -1
-3.3286495208740234 2.390721321105957 0.15712712705135345 4456788 0 -1
-3.0846095085144043 2.6495141983032227 0.5342322587966919 4729209 0 -1
2.9019763469696045 3.59309458732605 0.17707978188991547 4456788 5 -1
2.9040231704711914 3.5956289768218994 -0.035415954887866974 4456788 5 -1
2.866586208343506 3.621391773223877 -0.17707978188991547 4456788 5 -1
2.974591016769409 3.536939859390259 -0.07083190977573395 4456788 5 -1
2.8683555126190186 3.623626708984375 -0.07083190977573395 4590430 5 -1
2.974853038787842 3.5372514724731445 -0.035415954887866974 4590430 5 -1
2.8937742710113525 3.5829391479492188 0.3895755112171173 4664956 5 -1
2.8955705165863037 3.585163116455078 0.35415956377983093 4600703 5 -1
2.9364161491394043 3.5630686283111572 0.21249572932720184 4212104 5 -1
2.863297700881958 3.617237091064453 0.2833276391029358 4147337 5 -1
2.9027440547943115 3.5940451622009277 0.1416638195514679 4017546 5 -1
2.9214675426483154 3.617227792739868 -0.213992178440094 4456788 5 -1
2.9203500747680664 3.6158440113067627 -0.2496575564146042 4456788 5 -1
2.922412633895874 3.6183979511260986 -0.178326815366745 4456788 5 -1
2.9231858253479004 3.6193554401397705 -0.142661452293396 4456788 5 -1
2.958051919937134 3.5893216133117676 -0.178326815366745 4456788 5 -1
2.958834409713745 3.590271234512329 -0.142661452293396 4456788 5 -1
2.958834409713745 3.590271234512329 -0.142661452293396 4590430 5 -1
2.995802640914917 3.562161684036255 -0.035665363073349 4657508 5 -1
2.9559640884399414 3.5867881774902344 0.2496575564146042 4664956 5 -1
2.957095146179199 3.588160753250122 0.213992178440094 4600703 5 -1
2.958834409713745 3.590271234512329 0.142661452293396 4147337 5 -1
2.9955387115478516 3.5618479251861572 0.071330726146698 4017546 5 -1
2.9950990676879883 3.5613248348236084 0.106996089220047 3887499 5 -1
2.9594430923461914 3.5910096168518066 0.106996089220047 3757452 5 -1
2.9955387115478516 3.5618479251861572 0.071330726146698 3562893 5 -1
2.9805760383605957 3.616652488708496 0.07182954251766205 4456788 5 -1
2.9436278343200684 3.644665479660034 -0.1436590850353241 4456788 5 -1
2.941897392272949 3.6425230503082275 -0.21548862755298615 4456788 5 -1
2.938000202178955 3.637697696685791 -0.3232329487800598 4456788 5 -1
2.7973196506500244 3.7524616718292236 -0.25140342116355896 4456788 5 -1
2.9428491592407227 3.6437015533447266 -0.17957386374473572 4456788 5 -1
2.9436278343200684 3.644665479660034 -0.1436590850353241 4456788 5 -1
2.9787375926971436 3.614421844482422 -0.17957386374473572 4456788 5 -1
2.9787375926971436 3.614421844482422 -0.17957386374473572 4456788 5 -1
2.977774143218994 3.613252639770508 -0.21548862755298615 4590430 5 -1
2.977774143218994 3.613252639770508 0.21548862755298615 4664956 5 -1
2.9787375926971436 3.614421844482422 0.17957386374473572 4600703 5 -1
2.979525566101074 3.615377902984619 0.1436590850353241 4147337 5 -1
3.0160436630249023 3.5862293243408203 0.10774431377649307 3887499 5 -1
3.0160436630249023 3.5862293243408203 0.10774431377649307 3757452 5 -1
3.052665948867798 3.556558609008789 0.035914771258831024 3562893 5 -1
2.9436278343200684 3.644665479660034 -0.1436590850353241 2458766 5 -1
2.90832781791687 3.674124240875244 0.10774431377649307 6933851 5 -1
2.9090964794158936 3.675095319747925 0 10016830 5 -1
2.75174880027771 3.7656466960906982 0.723283588886261 4456788 5 -1
2.420438051223755 4.045955181121826 0.2169850766658783 4456788 5 -1
2.592790365219116 3.919753074645996 0.4339701533317566 4456788 5 -1
2.826530933380127 3.7167117595672607 0.6871194243431091 4456788 5 -1
2.6305909156799316 3.898345470428467 0.39780598878860474 4456788 5 -1
2.4573588371276855 4.025424957275391 0.18082089722156525 4456788 5 -1
2.658414125442505 3.8618550300598145 0.5424627065658569 4456788 5 -1
2.683415412902832 3.821322202682495 0.6871194243431091 4456788 5 -1
2.8659236431121826 3.6205546855926514 0.9764328598976135 4456788 5 -1
2.8923699855804443 3.7279727458953857 0.10849253833293915 4456788 5 -1
2.85562801361084 3.754972457885742 0.1446567177772522 4456788 5 -1
2.85562801361084 3.754972457885742 0.1446567177772522 4456788 5 -1
2.930433750152588 3.6283295154571533 -0.723283588886261 4456788 0 -1
2.856215238571167 3.755744695663452 -0.10849253833293915 4456788 5 -1
2.9105446338653564 3.603703737258911 0.9041045308113098 4456788 5 -1
2.9292986392974854 3.7006168365478516 0 4456788 5 -1
2.96467924118042 3.6707305908203125 -0.10849253833293915 4456788 5 -1
3.0015387535095215 3.6420888900756836 0.03616417944431305 4456788 5 -1
2.96467924118042 3.6707305908203125 -0.10849253833293915 4590430 5 -1
3.0377020835876465 3.6119821071624756 0.03616417944431305 4600703 5 -1
3.000833749771118 3.641233444213867 0.10849253833293915 4147337 5 -1
3.0374343395233154 3.611664056777954 0.0723283588886261 3887499 5 -1
3.0739552974700928 3.581362009048462 0 3757452 5 -1
2.9271481037139893 3.6979000568389893 -0.18082089722156525 2718350 5 -1
2.927922487258911 3.698878288269043 -0.1446567177772522 2468738 5 -1
2.9292125701904297 3.7005083560943604 0.03616417944431305 6933851 5 -1
2.8644871711730957 3.7666215896606445 -0.4369630515575409 4456788 5 -1
2.8644871711730957 3.7666215896606445 -0.4369630515575409 4456788 5 -1
2.857609272003174 3.757577896118164 -0.5462038516998291 4456788 5 -1
2.719449758529663 3.8726370334625244 0.4369630515575409 4456788 5 -1
2.7152597904205322 3.8666703701019287 0.5097902417182922 4456788 5 -1
2.650377035140991 3.9276671409606934 0.36413589119911194 4456788 5 -1
2.292978286743164 4.159891605377197 -0.1456543505191803 4456788 0 -1
2.474306106567383 4.053186416625977 0.18206794559955597 4456788 5 -1
2.681203603744507 3.89496111869812 0.47337666153907776 4456788 5 -1
2.724116802215576 3.8028175830841064 0.8375125527381897 4456788 5 -1
2.795603036880493 3.8256592750549316 0.36413589119911194 4456788 5 -1
2.757585048675537 3.849538564682007 0.4005494713783264 4456788 5 -1
2.7938690185546875 3.823286294937134 0.4005494713783264 4456788 5 -1
2.8008816242218018 3.8328826427459717 0.21848152577877045 4456788 5 -1
2.830152988433838 3.7965056896209717 0.4005494713783264 4456788 5 -1
2.8399264812469482 3.8096163272857666 0.07282717525959015 4456788 5 -1
2.934990406036377 3.6339712142944336 -0.8739261031150818 4456788 0 -1
2.873631715774536 3.778646230697632 0.21848152577877045 4456788 5 -1
2.9473352432250977 3.723402738571167 0.18206794559955597 4456788 5 -1
3.019132137298584 3.6634366512298584 0.21848152577877045 4456788 5 -1
3.0586516857147217 3.636892318725586 -0.036413587629795074 4600703 5 -1
3.0586516857147217 3.636892318725586 0.036413587629795074 3887499 5 -1
3.094337224960327 3.6051082611083984 -0.10924076288938522 3757452 5 -1
3.1312007904052734 3.5740647315979004 0.07282717525959015 3302798 5 -1
2.8819713592529297 3.789612293243408 -0.4766189455986023 4456788 5 -1
2.8819713592529297 3.789612293243408 -0.4766189455986023 4456788 5 -1
2.8745274543762207 3.7798240184783936 -0.5866079330444336 4456788 5 -1
2.705085515975952 3.929654121398926 0.366629958152771 4456788 5 -1
2.7034075260162354 3.9272165298461914 0.4032929539680481 4456788 5 -1
2.670027017593384 3.956787109375 0.3299669623374939 4456788 5 -1
2.7380762100219727 3.8991620540618896 0.4399559497833252 4456788 5 -1
2.736048698425293 3.8962748050689697 0.4766189455986023 4456788 5 -1
2.817741870880127 3.855955123901367 0.2933039665222168 4456788 5 -1
2.776472568511963 3.8759052753448486 0.4032929539680481 4456788 5 -1
2.813004970550537 3.849473237991333 0.4032929539680481 4456788 5 -1
2.817741870880127 3.855955123901367 0.2933039665222168 4456788 5 -1
2.811091423034668 3.8468544483184814 0.4399559497833252 4456788 5 -1
2.814751148223877 3.8518624305725098 0.366629958152771 4456788 5 -1
2.890929937362671 3.8013923168182373 0.2933039665222168 4456788 5 -1
2.9275238513946533 3.773282766342163 0.2933039665222168 4456788 5 -1
2.999208450317383 3.7134830951690674 0.3299669623374939 4456788 5 -1
2.967522382736206 3.7489054203033447 0.1833149790763855 4729209 5 -1
2.7860605716705322 3.8892898559570312 0.0733259916305542 3302798 5 -1
2.929938316345215 3.7763946056365967 -0.2199779748916626 3302798 5 -1
2.8600869178771973 3.836660623550415 -0.5536860823631287 4456788 5 -1
2.8761231899261475 3.8581724166870117 -0.22147442400455475 4456788 5 -1
2.7250149250030518 3.9586055278778076 0.3322116434574127 4456788 5 -1
2.7250149250030518 3.9586055278778076 0.3322116434574127 4456788 5 -1
2.686683416366577 3.9814705848693848 0.36912405490875244 4456788 5 -1
2.7199463844299316 3.951242446899414 0.4429488480091095 4456788 5 -1
2.798664093017578 3.90688419342041 0.3322116434574127 4456788 5 -1
2.752455234527588 3.9196383953094482 0.5167736411094666 4456788 5 -1
2.8281190395355225 3.8701558113098145 0.4798612594604492 4456788 5 -1
2.9424843788146973 3.792565107345581 0.40603646636009216 4456788 5 -1
3.019611358642578 3.7387449741363525 0.3322116434574127 4456788 5 -1
2.977238655090332 3.7611801624298096 0.4429488480091095 4456788 5 -1
3.0961785316467285 3.681513786315918 0.2583868205547333 4728182 5 -1
2.9077255725860596 3.8234775066375732 -0.6689126491546631 4456788 5 -1
2.7099437713623047 4.0159406661987305 0.2229708731174469 4456788 5 -1
2.7063539028167725 4.010621070861816 0.33445632457733154 4456788 5 -1
2.704836845397949 4.0083723068237305 0.3716181218624115 4456788 5 -1
2.7077107429504395 4.012631416320801 0.2972944974899292 4456788 5 -1
2.7383244037628174 3.977940082550049 0.4459417462348938 4456788 5 -1
2.7753288745880127 3.952211856842041 0.4459417462348938 4456788 5 -1
2.800233840942383 3.9090757369995117 0.6317508220672607 4456788 5 -1
2.8794119358062744 3.862583875656128 0.557427167892456 4456788 5 -1
2.918842315673828 3.8380954265594482 0.5202654004096985 4456788 5 -1
2.9211819171905518 3.8411717414855957 0.48310357332229614 4456788 5 -1
2.9532430171966553 3.806431770324707 0.557427167892456 4456788 5 -1
2.8898322582244873 3.7999489307403564 0.85472172498703 4456788 5 -1
3.044046640396118 3.7689995765686035 0.2229708731174469 4456788 5 -1
2.99513578414917 3.78378963470459 -0.48310357332229614 4456788 5 -1
3.0364251136779785 3.7595629692077637 -0.40877994894981384 4456788 5 -1
3.007896900177002 3.7999110221862793 -0.18580906093120575 4523353 5 -1
3.1182916164398193 3.7078073024749756 0.2229708731174469 4728182 5 -1
2.719449758529663 4.030027866363525 0.4489346444606781 4456788 5 -1
2.729736089706421 4.045271396636963 0.1496448814868927 4456788 5 -1
2.684022903442383 4.057677268981934 0.4115234315395355 4456788 5 -1
2.684022903442383 4.057677268981934 0.4115234315395355 4456788 5 -1
2.7546613216400146 4.001672267913818 0.48634588718414307 4456788 5 -1
2.791886568069458 3.9757907390594482 0.48634588718414307 4456788 5 -1
2.858933210372925 3.9123237133026123 0.5985795259475708 4456788 5 -1
2.853133201599121 3.9043867588043213 0.6734020113945007 4456788 5 -1
2.9407870769500732 3.8669514656066895 0.48634588718414307 4456788 5 -1
2.90356183052063 3.8949801921844482 0.48634588718414307 4456788 5 -1
2.970320224761963 3.8284428119659424 0.5985795259475708 4456788 5 -1
3.058701276779175 3.787144184112549 -0.37411221861839294 4456788 5 -1
3.052462577819824 3.7794198989868164 -0.48634588718414307 4456788 5 -1
3.023818254470825 3.7439539432525635 -0.823046863079071 4456788 0 -1
3.052462577819824 3.7794198989868164 -0.48634588718414307 4456788 5 -1
3.0473899841308594 3.773138999938965 -0.5611683130264282 4523353 5 -1
3.0547244548797607 3.7822203636169434 -0.4489346444606781 4590430 5 -1
3.1188361644744873 3.7084548473358154 0.5985795259475708 4212104 5 -1
2.800565004348755 3.988149404525757 -0.2992897629737854 8705099 5 -1
2.737579345703125 4.056894779205322 0.4519275426864624 4456788 5 -1
2.7472074031829834 4.071162700653076 0.188303142786026 4456788 5 -1
2.739443063735962 4.059656143188477 0.4142669141292572 4456788 5 -1
2.701916217803955 4.084728240966797 0.4142669141292572 4456788 5 -1
2.7333614826202393 4.0506439208984375 0.5272487998008728 4456788 5 -1
2.8125815391540527 4.005261421203613 0.4519275426864624 4456788 5 -1
2.8162431716918945 4.0104756355285645 0.376606285572052 4456788 5 -1
2.840616226196289 3.9654486179351807 0.6025700569152832 4456788 5 -1
2.9646027088165283 3.8982672691345215 0.4142669141292572 4456788 5 -1
2.9153692722320557 3.9108190536499023 0.6025700569152832 4456788 5 -1
2.9153692722320557 3.9108190536499023 0.6025700569152832 4456788 5 -1
2.9603922367095947 3.892730951309204 0.4895881712436676 4456788 5 -1
3.0490777492523193 3.851935386657715 -0.1506425142288208 4456788 5 -1
3.035338878631592 3.8345789909362793 -0.4895881712436676 4456788 5 -1
3.0516932010650635 3.7784671783447266 -0.753212571144104 4456788 0 -1
3.0677058696746826 3.798293352127075 -0.5649094581604004 4456788 5 -1
3.030294895172119 3.8282065391540527 -0.5649094581604004 4523353 5 -1
3.1670470237731934 3.6898200511932373 0.7155519723892212 4729209 5 -1
3.1738786697387695 3.697779417037964 0.6402307152748108 4664956 5 -1
3.214381456375122 3.6690101623535156 0.6025700569152832 4536450 5 -1
3.2112185955047607 3.6653997898101807 0.6402307152748108 4212104 5 -1
3.237771987915039 3.6202869415283203 0.753212571144104 4147337 5 -1
2.7255935668945312 4.120523452758789 0.26537024974823 4456788 5 -1
2.6112542152404785 3.9476664066314697 -1.4405814409255981 4456788 0 -1
2.755709171295166 4.083761692047119 0.4549204409122467 4456788 5 -1
2.784180164337158 4.044554233551025 0.6065605878829956 4456788 5 -1
2.856614589691162 3.9877820014953613 0.6444706320762634 4456788 5 -1
2.9693756103515625 3.904543399810791 0.6444706320762634 4456788 5 -1
2.9723005294799805 3.9083895683288574 0.6065605878829956 4456788 5 -1
2.9723005294799805 3.9083895683288574 0.6065605878829956 4456788 5 -1
3.109365224838257 3.7729263305664062 0.7582007646560669 4456788 5 -1
3.050363063812256 3.8535587787628174 -0.5686505436897278 4456788 5 -1
3.047548532485962 3.850003480911255 -0.6065605878829956 4456788 5 -1
3.188020944595337 3.7142560482025146 0.7202907204627991 4726897 5 -1
3.188020944595337 3.7142560482025146 0.7202907204627991 4728182 5 -1
3.1948978900909424 3.7222681045532227 0.6444706320762634 4729209 5 -1
3.1948978900909424 3.7222681045532227 0.6444706320762634 4664956 5 -1
3.235668897628784 3.693308115005493 0.6065605878829956 4536450 5 -1
3.229104518890381 3.6858153343200684 0.6823806762695312 4212104 5 -1
3.2666521072387695 3.6525790691375732 0.6823806762695312 4147337 5 -1
3.263033151626587 3.6485326290130615 0.7202907204627991 4017546 5 -1
2.822472333908081 4.1001811027526855 0.152637779712677 4456788 5 -1
2.6267333030700684 4.217043399810791 0.34343501925468445 4456788 5 -1
2.8793771266937256 3.940300464630127 0.9921455979347229 4456788 5 -1
2.8154971599578857 4.090048313140869 0.3815944492816925 4456788 5 -1
2.969350814819336 3.9832324981689453 0.34343501925468445 4456788 5 -1
2.872400999069214 4.009819507598877 0.6868700385093689 4456788 5 -1
2.918804883956909 3.994255542755127 0.5723916888237 4456788 5 -1
2.892287254333496 3.957967519760132 0.877667248249054 4456788 5 -1
2.892287254333496 3.957967519760132 0.877667248249054 4456788 5 -1
3.1712417602539062 3.7707676887512207 0.725029468536377 4725613 5 -1
3.150726318359375 3.7463738918304443 0.915826678276062 4728182 5 -1
3.2190845012664795 3.7504472732543945 0.610551118850708 4729209 5 -1
3.2190845012664795 3.7504472732543945 0.610551118850708 4664956 5 -1
3.256956100463867 3.71760630607605 0.610551118850708 4536450 5 -1
3.2467474937438965 3.70595383644104 0.725029468536377 4212104 5 -1
3.2881433963775635 3.6766092777252197 0.6868700385093689 4147337 5 -1
3.3294198513031006 3.646268129348755 0.6487105488777161 3562893 5 -1
2.4767935276031494 4.3122239112854 0.26711612939834595 2134668 0 -1
3.354480504989624 3.6737136840820312 0.2289566695690155 2134668 5 -1
3.7285566329956055 3.202630043029785 0.8013483881950378 2134668 0 -1
2.680715322494507 4.218131065368652 0.38408854603767395 4456788 5 -1
2.931075096130371 3.93188738822937 1.037039041519165 4456788 5 -1
2.81803822517395 4.0937395095825195 0.6529505252838135 4456788 5 -1
2.81803822517395 4.0937395095825195 0.6529505252838135 4456788 5 -1
2.797171115875244 4.145205497741699 0.3456796705722809 4456788 5 -1
2.7938690185546875 4.1403117179870605 0.42249739170074463 4456788 5 -1
2.870413303375244 4.087616920471191 0.42249739170074463 4456788 5 -1
2.8997278213500977 4.047967433929443 0.5761328339576721 4456788 5 -1
2.948786973953247 4.035284519195557 0.38408854603767395 4456788 5 -1
2.946957588195801 4.032781600952148 0.42249739170074463 4456788 5 -1
2.91894268989563 3.994443893432617 0.8065859079360962 4456788 5 -1
3.261300563812256 3.7996315956115723 -0.23045311868190765 4726897 5 -1
3.169538974761963 3.8459415435791016 -0.537723958492279 4728182 5 -1
3.043342113494873 3.922560453414917 -0.6913593411445618 4729209 5 -1
3.3130991458892822 3.7045133113861084 0.6529505252838135 4212104 5 -1
3.302098512649536 3.692213296890259 0.7681770920753479 4147337 5 -1
3.3544816970825195 3.6737148761749268 0.6145416498184204 3562893 5 -1
3.264369249343872 3.8032069206237793 0.07681770622730255 2072968 5 -1
3.2262489795684814 3.8361740112304688 -0.038408853113651276 4505456 5 -1
2.6996359825134277 4.247902870178223 0.3479243516921997 4456788 5 -1
2.963918685913086 3.975945472717285 0.9277982711791992 4456788 5 -1
2.8464834690093994 4.135061740875244 0.5025573968887329 4456788 5 -1
2.833371162414551 4.116013526916504 0.6958487033843994 4456788 5 -1
2.817990779876709 4.176058769226074 0.2706078290939331 4456788 5 -1
2.810098171234131 4.164361953735352 0.4638991355895996 4456788 5 -1
2.848592519760132 4.138125419616699 0.4638991355895996 4456788 5 -1
2.887087106704712 4.111361503601074 0.4638991355895996 4456788 5 -1
2.969599485397339 4.063766002655029 0.3479243516921997 4456788 5 -1
2.9760513305664062 3.992220878601074 0.8118234872817993 4456788 5 -1
3.0523602962493896 3.9341840744018555 0.8118234872817993 4456788 5 -1
3.0484023094177246 3.9290826320648193 0.8504817485809326 4456788 5 -1
3.0865073204040527 3.8992204666137695 0.8504817485809326 4456788 5 -1
3.246912717819214 3.8607442378997803 -0.0773165225982666 4728182 5 -1
3.239563226699829 3.8520052433013916 0.3479243516921997 4600703 5 -1
3.1744496822357178 3.851900100708008 0.7345069646835327 4471684 5 -1
3.3569438457489014 3.753538131713867 0.3092660903930664 4471684 5 -1
3.2431328296661377 3.7784650325775146 0.8118234872817993 4212104 5 -1
3.331125497817993 3.7246694564819336 0.6958487033843994 3562893 5 -1
2.8707029819488525 4.170245170593262 0.38907670974731445 4456788 5 -1
2.787419557571411 4.213991165161133 0.5057997107505798 4456788 5 -1
2.9057133197784424 4.137886047363281 0.4668920338153839 4456788 5 -1
2.837256669998169 4.204609394073486 0.23344601690769196 4456788 5 -1
2.868922233581543 4.16765832901001 0.427984356880188 4456788 5 -1
2.8723132610321045 4.172584056854248 0.35016903281211853 4456788 5 -1
2.8669705390930176 4.164823055267334 0.4668920338153839 4456788 5 -1
2.9057133197784424 4.137886047363281 0.4668920338153839 4456788 5 -1
2.9514219760894775 4.120131492614746 0.3112613558769226 4456788 5 -1
3.0024642944335938 4.027652740478516 0.7392457127571106 4456788 5 -1
3.0828659534454346 3.9735028743743896 0.7003380656242371 4456788 5 -1
