VERSION .7
FIELDS x y z rgb label object
SIZE 4 4 4 4 4 4
TYPE F F F I I I
COUNT 1 1 1 1 1 1
WIDTH 685
HEIGHT 1
POINTS 685
VIEWPOINT 0 0 0 1 0 0 0
DATA ascii
-2.059739112854004 2.9921648502349854 -0.3072708249092102 4523353 0 -1
-2.278956890106201 2.7653026580810547 0.670409083366394 4725613 0 -1
-2.2477216720581055 2.7274017333984375 0.8938787579536438 4728182 0 -1
-2.9968478679656982 2.0330588817596436 0.41900569200515747 4729209 0 -1
-2.2605326175689697 2.7429468631744385 0.8100776672363281 4729209 0 -1
-3.016752243041992 2.0465619564056396 0.02793371118605137 4664956 0 -1
-2.201112985610962 2.670846462249756 1.1452821493148804 4664956 0 -1
-2.6379904747009277 2.5406694412231445 0.3381974399089813 4456788 0 -1
-1.7675626277923584 3.141202926635742 0.7327611446380615 4456788 0 -1
-2.9296674728393555 2.220970869064331 0.11273247748613358 4456788 0 -1
-2.63908052444458 2.485797882080078 0.6200286149978638 4456788 0 -1
-3.0124051570892334 2.103614091873169 0.16909871995449066 4456788 0 -1
-2.7363245487213135 2.184041738510132 -1.1273248195648193 4456788 0 -1
-3.1260294914245605 1.9329909086227417 0.14091560244560242 4456788 0 -1
-2.366269826889038 2.813615083694458 0.11273247748613358 4456788 0 -1
-2.760648250579834 2.427855968475342 0.11273247748613358 4456788 0 -1
-2.493823528289795 2.674609422683716 0.3945636749267578 4725613 0 -1
-2.319268226623535 2.8142168521881104 0.47911304235458374 4725613 0 -1
-3.0308825969696045 2.056148052215576 0.3381974399089813 4729209 0 -1
-2.2765567302703857 2.762390613555908 0.8454936146736145 4729209 0 -1
-2.4895071983337402 2.614248514175415 0.7045779824256897 4664956 0 -1
-2.0118954181671143 3.041562080383301 0.47911304235458374 3238030 0 -1
-1.21519935131073 3.3933351039886475 0.7327611446380615 3238030 0 -1
-2.6113007068634033 2.5149643421173096 0.6200286149978638 2977934 0 -1
-2.461845874786377 2.6403136253356934 0.7045779824256897 2977934 0 -1
-1.850417137145996 3.0931196212768555 0.7327611446380615 2070155 0 -1
-3.463775157928467 1.3158727884292603 0.19902770221233368 4456788 0 -1
-2.9856159687042236 1.9658759832382202 0.9951384663581848 4456788 0 -1
-2.5188751220703125 2.6450881958007812 0.6539481282234192 4456788 0 -1
-2.812753677368164 2.4160044193267822 0.14216263592243195 4456788 0 -1
-2.7745838165283203 2.4401116371154785 0.3411903381347656 4456788 0 -1
-3.268204689025879 1.7535039186477661 -0.11373011022806168 4456788 0 -1
-3.0293924808502197 2.115476608276367 0.3411903381347656 4456788 0 -1
-2.2503676414489746 2.9004967212677 0.5402180552482605 4456788 0 -1
-2.985415458679199 2.2036709785461426 0 4456788 0 -1
-2.778195858001709 2.4432883262634277 0.2843252718448639 4456788 0 -1
-2.8008205890655518 2.405754566192627 0.3696228563785553 4456788 0 -1
-2.8703362941741943 2.3488523960113525 0.11373011022806168 4456788 0 -1
-2.8048038482666016 2.4091761112213135 0.31275781989097595 4456788 0 -1
-2.7679219245910645 2.434252977371216 0.42648792266845703 4456788 0 -1
-2.7597577571868896 2.4270730018615723 0.5117855072021484 4456788 0 -1
-2.808119058609009 2.4120235443115234 0.2558927536010742 4456788 0 -1
-2.790837287902832 2.397179365158081 0.48335298895835876 4456788 0 -1
-2.7879185676574707 2.3946726322174072 0.5117855072021484 4523353 0 -1
-2.9514219760894775 2.2374629974365234 0.22746022045612335 4725613 0 -1
-2.8028957843780518 2.4075372219085693 0.3411903381347656 4729209 0 -1
-2.7745838165283203 2.4401116371154785 0.3411903381347656 4664956 0 -1
-2.4908876419067383 2.6714606285095215 0.6539481282234192 4664956 0 -1
-2.8048038482666016 2.4091761112213135 0.31275781989097595 4017546 0 -1
-2.5468626022338867 2.6181509494781494 0.6539481282234192 4017546 0 -1
-3.069270372390747 2.0821902751922607 -0.11373011022806168 3238030 0 -1
-2.8987553119659424 2.3136885166168213 0.11373011022806168 3238030 0 -1
-2.550332546234131 2.621717929840088 0.6255156397819519 3238030 0 -1
-2.8391599655151367 2.3808465003967285 0.19902770221233368 3107982 0 -1
-3.5815517902374268 0.9664790630340576 0.0852975845336914 2977934 0 -1
-2.9566357135772705 2.241415500640869 0.05686505511403084 2977934 0 -1
-2.6471147537231445 2.54945707321167 0.5117855072021484 2977934 0 -1
-2.98532772064209 2.203606367111206 0.02843252755701542 2523534 0 -1
-2.8312079906463623 2.374178171157837 0.3411903381347656 2458766 0 -1
-3.0414767265319824 2.123915195465088 -0.0852975845336914 2070155 0 -1
-2.8987553119659424 2.3136885166168213 0.11373011022806168 2070155 0 -1
-2.9285504817962646 2.278697967529297 0 2666112 0 -1
-2.8703362941741943 2.3488523960113525 0.11373011022806168 3257723 0 -1
-2.528700590133667 2.6554059982299805 0.5686505436897278 3257723 0 -1
-2.8402464389801025 2.3817574977874756 0.1705951690673828 13164576 0 -1
-2.5907931327819824 2.6066718101501465 0.5117855072021484 13164576 0 -1
3.609234571456909 0.8540272116661072 -0.11373011022806168 13164576 0 -1
-3.2534782886505127 1.8131023645401 -0.3728651702404022 4456788 0 -1
-3.096193790435791 2.1004550457000732 -0.11472774296998978 4456788 0 -1
-2.1387319564819336 3.0456650257110596 0.4015471041202545 4456788 0 -1
-3.671180009841919 0.730139970779419 0.028681935742497444 4456788 0 -1
-2.952070474624634 2.2969987392425537 0.14340968430042267 4456788 0 -1
-2.8354241847991943 2.4354772567749023 0.20077355206012726 4456788 0 -1
-3.095374822616577 2.0998995304107666 -0.14340968430042267 4456788 0 -1
-2.8311636447906494 2.4318177700042725 0.28681936860084534 4456788 0 -1
-3.2558891773223877 1.8144458532333374 -0.3441832363605499 4456788 0 -1
-3.097649097442627 2.101442337036133 0 4456788 0 -1
-2.2890923023223877 2.950408697128296 0.25813743472099304 4456788 0 -1
-3.0686068534851074 2.1428606510162354 -0.05736387148499489 4456788 0 -1
-2.8008275032043457 2.4631917476654053 0.31550130248069763 4456788 0 -1
-2.2616117000579834 2.9738783836364746 0.22945548593997955 4456788 0 -1
-2.8311636447906494 2.4318177700042725 0.28681936860084534 4456788 0 -1
-2.9252140522003174 2.3348069190979004 0.05736387148499489 4456788 0 -1
-2.8294074535369873 2.430309295654297 0.31550130248069763 4456788 0 -1
-2.8294074535369873 2.430309295654297 0.31550130248069763 4456788 0 -1
-2.81809139251709 2.4205892086029053 0.4589109718799591 4456788 0 -1
-2.81809139251709 2.4205892086029053 0.4589109718799591 4456788 0 -1
-2.8123741149902344 2.4156785011291504 0.5162748694419861 4456788 0 -1
-2.8123741149902344 2.4156785011291504 0.5162748694419861 4523353 0 -1
-3.1504714488983154 2.011395215988159 -0.20077355206012726 4725613 0 -1
-2.953458786010742 2.298079013824463 0.08604580909013748 4725613 0 -1
-2.8274827003479004 2.4286558628082275 0.3441832363605499 4729209 0 -1
-2.8294074535369873 2.430309295654297 0.31550130248069763 4664956 0 -1
-2.5760443210601807 2.6481494903564453 0.602320671081543 4664956 0 -1
-2.954152822494507 2.298619031906128 -0.028681935742497444 3887499 0 -1
-2.7112319469451904 2.5537586212158203 0.3728651702404022 3887499 0 -1
-2.9528515338897705 2.2976064682006836 0.11472774296998978 3238030 0 -1
-2.5296285152435303 2.6563801765441895 0.7457303404808044 3238030 0 -1
-2.8965353965759277 2.3702917098999023 0.05736387148499489 3107982 0 -1
-2.680544137954712 2.581653118133545 0.4015471041202545 3107982 0 -1
-3.5826098918914795 1.0750956535339355 0.14340968430042267 2977934 0 -1
-2.9828338623046875 2.2612762451171875 0.028681935742497444 2977934 0 -1
-2.7352182865142822 2.518923282623291 0.4302290380001068 2977934 0 -1
-2.8560431003570557 2.3950042724609375 0.3441832363605499 2458766 0 -1
-2.9528515338897705 2.2976064682006836 0.11472774296998978 2070155 0 -1
-2.732694625854492 2.516599178314209 0.4589109718799591 2070155 0 -1
-2.2939486503601074 2.9566681385040283 0.08604580909013748 2070155 0 -1
-3.010188341140747 2.221957206726074 -0.11472774296998978 2666112 0 -1
-2.8354241847991943 2.4354772567749023 0.20077355206012726 3257723 0 -1
-2.864064931869507 2.401731252670288 0.20077355206012726 13164576 0 -1
-2.6472978591918945 2.6062817573547363 0.4589109718799591 13164576 0 -1
-3.121281385421753 2.117474317550659 -0.17358806729316711 4456788 0 -1
-2.7277441024780273 2.5693116188049316 0.4629015028476715 4456788 0 -1
-2.8588168621063232 2.4555702209472656 0.23145075142383575 4456788 0 -1
-3.0666325092315674 2.2025339603424072 -0.02893134392797947 4456788 0 -1
-2.8251826763153076 2.4846107959747314 0.3182447850704193 4456788 0 -1
-2.468238115310669 2.7031309604644775 0.925803005695343 4456788 0 -1
-1.8821425437927246 3.2107083797454834 0.6364895701408386 4456788 0 -1
-2.8499577045440674 2.44796085357666 0.37610748410224915 4456788 0 -1
-2.8588168621063232 2.4555702209472656 0.23145075142383575 4456788 0 -1
-2.8425965309143066 2.4416377544403076 0.4629015028476715 4456788 0 -1
-2.836829423904419 2.4366843700408936 0.520764172077179 4456788 0 -1
-2.836829423904419 2.4366843700408936 0.520764172077179 4456788 0 -1
-2.833686590194702 2.4339847564697266 0.5496955513954163 4523353 0 -1
-3.1422948837280273 2.0690410137176514 0.3182447850704193 4590430 0 -1
-2.9673047065734863 2.308852434158325 0.34717613458633423 4590430 0 -1
-2.7191944122314453 2.561258554458618 0.5496955513954163 4590430 0 -1
-2.9791409969329834 2.3180623054504395 0.08679403364658356 4725613 0 -1
-2.8499577045440674 2.44796085357666 0.37610748410224915 4729209 0 -1
-2.854011058807373 2.451442241668701 0.3182447850704193 4664956 0 -1
-2.6235926151275635 2.6396725177764893 0.6364895701408386 4664956 0 -1
-2.9785284996032715 2.3175857067108154 0.11572537571191788 2977934 0 -1
-2.7877423763275146 2.509260892868042 0.4339701533317566 2977934 0 -1
-2.97774076461792 2.3169727325439453 0.1446567177772522 2070155 0 -1
-2.3138959407806396 2.9823782444000244 0.08679403364658356 2070155 0 -1
-2.2303645610809326 2.9327900409698486 0.9629648327827454 4456788 0 -1
-2.8875372409820557 2.4802396297454834 -0.11672300845384598 4456788 0 -1
-2.298501968383789 3.0223865509033203 0.29180753231048584 4456788 0 -1
-2.835348129272461 2.493551015853882 0.49607279896736145 4456788 0 -1
-2.803481101989746 2.5234274864196777 0.5252535343170166 4456788 0 -1
-2.994922161102295 2.3303415775299072 0.320988267660141 4456788 0 -1
-2.835348129272461 2.493551015853882 0.49607279896736145 4456788 0 -1
-2.7936480045318604 2.5145766735076904 0.6127958297729492 4523353 0 -1
-2.7535760402679443 2.5358293056488037 0.7003380656242371 4590430 0 -1
-2.8454906940460205 2.5024709701538086 0.37934979796409607 4657508 0 -1
-2.7072465419769287 2.607370615005493 0.6127958297729492 4657508 0 -1
-2.825209856033325 2.542985677719116 0.23344601690769196 4726897 0 -1
-2.57438588142395 2.64644455909729 0.9337840676307678 4726897 0 -1
-2.906649589538574 2.4966559410095215 -0.2648714482784271 4456788 0 -1
-2.3243682384490967 3.056399345397949 -0.08829048275947571 4456788 0 -1
-2.8565914630889893 2.5122334957122803 0.5297428965568542 4456788 0 -1
-2.3408267498016357 3.017089366912842 0.41202226281166077 4456788 0 -1
3.2355270385742188 2.000699043273926 -0.5297428965568542 4456788 0 -1
-2.3488078117370605 3.0273759365081787 0.2648714482784271 4456788 0 -1
3.2062501907348633 1.9825955629348755 -0.7357540130615234 4456788 0 -1
-2.489121913909912 2.8999922275543213 0.3825920820236206 4523353 0 -1
-2.9962310791015625 2.3914902210235596 0.23544128239154816 4725613 0 -1
-2.49322247505188 2.673964738845825 1.1772063970565796 4726897 0 -1
-2.9796085357666016 2.3184261322021484 0.7063238620758057 4728182 0 -1
-2.8638956546783447 2.459932565689087 0.7063238620758057 4147337 0 -1
-2.7428643703460693 2.641674280166626 0.5003127455711365 4147337 0 -1
-2.914889335632324 2.4443511962890625 0.5297428965568542 3757452 0 -1
-2.7428643703460693 2.641674280166626 0.5003127455711365 3757452 0 -1
-2.7181622982025146 2.446631669998169 -1.276221513748169 4456788 0 -1
-2.3732500076293945 3.0588796138763428 0.11871827393770218 4456788 0 -1
-2.510216236114502 2.9245684146881104 0.38583439588546753 4523353 0 -1
-3.036736488342285 2.362877130508423 0.4451935291290283 4725613 0 -1
-2.607060194015503 2.7960550785064697 0.6232709288597107 4726897 0 -1
-3.020885467529297 2.35054349899292 0.5935913920402527 4728182 0 -1
-2.648402214050293 2.7811052799224854 0.5045526623725891 4728182 0 -1
-2.3586301803588867 3.040036201477051 0.4451935291290283 3887499 0 -1
-3.3496522903442383 1.9354522228240967 0.5387215614318848 4456788 0 -1
-2.877342939376831 2.354586124420166 -1.1971590518951416 4456788 0 -1
-2.487248420715332 2.9574649333953857 0.5686505436897278 4456788 0 -1
-3.356461763381958 1.9393867254257202 0.4788636267185211 4523353 0 -1
-2.8918495178222656 2.366457223892212 1.1373010873794556 4523353 0 -1
-2.8989317417144775 2.6093430519104004 0.20950284600257874 4725613 0 -1
-2.894575834274292 2.605422019958496 0.2992897629737854 4726897 0 -1
-2.592526435852051 2.839247226715088 0.6883664727210999 4726897 0 -1
-2.894575834274292 2.605422019958496 0.2992897629737854 4728182 0 -1
-2.7845406532287598 2.4488682746887207 1.2270880937576294 4729209 0 -1
-2.376256227493286 3.0627541542053223 0.4788636267185211 3887499 0 -1
-3.253136396408081 2.2069246768951416 -0.24142707884311676 4725613 0 -1
-2.9217982292175293 2.62992525100708 0.24142707884311676 4725613 0 -1
-2.863915205001831 2.697573661804199 0.18107031285762787 4726897 0 -1
-2.8848519325256348 2.656724214553833 0.36214062571525574 4728182 0 -1
-2.7364606857299805 2.813055992126465 0.3319622278213501 4728182 0 -1
-2.914902448654175 2.62371826171875 0.36214062571525574 4729209 0 -1
-2.3586912155151367 3.101531744003296 0.5733892917633057 3887499 0 -1
-2.5048253536224365 3.360095262527466 0.2573891878128052 4456788 0 -1
-2.5405242443084717 3.3406307697296143 0.1286945939064026 4456788 0 -1
-2.5607447624206543 3.3672194480895996 0.09726917743682861 4456788 0 -1
-3.2488434314727783 3.8630402088165283 -0.9851621389389038 4456788 0 -1
-3.0214452743530273 4.134714603424072 -0.4728778302669525 4456788 0 -1
-2.797532081604004 4.314650535583496 -0.07881297171115875 4456788 0 -1
-2.160984754562378 4.65010404586792 -0.39406487345695496 4456788 0 -1
-1.6920397281646729 4.848661422729492 0.27584540843963623 4456788 0 -1
-1.6920397281646729 4.848661422729492 0.27584540843963623 4456788 0 -1
-0.4661105275154114 5.04774808883667 0.8669427037239075 4456788 0 -1
-0.8423027396202087 4.92514705657959 -1.3483004570007324 4456788 0 -1
1.5551642179489136 4.966294765472412 -0.19952651858329773 4456788 0 -1
3.0220108032226562 4.218672275543213 0.4389583170413971 3107982 5 -1
-1.671327829360962 4.6670331954956055 -1.5962121486663818 11197490 0 -1
-2.5144431591033936 4.377773761749268 -1.4054148197174072 4456788 0 -1
-1.8220996856689453 4.720014572143555 -1.365260124206543 4456788 0 -1
-1.9394229650497437 4.787562847137451 -0.8834036588668823 4456788 0 -1
-1.684070110321045 4.954535484313965 -0.28108298778533936 4456788 4 -1
-3.171383857727051 4.170171737670898 0.12046413123607635 4724328 0 -1
-3.405024766921997 3.9670798778533936 -0.36139240860939026 4729209 0 -1
-2.9571759700775146 3.9669008255004883 1.7266526222229004 4729209 0 -1
3.044492721557617 4.250056743621826 0.36139240860939026 3238030 5 -1
3.0845518112182617 4.221072673797607 0.36139240860939026 3107982 5 -1
3.0860981941223145 4.223188877105713 0.3212376832962036 2977934 5 -1
3.0860981941223145 4.223188877105713 0.3212376832962036 2912910 5 -1
3.0860981941223145 4.223188877105713 0.3212376832962036 2782862 5 -1
-1.6969231367111206 4.992349147796631 -0.04040411859750748 4456788 4 -1
-1.6306402683258057 4.927692413330078 -0.929294764995575 4456788 4 -1
-3.4693520069122314 3.8792262077331543 0.8484864830970764 4728182 0 -1
-1.1791948080062866 4.822211265563965 -1.7777812480926514 4728182 0 -1
-3.3423805236816406 3.8940951824188232 1.2121235132217407 4729209 0 -1
-3.0680832862854004 4.034337997436523 1.4545482397079468 4729209 0 -1
3.0662927627563477 4.280488967895508 0.28282883763313293 3302798 5 -1
3.0634026527404785 4.276454448699951 0.3636370599269867 3238030 5 -1
3.105266571044922 4.249420166015625 0.3232329487800598 2912910 5 -1
3.105266571044922 4.249420166015625 0.3232329487800598 2782862 5 -1
3.105266571044922 4.249420166015625 0.3232329487800598 2718350 5 -1
-1.7605739831924438 4.674376010894775 1.788755178451538 4456788 0 -1
-1.7885451316833496 4.994351863861084 -0.081307053565979 4456788 4 -1
-1.747639775276184 5.0079874992370605 -0.1219605803489685 4456788 4 -1
-1.748050332069397 5.009163856506348 0.0406535267829895 4456788 4 -1
-1.7472803592681885 5.006957530975342 -0.162614107131958 4456788 4 -1
-1.707448124885559 5.023313522338867 0 4456788 4 -1
-4.53390645980835 2.711966037750244 -0.487842321395874 4456788 0 -1
-4.309270858764648 2.923405408859253 1.0163382291793823 4729209 0 -1
-3.918381929397583 3.206488609313965 1.5854876041412354 4729209 0 -1
-3.918381929397583 3.206488609313965 1.5854876041412354 4729209 0 -1
-3.3966164588928223 3.9572837352752686 0.975684642791748 4729209 0 -1
-1.6682219505310059 4.780410289764404 -1.5854876041412354 4729209 0 -1
3.08231258392334 4.302852153778076 0.3658817410469055 3432845 5 -1
3.0446255207061768 4.335704326629639 0.2845746874809265 3302798 5 -1
3.08231258392334 4.302852153778076 0.3658817410469055 3238030 5 -1
3.1258153915405273 4.27754020690918 0.2845746874809265 3107982 5 -1
3.1676220893859863 4.249203205108643 0.243921160697937 2912910 5 -1
3.0852205753326416 4.306911945343018 0.2845746874809265 2718350 5 -1
-1.7992535829544067 5.024254322052002 -0.12270880490541458 4456788 4 -1
-1.7177215814590454 5.053537845611572 0.08180586993694305 4456788 4 -1
-1.6769710779190063 5.06770133972168 0.04090293496847153 4456788 4 -1
-1.756966471672058 5.0347137451171875 -0.24541760981082916 4456788 4 -1
-1.7171162366867065 5.051756858825684 -0.1636117398738861 4456788 4 -1
-1.7128726243972778 5.039272308349609 -0.40902936458587646 4456788 4 -1
-1.7118101119995117 5.036146640777588 -0.4499322772026062 4456788 4 -1
-1.7154502868652344 5.046855926513672 -0.2863205373287201 4456788 4 -1
-4.537346363067627 2.7140235900878906 -0.7362528443336487 4456788 0 -1
3.101222276687622 4.329250335693359 0.36812642216682434 3238030 5 -1
3.1436030864715576 4.301881790161133 0.3272234797477722 3107982 5 -1
3.1895859241485596 4.2786664962768555 0.12270880490541458 2912910 5 -1
3.1063408851623535 4.336395263671875 0.20451468229293823 2718350 5 -1
3.0236167907714844 4.39238166809082 0.24541760981082916 2458766 5 -1
-1.8452657461166382 5.023360252380371 -0.45267578959465027 4456788 4 -1
-1.8063923120498657 5.044188976287842 0.37037110328674316 4456788 4 -1
-1.8093737363815308 5.05251407623291 -0.20576171576976776 4456788 4 -1
-1.4602830410003662 5.088416576385498 0.9053515791893005 4456788 0 -1
-1.7670035362243652 5.063475608825684 -0.28806641697883606 4456788 4 -1
-1.768251657485962 5.067052364349365 -0.20576171576976776 4456788 4 -1
-1.763253927230835 5.052731037139893 -0.45267578959465027 4456788 4 -1
-1.7693430185317993 5.070179462432861 -0.0823046863079071 4456788 4 -1
-4.528990268707275 2.800516366958618 -0.6995898485183716 4456788 0 -1
3.004032850265503 4.451759338378906 -0.04115234315395355 2328718 5 -1
3.004032850265503 4.451759338378906 -0.04115234315395355 2328718 5 -1
-1.8819842338562012 4.996723651885986 0.8280350565910339 4456788 4 -1
-1.5242459774017334 5.1557488441467285 -0.5382227897644043 4456788 4 -1
-1.853812575340271 5.046627521514893 0.5382227897644043 4456788 4 -1
-1.5314600467681885 5.180150508880615 -0.12420525401830673 4456788 4 -1
-1.5316848754882812 5.180911064147949 -0.08280350267887115 4456788 4 -1
-1.530245065689087 5.1760406494140625 -0.24841050803661346 4456788 4 -1
-1.5307401418685913 5.177715301513672 -0.20700876414775848 4456788 4 -1
-1.6974220275878906 5.129502773284912 0.04140175133943558 4456788 4 -1
-1.6972724199295044 5.1290507316589355 0.08280350267887115 4456788 4 -1
-1.7384140491485596 5.114415168762207 0.12420525401830673 4456788 4 -1
-1.6974220275878906 5.129502773284912 0.04140175133943558 4456788 4 -1
-4.5792412757873535 2.8315892219543457 -0.45541927218437195 4456788 0 -1
3.062920093536377 4.449477195739746 -0.12420525401830673 2782862 5 -1
3.26458740234375 4.292728900909424 0.3312140107154846 2718350 5 -1
3.021529197692871 4.477687835693359 0.12420525401830673 2523534 5 -1
3.021972894668579 4.4783453941345215 0.08280350267887115 2328718 5 -1
3.0222392082214355 4.4787397384643555 0.04140175133943558 2264205 5 -1
2.9395244121551514 4.533646583557129 0 2199437 5 -1
3.1050403118133545 4.4217376708984375 0.04140175133943558 2199437 5 -1
3.0637295246124268 4.450653076171875 0 2134668 5 -1
-1.9131953716278076 5.07958984375 0.2915581166744232 4456788 4 -1
-1.5381947755813599 5.202930450439453 -0.3332092761993408 4456788 4 -1
-1.5394634008407593 5.207221508026123 -0.24990695714950562 4456788 4 -1
-1.5388745069503784 5.205229759216309 -0.2915581166744232 4456788 4 -1
-1.582000494003296 5.197795391082764 -0.1666046380996704 4456788 4 -1
-1.5406856536865234 5.211356163024902 -0.12495347857475281 4456788 4 -1
-1.5399614572525024 5.208906173706055 -0.208255797624588 4456788 4 -1
-1.8131252527236938 5.062989711761475 0.7913720607757568 4456788 4 -1
-1.8170362710952759 5.073911190032959 0.7080697417259216 4456788 4 -1
-1.6463664770126343 5.113033294677734 0.833023190498352 4456788 4 -1
-1.7072463035583496 5.159191131591797 0.12495347857475281 4456788 4 -1
-1.7072463035583496 5.159191131591797 0.12495347857475281 4456788 4 -1
-1.6659975051879883 5.173999786376953 0.0416511595249176 4456788 4 -1
-1.707497000694275 5.159948825836182 -0.0833023190498352 4456788 4 -1
-1.7286847829818726 5.085792064666748 -0.833023190498352 4456788 4 -1
-4.618390083312988 2.855797052383423 0.24990695714950562 4456788 0 -1
2.998090982437134 4.532482147216797 0.12495347857475281 2977934 5 -1
3.3002474308013916 4.25368595123291 0.7497208714485168 2977934 5 -1
3.040445327758789 4.505720138549805 0.0416511595249176 2912910 5 -1
3.3202357292175293 4.279448509216309 0.45816275477409363 2912910 5 -1
3.038302421569824 4.502544403076172 0.208255797624588 2718350 5 -1
3.2869622707366943 4.322150230407715 0.24990695714950562 2718350 5 -1
3.038302421569824 4.502544403076172 0.208255797624588 2588302 5 -1
3.0391061305999756 4.503735542297363 0.1666046380996704 2523534 5 -1
3.040445327758789 4.505720138549805 0.0416511595249176 2199437 5 -1
3.082185745239258 4.47746467590332 0 2134668 5 -1
-1.881036639213562 5.120739459991455 0.37710511684417725 4456788 4 -1
-1.87881600856781 5.114694118499756 0.4609062373638153 4456788 4 -1
-1.876147747039795 5.107430458068848 0.5447073578834534 4456788 4 -1
-1.5491827726364136 5.240097522735596 -0.20950284600257874 4456788 4 -1
-1.5491827726364136 5.240097522735596 -0.20950284600257874 4456788 4 -1
-1.87881600856781 5.114694118499756 0.4609062373638153 4456788 4 -1
-1.7953131198883057 5.144598960876465 0.4609062373638153 4456788 4 -1
-1.8279167413711548 5.1042938232421875 0.7123096585273743 4456788 4 -1
-1.6617424488067627 5.160785675048828 0.7123096585273743 4456788 4 -1
-1.8382047414779663 5.133022308349609 0.41900569200515747 4456788 4 -1
-1.6755797863006592 5.20375919342041 0.12570171058177948 4456788 4 -1
-1.7146925926208496 5.1816935539245605 0.335204541683197 4456788 4 -1
-1.675825834274292 5.20452356338501 -0.08380113542079926 4456788 4 -1
-1.843408465385437 5.147552967071533 -0.08380113542079926 4456788 4 -1
-1.6760227680206299 5.205134868621826 0 4456788 4 -1
-1.8382047414779663 5.133022308349609 -0.41900569200515747 4456788 4 -1
-1.7465482950210571 5.138346195220947 -0.670409083366394 4456788 4 -1
-4.647548198699951 2.8738272190093994 0.20950284600257874 4456788 0 -1
2.9706578254699707 4.581664085388184 0.2933039665222168 3238030 5 -1
3.0160436630249023 4.559622764587402 0.12570171058177948 2977934 5 -1
3.326758623123169 4.287856101989746 0.670409083366394 2977934 5 -1
3.0160436630249023 4.559622764587402 0.12570171058177948 2912910 5 -1
3.335373640060425 4.298959732055664 0.5447073578834534 2912910 5 -1
3.016752243041992 4.560694217681885 0.04190056771039963 2782862 5 -1
3.055507183074951 4.528040885925293 0.25140342116355896 2718350 5 -1
3.012498140335083 4.554262638092041 0.2933039665222168 2588302 5 -1
3.058382272720337 4.532301425933838 0.08380113542079926 2199437 5 -1
3.0586516857147217 4.532700538635254 0.04190056771039963 2134668 5 -1
3.058382272720337 4.532301425933838 0.08380113542079926 2070155 5 -1
-1.983573317527771 4.7823567390441895 1.7598237991333008 3651704 0 -1
-1.8931819200515747 5.153802394866943 0.3371998071670532 4456788 4 -1
-1.8899993896484375 5.145138740539551 0.4636497497558594 4456788 4 -1
-1.887315273284912 5.137831687927246 0.5479496717453003 4456788 4 -1
-1.887315273284912 5.137831687927246 0.5479496717453003 4456788 4 -1
-1.8858036994934082 5.133716583251953 0.5900996923446655 4456788 4 -1
-1.8479994535446167 5.160372734069824 0.4636497497558594 4456788 4 -1
-1.8479994535446167 5.160372734069824 0.4636497497558594 4456788 4 -1
-1.6799994707107544 5.217485427856445 0.4636497497558594 4456788 4 -1
-1.8479994535446167 5.160372734069824 -0.4636497497558594 4456788 4 -1
-1.7240347862243652 5.209925174713135 0.37934979796409607 4456788 4 -1
-4.676449298858643 2.891698122024536 0.1685999035835266 4456788 0 -1
2.9855237007141113 4.604591369628906 0.37934979796409607 3107982 5 -1
3.033996343612671 4.586763381958008 0.12644992768764496 2782862 5 -1
3.076586961746216 4.559279441833496 0.0842999517917633 2199437 5 -1
3.076857805252075 4.559680938720703 0.04214997589588165 2134668 5 -1
3.0769481658935547 4.559814929962158 0 2070155 5 -1
-1.9011828899383545 5.175583362579346 0.46639323234558105 4456788 4 -1
-1.899889588356018 5.172062397003174 0.5087926387786865 4456788 4 -1
-1.896962285041809 5.164093971252441 0.5935913920402527 4456788 4 -1
-1.6909892559051514 5.251615524291992 0.423993855714798 4456788 4 -1
-1.6111292839050293 5.2935004234313965 0.04239938408136368 4456788 4 -1
-4.543811321258545 2.8096811771392822 -1.4415791034698486 4456788 0 -1
3.164138078689575 4.505896091461182 -0.5511919856071472 4600703 5 -1
3.176591396331787 4.523630142211914 -0.25439631938934326 4536450 5 -1
3.1723833084106445 4.517637729644775 -0.3815944492816925 4471684 5 -1
2.95923113822937 4.656378746032715 0.423993855714798 3302798 5 -1
3.2219748497009277 4.497818470001221 -0.08479876816272736 2523534 5 -1
3.2222585678100586 4.498214244842529 -0.04239938408136368 2458766 5 -1
3.2219748497009277 4.497818470001221 0.08479876816272736 2328718 5 -1
3.0523972511291504 4.61458158493042 -0.08479876816272736 2134668 5 -1
2.95923113822937 4.656378746032715 -0.423993855714798 2139270 5 -1
2.953195571899414 4.646881103515625 -0.5511919856071472 2271109 5 -1
-1.6987247467041016 5.275639533996582 -0.5117855072021484 4456788 4 -1
-1.9110653400421143 5.202486515045166 0.5117855072021484 4456788 4 -1
-1.8641107082366943 5.205362319946289 0.6397318840026855 4456788 4 -1
-1.8672137260437012 5.214026927947998 0.5544342994689941 4456788 4 -1
-1.7759872674942017 5.2249555587768555 0.725029468536377 4456788 4 -1
-1.7777366638183594 5.230102062225342 0.6823806762695312 4456788 4 -1
-1.7018903493881226 5.285470485687256 0.38383913040161133 4456788 4 -1
-1.576846718788147 5.333670616149902 0.21324396133422852 4456788 4 -1
-1.6631075143814087 5.311003684997559 -0.0852975845336914 4456788 4 -1
-1.6204637289047241 5.324169635772705 0.0852975845336914 4456788 4 -1
-1.5763367414474487 5.331945419311523 0.2558927536010742 4456788 4 -1
-1.5779589414596558 5.337432861328125 0.0426487922668457 4456788 4 -1
-4.64749002456665 3.0601351261138916 0.1279463768005371 4456788 0 -1
3.180201530456543 4.52877140045166 -0.5970830917358398 4726897 5 -1
3.180201530456543 4.52877140045166 -0.5970830917358398 4600703 5 -1
3.189255475997925 4.5416646003723145 -0.42648792266845703 4536450 5 -1
3.189255475997925 4.5416646003723145 -0.42648792266845703 4471684 5 -1
3.18727707862854 4.53884744644165 -0.46913671493530273 4147337 5 -1
3.180201530456543 4.52877140045166 -0.5970830917358398 4017546 5 -1
2.9766385555267334 4.683769226074219 0.42648792266845703 3302798 5 -1
3.1985654830932617 4.554922580718994 -0.0426487922668457 2523534 5 -1
3.1982836723327637 4.554521560668945 -0.0852975845336914 2458766 5 -1
2.9798011779785156 4.688745498657227 -0.3411903381347656 2134668 5 -1
2.9822587966918945 4.692612648010254 -0.2558927536010742 2072968 5 -1
2.9811179637908936 4.690817356109619 -0.2985415458679199 2139270 5 -1
3.0130038261413574 4.646974563598633 -0.5544342994689941 2271109 5 -1
3.0152363777160645 4.650417804718018 -0.5117855072021484 2468738 5 -1
-1.6681112051010132 5.326982021331787 -0.4289819896221161 4456788 4 -1
-1.7154746055603027 5.327658176422119 -0.1286945939064026 4456788 4 -1
-1.7146682739257812 5.325153827667236 -0.21449099481105804 4456788 4 -1
-1.6718015670776367 5.338767051696777 -0.21449099481105804 4456788 4 -1
-1.5864877700805664 5.366281032562256 0.1715928018093109 4456788 4 -1
-1.5432014465332031 5.377348899841309 0.21449099481105804 4456788 4 -1
-1.5432014465332031 5.377348899841309 0.21449099481105804 4456788 4 -1
-1.5432014465332031 5.377348899841309 0.21449099481105804 4456788 4 -1
-1.6270660161972046 5.345861911773682 0.3431856036186218 4456788 4 -1
-1.5432014465332031 5.377348899841309 0.21449099481105804 4456788 4 -1
3.1987991333007812 4.55525541305542 -0.600574791431427 4726897 5 -1
3.196043014526367 4.55133056640625 -0.6434730291366577 4600703 5 -1
3.1793603897094727 4.527573585510254 -0.8579639792442322 4536450 5 -1
3.2037353515625 4.56228494644165 -0.5147783756256104 4471684 5 -1
3.2079060077667236 4.56822395324707 -0.4289819896221161 4147337 5 -1
2.9512736797332764 4.738070964813232 0.4289819896221161 4017546 5 -1
3.1987991333007812 4.55525541305542 -0.600574791431427 4017546 5 -1
3.0020804405212402 4.72380256652832 0.1286945939064026 3887499 5 -1
3.1721363067626953 4.608134746551514 0.21449099481105804 3887499 5 -1
3.217270612716675 4.581559658050537 0.04289820045232773 2458766 5 -1
2.9972269535064697 4.716165065765381 -0.3431856036186218 2328718 5 -1
2.995725154876709 4.713801860809326 -0.38608381152153015 2134668 5 -1
3.045682907104492 4.697375297546387 -0.04289820045232773 2072968 5 -1
2.9138009548187256 4.493973255157471 -1.6301316022872925 2139270 0 -1
-1.8821561336517334 5.123786926269531 -1.24404776096344 5949540 0 -1
-1.7254482507705688 5.358633041381836 -0.12944282591342926 4456788 4 -1
-1.6809773445129395 5.368069648742676 -0.2588856518268585 4456788 4 -1
-1.6795921325683594 5.363646030426025 -0.345180869102478 4456788 4 -1
-1.6396090984344482 5.387073040008545 0 4456788 4 -1
-1.5934592485427856 5.389862060546875 0.345180869102478 4456788 4 -1
-1.5952894687652588 5.396052837371826 0.21573804318904877 4456788 4 -1
-1.5521734952926636 5.4086127281188965 0.21573804318904877 4456788 4 -1
-1.5521734952926636 5.4086127281188965 0.21573804318904877 4456788 4 -1
-1.5926607847213745 5.3871612548828125 0.3883284628391266 4456788 4 -1
-1.6357057094573975 5.374248027801514 0.3883284628391266 4456788 4 -1
-1.5934592485427856 5.389862060546875 0.345180869102478 4456788 4 -1
3.218489646911621 4.492953300476074 -1.0786901712417603 4471684 5 -1
2.9757862091064453 4.777424335479736 0.172590434551239 4341894 5 -1
2.9645726680755615 4.7594218254089355 0.517771303653717 4017546 5 -1
3.017138957977295 4.747497081756592 0.2588856518268585 3887499 5 -1
2.9645726680755615 4.7594218254089355 0.517771303653717 3562893 5 -1
3.009584903717041 4.735610485076904 -0.4746236801147461 2328718 5 -1
2.974036931991577 4.774616241455078 -0.2588856518268585 2199437 5 -1
3.040370225906372 4.689181804656982 -0.690361738204956 2134668 5 -1
2.970097303390503 4.768290996551514 -0.3883284628391266 2070155 5 -1
-1.6459853649139404 5.408022880554199 0.34717613458633423 4456788 4 -1
-1.6432183980941772 5.398931980133057 0.47736719250679016 4456788 4 -1
-1.6442383527755737 5.402283191680908 0.4339701533317566 4456788 4 -1
-1.6442383527755737 5.402283191680908 0.4339701533317566 4456788 4 -1
-1.6026699542999268 5.421017646789551 0.34717613458633423 4456788 4 -1
-1.6039917469024658 5.425488471984863 0.2603820860385895 4456788 4 -1
-1.6026699542999268 5.421017646789551 0.34717613458633423 4456788 4 -1
-1.6442383527755737 5.402283191680908 0.4339701533317566 4456788 4 -1
3.028860092163086 4.7659406661987305 -0.4339701533317566 4726897 5 -1
3.0226824283599854 4.756219863891602 -0.5641612410545349 2328718 5 -1
2.9872653484344482 4.795853614807129 -0.3905731439590454 2199437 5 -1
3.1237595081329346 4.722466468811035 -0.13019104301929474 2070922 5 -1
2.979501247406006 4.783388614654541 -0.5641612410545349 2139270 5 -1
-1.6568104028701782 5.443589687347412 0.2618785500526428 4456788 4 -1
-1.6118807792663574 5.452172756195068 0.34917140007019043 4456788 4 -1
-1.6536880731582642 5.433330535888672 0.43646425008773804 4456788 4 -1
-1.6546156406402588 5.436378479003906 0.39281782507896423 4456788 4 -1
-1.6118807792663574 5.452172756195068 0.34917140007019043 4456788 4 -1
2.994224786758423 4.807026386260986 -0.6110499501228333 4726897 5 -1
2.994224786758423 4.807026386260986 -0.6110499501228333 4536450 5 -1
2.982820987701416 4.788718223571777 -0.7856356501579285 4471684 5 -1
2.982820987701416 4.788718223571777 -0.7856356501579285 11918891 5 -1
-1.6202791929244995 5.4805803298950195 0.39506250619888306 4456788 4 -1
3.0113346576690674 4.8344950675964355 -0.6145416498184204 4536450 5 -1
3.0158040523529053 4.745396614074707 -1.0973957777023315 4341894 5 -1
3.1335716247558594 4.737299919128418 -0.7462291717529297 2588302 5 -1
3.1106679439544678 4.79760217666626 0.7063238620758057 4341894 5 -1
3.3990838527679443 4.651495933532715 0.044145241379737854 2588302 5 -1
3.3525750637054443 4.680133819580078 -0.22072620689868927 2523534 5 -1
3.082810163497925 4.850831031799316 -0.3973071575164795 2134668 5 -1
3.279250383377075 4.6698222160339355 -0.794614315032959 2134668 5 -1
3.0709171295166016 4.832117557525635 0.8878929615020752 4726897 5 -1
3.0745155811309814 4.837779521942139 0.8434983491897583 4728182 5 -1
3.1218957901000977 4.8149189949035645 0.7991036772727966 4471684 5 -1
3.169180393218994 4.791132926940918 0.7547090649604797 4341894 5 -1
3.172302007675171 4.795852184295654 0.7103143930435181 4212104 5 -1
3.4183878898620605 4.677912712097168 0 2588302 5 -1
3.0843608379364014 4.853271007537842 0.93752521276474 4726897 5 -1
3.148721933364868 4.856293201446533 0.6696608662605286 4471684 5 -1
3.1869847774505615 4.818049430847168 0.7589489817619324 4341894 5 -1
3.2374181747436523 4.797619819641113 0.6696608662605286 4212104 5 -1
3.1604092121124268 4.874318599700928 0.44644057750701904 2718350 5 -1
3.1613385677337646 4.501909255981445 -1.919694423675537 2718350 0 -1
3.348206043243408 4.7680182456970215 0.044644057750701904 2588302 5 -1
3.1901237964630127 4.822795391082764 0.7143049240112305 2666112 5 -1
3.204789161682129 4.844965934753418 0.763188898563385 4726897 5 -1
3.252500534057617 4.819970607757568 0.7182954549789429 4728182 5 -1
3.252500534057617 4.819970607757568 0.7182954549789429 4729209 5 -1
3.0375723838806152 4.975879192352295 0.5836150646209717 4471684 5 -1
3.29705548286438 4.7896037101745605 0.7182954549789429 4212104 5 -1
3.2705700397491455 4.846748352050781 0.7222859859466553 4726897 5 -1
3.2705700397491455 4.846748352050781 0.7222859859466553 4728182 5 -1
3.2705700397491455 4.846748352050781 0.7222859859466553 4729209 5 -1
3.054447889328003 5.003522872924805 0.5868573784828186 4471684 5 -1
3.3688762187957764 4.797453880310059 0.5868573784828186 4212104 5 -1
3.318434238433838 4.820660591125488 0.6771430969238281 4147337 5 -1
3.288639545440674 4.873526096343994 0.7262765169143677 4726897 5 -1
3.288639545440674 4.873526096343994 0.7262765169143677 4728182 5 -1
3.2854034900665283 4.868730068206787 0.7716687917709351 4729209 5 -1
3.3269262313842773 4.832996845245361 0.8170610666275024 4341894 5 -1
3.330409049987793 4.8380560874938965 0.7716687917709351 4212104 5 -1
3.3396456241607666 4.851473808288574 0.6354919672012329 4147337 5 -1
3.344799041748047 4.8589606285095215 0.5447073578834534 2912910 5 -1
3.2161142826080322 4.960232734680176 0.7302670478820801 4536450 5 -1
3.360686779022217 4.882040500640869 0.5933419466018677 4212104 5 -1
-4.539883136749268 3.8995161056518555 -0.22945548593997955 4456788 0 -1
3.145500898361206 5.049890041351318 0.6883664727210999 4536450 5 -1
-4.887302875518799 3.510185956954956 0.23070253431797028 4456788 0 -1
-4.566702842712402 3.922553062438965 -0.13842152059078217 4456788 0 -1
-4.9737138748168945 3.1754307746887207 1.199653148651123 4725613 0 -1
-4.098532199859619 4.303896903991699 0.968950629234314 4729209 0 -1
3.1138856410980225 5.100888729095459 0.7382481098175049 4536450 5 -1
-4.6279473304748535 3.880877733230591 0.4175092279911041 4456788 0 -1
-4.109743595123291 4.315670013427734 1.0669680833816528 4456788 0 -1
-5.381374835968018 2.6593778133392334 0.7886285185813904 4456788 0 -1
-5.037876605987549 3.115187883377075 1.2525277137756348 4456788 0 -1
-4.591387748718262 3.943755865097046 -0.13916973769664764 4456788 0 -1
-4.591387748718262 3.943755865097046 -0.13916973769664764 4523353 0 -1
-4.892179012298584 3.221250295639038 1.5308672189712524 4725613 0 -1
-3.937466621398926 4.587409973144531 -0.32472941279411316 4725613 0 -1
-4.11534309387207 4.321549892425537 1.020578145980835 4729209 0 -1
-3.7174012660980225 4.510721683502197 1.5772570371627808 4729209 0 -1
3.364021062850952 4.985236167907715 0.6958487033843994 4536450 5 -1
-5.609058380126953 2.2667341232299805 0.2319495677947998 3107982 0 -1
-3.5305521488189697 4.642455577850342 1.6236469745635986 3107982 0 -1
-3.5812582969665527 4.434150695800781 2.04115629196167 2458766 0 -1
3.5568912029266357 4.867448329925537 0.5566789507865906 2458766 5 -1
5.094418048858643 3.1501505374908447 -0.8814083933830261 2458766 0 -1
-5.6977458000183105 2.020808458328247 0.32472941279411316 2070155 0 -1
-4.4239182472229 4.074084281921387 0.6958487033843994 2070155 0 -1
-4.615123748779297 3.9641435146331787 -0.18655729293823242 4456788 0 -1
-4.663384437561035 3.9105944633483887 -0.09327864646911621 4523353 0 -1
-4.428654193878174 4.171429634094238 -0.18655729293823242 4523353 0 -1
-5.346254825592041 2.7560975551605225 0.9327864646911621 4725613 0 -1
-4.91848087310791 3.2385690212249756 1.5390976667404175 4725613 0 -1
-4.478686332702637 3.5747358798980713 2.0521302223205566 4725613 0 -1
-3.8191184997558594 4.449526786804199 1.6323763132095337 4725613 0 -1
-3.712231397628784 4.504448413848877 1.72565495967865 4729209 0 -1
3.2682409286499023 5.040627956390381 0.9794257879257202 4017546 5 -1
3.5068230628967285 4.895461082458496 0.886147141456604 4017546 5 -1
-4.80159330368042 3.7361080646514893 0.18655729293823242 3238030 0 -1
-5.425312042236328 2.6810905933380127 0.6529505252838135 3107982 0 -1
-4.258449077606201 4.284548759460449 0.7462291717529297 3107982 0 -1
-3.6172454357147217 4.662264347076416 1.4924583435058594 3107982 0 -1
-0.27234211564064026 5.91749382019043 -1.3991796970367432 3107982 0 -1
3.5904617309570312 4.816421031951904 0.9794257879257202 2458766 5 -1
4.698229789733887 3.2808542251586914 -2.0521302223205566 2458766 0 -1
-4.547921180725098 3.999675750732422 0.6063112020492554 2070155 0 -1
-4.5171074867248535 3.787930488586426 -1.6411055326461792 4456788 0 -1
-4.4857072830200195 3.761598825454712 -1.7817717790603638 4456788 0 -1
-4.541134834289551 3.8080790042877197 -1.6498348712921143 4456788 0 -1
-1.6558071374893188 5.600753307342529 1.9326636791229248 4456788 0 -1
-4.541134834289551 3.8080790042877197 -1.6498348712921143 4456788 0 -1
-4.541134834289551 3.8080790042877197 -1.6498348712921143 4456788 0 -1
-4.8082051277160645 3.6450839042663574 -1.628136396408081 4456788 0 -1
-4.869105815887451 3.5941085815429688 -1.6847519874572754 4456788 0 -1
-6.428011894226074 2.1095709800720215 0.2593844532966614 4456788 0 -1
-5.829331874847412 3.248577117919922 1.141291618347168 4456788 0 -1
-4.325219631195068 4.936960697174072 1.6600606441497803 4456788 0 -1
-5.391235828399658 4.087077617645264 -0.2593844532966614 4456788 0 -1
-5.393771171569824 4.0889997482299805 -0.1556306779384613 4456788 0 -1
-5.3945631980896 4.089600086212158 -0.10375379025936127 4523353 0 -1
-6.5364885330200195 1.7638665437698364 0 4725613 0 -1
-6.14719820022583 2.7679102420806885 0.6225227117538452 4725613 0 -1
-4.848288536071777 4.669425010681152 0.7262765169143677 4725613 0 -1
-4.019957065582275 5.078458786010742 1.971321940422058 4725613 0 -1
-6.155200958251953 2.7715137004852295 0.5187689065933228 4729209 0 -1
-5.0172648429870605 4.5160651206970215 0.5187689065933228 4729209 0 -1
-4.378790855407715 4.998108863830566 1.2969223260879517 4729209 0 -1
-6.2763671875 2.536406993865967 0.10375379025936127 4664956 0 -1
-4.606051921844482 4.939960479736328 0.4668920338153839 4664956 0 -1
3.648285388946533 5.406495094299316 -1.8156912326812744 4664956 0 -1
-6.047997951507568 2.9888107776641846 0.570645809173584 4017546 0 -1
-6.637122631072998 1.320019245147705 -0.20750758051872253 4017546 0 -1
-6.137726783752441 2.763645648956299 0.7262765169143677 3107982 0 -1
-5.702611446380615 3.411029577255249 1.2969223260879517 3107982 0 -1
-6.034572124481201 2.982175827026367 0.7262765169143677 2458766 0 -1
-6.461953639984131 2.1207098960876465 0.15637890994548798 4456788 0 -1
-5.789815425872803 3.345395088195801 1.2510312795639038 4456788 0 -1
-5.093358993530273 4.4793620109558105 0.5212630033493042 4456788 0 -1
-4.429384231567383 4.9526777267456055 1.4595364332199097 4456788 0 -1
-5.897570610046387 3.2866053581237793 0.8340208530426025 4456788 0 -1
-4.566627502441406 4.897677898406982 1.1989049911499023 4456788 0 -1
6.56309175491333 1.771045446395874 -0.2606315016746521 4456788 0 -1
-5.4171552658081055 4.106727123260498 -0.2606315016746521 4456788 0 -1
-5.418588638305664 4.107813358306885 -0.20850521326065063 4456788 0 -1
-5.419703006744385 4.108658313751221 -0.15637890994548798 4523353 0 -1
-6.514065742492676 1.954788327217102 0.15637890994548798 4725613 0 -1
-4.927369594573975 4.641178607940674 0.6776419281959534 4725613 0 -1
-6.2433929443359375 2.6692423820495605 0.41701042652130127 4729209 0 -1
-5.891767501831055 3.2833712100982666 0.886147141456604 4729209 0 -1
-4.986318111419678 4.592010974884033 0.5733892917633057 4729209 0 -1
-6.03225564956665 3.109744071960449 0.46913671493530273 4664956 0 -1
-5.8275146484375 3.367177963256836 0.9903997182846069 4017546 0 -1
-4.989413261413574 4.594861030578613 0.5212630033493042 4017546 0 -1
-6.515596389770508 1.9552476406097412 0.05212630331516266 3107982 0 -1
-6.180956840515137 2.7831108570098877 0.5733892917633057 3107982 0 -1
-5.805976867675781 3.354733467102051 1.1467785835266113 3107982 0 -1
-4.143874168395996 5.130755424499512 1.668041706085205 3107982 0 -1
-5.975225925445557 3.0803442001342773 1.0425260066986084 2458766 0 -1
-5.519545555114746 3.9642789363861084 0.31275781989097595 2458766 0 -1
-4.630516529083252 4.966198444366455 -0.41701042652130127 2458766 0 -1
-3.9614219665527344 5.4210309982299805 1.0946522951126099 2458766 0 -1
-5.234769821166992 3.8640220165252686 2.0950284004211426 4456788 0 -1
-4.516669750213623 4.94650411605835 1.3617684841156006 4456788 0 -1
6.2300825119018555 2.3667807579040527 1.5188956260681152 4456788 0 -1
-4.60069465637207 4.9342145919799805 1.099889874458313 4456788 0 -1
-5.43410587310791 4.119577407836914 -0.47138139605522156 4456788 0 -1
-5.444514751434326 4.127468109130859 -0.20950284600257874 4456788 0 -1
-5.444514751434326 4.127468109130859 -0.20950284600257874 4456788 0 -1
-5.445634365081787 4.128316879272461 -0.15712712705135345 4523353 0 -1
-6.206305980682373 2.794524908065796 0.6285085082054138 4725613 0 -1
-4.9509453773498535 4.663385391235352 0.6808842420578003 4725613 0 -1
-4.594728946685791 4.927816390991211 1.1522656679153442 4725613 0 -1
-6.330759525299072 2.5583882331848145 0.3142542541027069 4729209 0 -1
-5.925788879394531 3.302330732345581 0.8380113840103149 4729209 0 -1
-5.997690677642822 3.2179667949676514 0.6285085082054138 4664956 0 -1
-6.546195030212402 1.9644298553466797 0.10475142300128937 3107982 0 -1
-6.210530757904053 2.7964272499084473 0.5761328339576721 3107982 0 -1
-6.210530757904053 2.7964272499084473 0.5761328339576721 3107982 0 -1
-5.006767749786377 4.610843658447266 0.6285085082054138 3107982 0 -1
-4.163701057434082 5.155304431915283 1.6760227680206299 3107982 0 -1
-5.398904800415039 3.7701478004455566 1.833149790763855 2458766 0 -1
-4.393226623535156 5.223769664764404 -0.366629958152771 2458766 0 -1
-4.0233283042907715 5.505747318267822 0.47138139605522156 2458766 0 -1
-4.603757381439209 4.937499523162842 1.263002872467041 4456788 0 -1
6.281363010406494 2.3862619400024414 1.4208781719207764 4456788 0 -1
-5.523041248321533 4.076808452606201 -0.21050047874450684 4456788 0 -1
-5.523041248321533 4.076808452606201 -0.21050047874450684 4456788 0 -1
-5.524177074432373 4.077646732330322 -0.15787535905838013 4523353 0 -1
-6.355664253234863 2.568452835083008 0.42100095748901367 4725613 0 -1
-5.73321008682251 3.545149803161621 1.315627932548523 4725613 0 -1
-4.183528423309326 5.179853916168213 1.6840038299560547 4725613 0 -1
-6.362964153289795 2.5714027881622314 0.26312559843063354 4729209 0 -1
-5.954006671905518 3.318056106567383 0.8420019149780273 4729209 0 -1
-5.734466552734375 4.232871055603027 -0.10924076288938522 4456788 0 -1
-2.6415224075317383 6.520730495452881 1.1470280885696411 4456788 0 -1
-5.935372352600098 4.026551246643066 0.5511919856071472 4456788 0 -1
-2.524825096130371 6.3835601806640625 2.149648666381836 4456788 0 -1
-2.283301830291748 6.542965888977051 1.9291719198226929 4456788 0 -1
-6.1175127029418945 3.7827844619750977 0.11023839563131332 4456788 0 -1
-5.766530990600586 3.6815991401672363 -2.325481414794922 4456788 0 -1
-6.049343585968018 4.103869438171387 -1.0756973028182983 4456788 0 -1
-5.704566955566406 4.668159008026123 -0.509540855884552 4456788 0 -1
-1.904666543006897 6.841897487640381 2.038163423538208 4456788 0 -1
-1.5165507793426514 6.903984546661377 2.1513946056365967 4456788 0 -1
-6.955471038818359 2.466883420944214 2.2461698055267334 4728182 0 -1
-7.0016021728515625 2.4832446575164795 2.1962881088256836 4728182 0 -1
-4.874664783477783 5.796224117279053 -2.0436503887176514 4456788 0 -1
-4.60154914855957 6.172743320465088 -1.5026839971542358 4456788 0 -1
-4.526226043701172 6.445580005645752 -0.12071353942155838 4456788 0 -1
-4.896332740783691 6.062415599822998 -1.8406320810317993 4456788 0 -1
-4.613253593444824 6.440018653869629 -1.1657336950302124 4456788 0 -1
-4.474135398864746 6.630345344543457 -0.36812642216682434 4456788 0 -1
-4.49232292175293 6.6572980880737305 -0.3696228563785553 4456788 0 -1
-5.517118453979492 6.297436237335205 -2.330718994140625 4456788 0 -1
-5.212101459503174 6.717872142791748 -1.7979832887649536 4456788 0 -1
-3.9945313930511475 7.398859024047852 -2.1975350379943848 4456788 0 -1
-3.6101441383361816 7.76846981048584 -1.465023398399353 4456788 0 -1
-4.899370193481445 7.11727237701416 -0.9322876334190369 4456788 0 -1
-4.461531162261963 7.457805156707764 -0.06659197062253952 4456788 0 -1
-3.0617916584014893 8.12914752960205 -0.2663678824901581 4456788 0 -1
-5.620851993560791 6.415841579437256 -1.6647993326187134 4456788 0 -1
-5.035818576812744 7.029911518096924 -0.8656956553459167 4456788 0 -1
-4.7230305671691895 7.284359455108643 -0.3995518386363983 4456788 0 -1
-3.7768640518188477 7.779101848602295 -0.8656956553459167 4456788 0 -1
-2.862109661102295 8.201581001281738 0.2663678824901581 4456788 0 -1
-4.456944465637207 7.450138092041016 -0.3995518386363983 4456788 0 -1
-5.512499809265137 6.2921648025512695 -2.4731311798095703 4456788 0 -1
-5.213621139526367 6.7198309898376465 -1.9384000301361084 4456788 0 -1
-3.6792795658111572 7.744987964630127 -1.6041932106018066 4456788 0 -1
-4.478240966796875 7.485736846923828 -0.06684137880802155 4456788 0 -1
-3.006448984146118 8.18444538116455 -0.2673655152320862 4456788 0 -1
-6.997294902801514 4.886331081390381 -1.8047173023223877 4456788 0 -1
-5.641903877258301 6.439870834350586 -1.671034574508667 4456788 0 -1
-5.0546793937683105 7.056240558624268 -0.8689379692077637 4456788 0 -1
