VERSION .7
FIELDS x y z rgb label object
SIZE 4 4 4 4 4 4
TYPE F F F I I I
COUNT 1 1 1 1 1 1
WIDTH 686
HEIGHT 1
POINTS 686
VIEWPOINT 0 0 0 1 0 0 0
DATA ascii
-2.1820430755615234 1.7856086492538452 -0.5048021078109741 4456788 0 -1
-2.0543642044067383 1.9785743951797485 -0.2633749842643738 4456788 0 -1
-1.573555588722229 2.3788845539093018 -0.2633749842643738 4456788 0 -1
-1.3826781511306763 2.508436679840088 0.021947916597127914 4456788 0 -1
-1.6103075742721558 2.339279890060425 -0.37311458587646484 4456788 0 -1
-1.4474990367889404 2.4692587852478027 -0.10973957926034927 4456788 0 -1
-1.4262375831604004 2.483152389526367 -0.06584374606609344 4456788 0 -1
-1.7043144702911377 2.2410671710968018 -0.5267499685287476 4456788 0 -1
-1.5723904371261597 2.3771231174468994 -0.285322904586792 4456788 0 -1
-2.0528430938720703 1.9771093130111694 -0.285322904586792 4456788 0 -1
-1.5505516529083252 2.391425371170044 -0.285322904586792 4456788 0 -1
-1.715411901473999 2.255659580230713 -0.41701042652130127 4456788 0 -1
-1.5772782564163208 2.384512424468994 -0.17558333277702332 4456788 0 -1
-1.6336761713027954 2.326439142227173 -0.35116666555404663 4456788 0 -1
-1.5537207126617432 2.396312952041626 -0.21947915852069855 4456788 0 -1
-1.5576351881027222 2.354816198348999 -0.4828541576862335 4456788 0 -1
-1.569777488708496 2.3731727600097656 -0.3292187452316284 4523353 0 -1
-1.8796945810317993 2.0585780143737793 -0.6584374904632568 4725613 0 -1
-1.7546148300170898 2.216625213623047 -0.4609062373638153 4725613 0 -1
-1.6365948915481567 2.3305957317352295 -0.3072708249092102 4725613 0 -1
-1.6118937730789185 2.3415839672088623 -0.35116666555404663 3651704 0 -1
-1.6302107572555542 2.3681929111480713 -0.35515719652175903 4456788 0 -1
-1.7284932136535645 2.2728607654571533 -0.48834115266799927 4456788 0 -1
-1.5722579956054688 2.424903154373169 -0.19977591931819916 4456788 0 -1
-2.0998125076293945 1.9778515100479126 -0.2663678824901581 4456788 0 -1
-1.5299959182739258 2.4563052654266357 -0.13318394124507904 4456788 0 -1
-1.7148442268371582 2.3003759384155273 -0.3995518386363983 4456788 0 -1
-1.5743435621261597 2.4281198978424072 -0.13318394124507904 4456788 0 -1
-1.7261414527893066 2.269768238067627 -0.5105384588241577 4456788 0 -1
-1.5713766813278198 2.423543930053711 -0.2219732403755188 4456788 0 -1
-1.7261414527893066 2.269768238067627 -0.5105384588241577 4456788 0 -1
-1.548283576965332 2.436239004135132 -0.24417057633399963 4456788 0 -1
-1.5731922388076782 2.3783352375030518 -0.5105384588241577 4456788 0 -1
-1.584590196609497 2.395566463470459 -0.37735453248023987 4523353 0 -1
-1.5218902826309204 2.4930243492126465 -0.22446732223033905 4456788 0 -1
-1.5729501247406006 2.4259707927703857 -0.47138139605522156 4456788 0 -1
-2.038811206817627 2.140969753265381 -0.18156912922859192 4456788 0 -1
-1.5604610443115234 2.5052151679992676 -0.2496575564146042 4456788 0 -1
-1.5388002395629883 2.5207247734069824 -0.2269614040851593 4456788 0 -1
-2.0348868370056152 2.1824028491973877 -0.25240105390548706 4456788 0 -1
-1.857224941253662 2.3462538719177246 0.11472774296998978 4456788 0 -1
-2.015411138534546 2.207210063934326 -0.18356439471244812 4456788 0 -1
-1.8814797401428223 2.3295624256134033 -0.022945549339056015 4456788 0 -1
-1.8813140392303467 2.329357147216797 -0.04589109867811203 4523353 0 -1
-2.190061569213867 2.016876459121704 -0.3212376832962036 4664956 0 -1
-2.064857006072998 2.168320417404175 -0.04589109867811203 4664956 0 -1
-1.898881435394287 2.3041164875030518 0.22945548593997955 4664956 0 -1
-1.9083343744277954 2.17824125289917 0.8814083933830261 4456788 0 -1
-1.9351630210876465 2.163785934448242 0.8582134246826172 4456788 0 -1
-1.8785709142684937 2.373220443725586 -0.04638991504907608 4456788 0 -1
-1.9715135097503662 2.2969441413879395 0.02319495752453804 4523353 0 -1
-1.8782950639724731 2.3728718757629395 -0.06958486884832382 4523353 0 -1
-1.9927124977111816 2.3216423988342285 -0.023444365710020065 4456788 0 -1
-1.9288541078567505 2.2016632556915283 0.8908858895301819 4456788 0 -1
-1.9288541078567505 2.2016632556915283 0.8908858895301819 4456788 0 -1
-1.992537021636963 2.3214378356933594 -0.04688873142004013 4456788 0 -1
-1.9927124977111816 2.3216423988342285 -0.023444365710020065 4523353 0 -1
-2.626222848892212 1.6239337921142578 -0.16585642099380493 4456788 0 -1
-2.059844970703125 2.3031978607177734 -0.11846886575222015 4456788 0 -1
-1.8941102027893066 2.441316843032837 0.11846886575222015 4456788 0 -1
-1.7417196035385132 2.5301809310913086 0.35540661215782166 4456788 0 -1
-2.153853416442871 2.2141411304473877 -0.14216263592243195 4456788 0 -1
-2.0137343406677246 2.3461341857910156 0.04738754779100418 4456788 0 -1
-2.0840725898742676 2.2824056148529053 -0.09477509558200836 4456788 0 -1
-2.0124921798706055 2.344686985015869 -0.11846886575222015 4456788 0 -1
-2.0137343406677246 2.3461341857910156 -0.04738754779100418 4523353 0 -1
-2.529198169708252 1.7661824226379395 0.21324396133422852 4664956 0 -1
-2.1757278442382812 2.1890625953674316 -0.18955019116401672 4664956 0 -1
-1.963752269744873 2.382831335067749 0.16585642099380493 4664956 0 -1
-1.492663860321045 2.7079713344573975 0.02369377389550209 4664956 0 -1
-2.0588717460632324 2.350069999694824 -0.04788636416196823 4456788 0 -1
-2.8672494888305664 1.715051531791687 0.5447073578834534 4729209 0 -1
-2.6854496002197266 1.9287586212158203 0.7262765169143677 4600703 0 -1
-2.481455087661743 2.0808844566345215 0.985660970211029 4600703 0 -1
3.1975362300872803 0.8628527522087097 0.7003380656242371 4600703 0 -1
-2.4932072162628174 2.0907394886016846 0.9337840676307678 2006409 0 -1
-3.1303417682647705 0.9393757581710815 0.8819071650505066 2072968 0 -1
-2.462543249130249 2.1151926517486572 0.9597225189208984 2072968 0 -1
-2.92061448097229 1.7469719648361206 0.3142542541027069 4456788 0 -1
-2.9109137058258057 1.7411695718765259 0.41900569200515747 4523353 0 -1
-2.8983936309814453 1.7336806058883667 0.5237571001052856 4729209 0 -1
-3.256106376647949 0.647588312625885 0.8118234872817993 4600703 0 -1
-2.3914973735809326 2.1525986194610596 1.1522656679153442 4212104 0 -1
-3.1787943840026855 0.8577952980995178 0.9165748953819275 4212104 0 -1
-2.901789903640747 1.7357120513916016 0.4975692331790924 4017546 0 -1
-2.690234899520874 1.985784888267517 0.7070720791816711 2264205 0 -1
3.175009250640869 1.1260744333267212 0.5761328339576721 2264205 0 -1
-3.1535658836364746 0.9463449716567993 0.9165748953819275 2072968 0 -1
-2.780052661895752 1.885985255241394 0.6285085082054138 2072968 0 -1
-2.442892551422119 2.1484055519104004 1.0475142002105713 2072968 0 -1
3.207862138748169 0.9626386165618896 0.6808842420578003 2072968 0 -1
-2.567718267440796 2.4185805320739746 -0.3805968165397644 4456788 0 -1
-2.0928361415863037 2.8074326515197754 -0.570895254611969 4456788 0 -1
-1.9476200342178345 2.9443912506103516 -0.35341134667396545 4456788 0 -1
-2.1644694805145264 2.7343995571136475 -0.6524516940116882 4456788 0 -1
-1.9983940124511719 2.9030497074127197 -0.40778231620788574 4456788 0 -1
-2.195976972579956 2.774203062057495 -0.5486978888511658 4456788 0 -1
-2.0922975540161133 2.8632168769836426 -0.4938281178474426 4456788 0 -1
-1.9669444561004639 2.9736056327819824 -0.3292187452316284 4456788 0 -1
-2.2198872566223145 2.861210584640503 -0.41900569200515747 4456788 0 -1
-2.229376792907715 2.873441457748413 0.25140342116355896 4456788 0 -1
-2.6809277534484863 2.468925952911377 0.08380113542079926 4523353 0 -1
-3.358041763305664 1.1020556688308716 0.8938787579536438 4725613 0 -1
-3.071599245071411 2.022491693496704 -0.05636623874306679 4456788 0 -1
-2.3954949378967285 2.790910482406616 -0.028183119371533394 4456788 0 -1
-2.09572434425354 2.984419822692871 0.47911304235458374 4456788 0 -1
-1.4338159561157227 3.3005313873291016 -0.7609442472457886 4456788 0 -1
-2.8959505558013916 2.2533318996429443 0.2536480724811554 4456788 0 -1
-2.5367512702941895 2.5522987842559814 0.7609442472457886 4456788 0 -1
-2.756751775741577 2.424429178237915 -0.22546495497226715 4456788 0 -1
-2.181380033493042 2.8115785121917725 0.9300429821014404 4456788 0 -1
-2.8323378562927246 2.3177573680877686 0.36638057231903076 4456788 0 -1
-2.7502453327178955 2.4187073707580566 0.3381974399089813 4456788 0 -1
-2.1295571327209473 2.972823143005371 0.3945636749267578 4456788 0 -1
-2.7460079193115234 2.41498064994812 0.3945636749267578 4456788 0 -1
-2.8372180461883545 2.26457142829895 0.5918455123901367 4456788 0 -1
-2.760648250579834 2.427855968475342 -0.11273247748613358 4523353 0 -1
-2.7880804538726807 2.3948113918304443 0.14091560244560242 4657508 0 -1
-1.9818776845932007 3.056662082672119 0.5072961449623108 4657508 0 -1
-3.359117269515991 1.1024086475372314 1.0145922899246216 4725613 0 -1
-2.3236968517303467 2.8195905685424805 0.42274680733680725 2328718 0 -1
-2.06333065032959 2.997382402420044 0.5354793071746826 2328718 0 -1
1.7554173469543457 3.1196188926696777 -0.8454936146736145 2328718 0 -1
2.3026206493377686 2.682706117630005 -1.0145922899246216 2328718 0 -1
-2.7502453327178955 2.4187073707580566 0.3381974399089813 2264205 0 -1
-3.1472294330596924 1.8825222253799438 -0.28183120489120483 7589974 0 -1
-2.505645513534546 2.687288284301758 -0.16909871995449066 7589974 0 -1
-3.5205583572387695 1.155390977859497 0.19902770221233368 4456788 0 -1
-3.0684585571289062 2.081639528274536 -0.14216263592243195 4456788 0 -1
3.5815517902374268 0.9664790630340576 -0.0852975845336914 4456788 0 -1
-3.3892922401428223 1.4490265846252441 0.42648792266845703 4456788 0 -1
-2.602837562561035 2.5625104904174805 0.6539481282234192 4456788 0 -1
-2.778195858001709 2.4432883262634277 0.2843252718448639 4456788 0 -1
-2.808119058609009 2.4120235443115234 0.2558927536010742 4456788 0 -1
-2.836483955383301 2.3786025047302246 0.2558927536010742 4456788 0 -1
-2.8662848472595215 2.345536947250366 0.22746022045612335 4456788 0 -1
-2.606383800506592 2.5660016536712646 0.6255156397819519 4456788 0 -1
-2.8107683658599854 2.414299249649048 0.19902770221233368 4456788 0 -1
-2.776472568511963 2.441772699356079 0.31275781989097595 4456788 0 -1
-2.772529363632202 2.438304901123047 0.3696228563785553 4456788 0 -1
-2.7653682231903076 2.432007074356079 0.4549204409122467 4456788 0 -1
-2.808119058609009 2.4120235443115234 -0.2558927536010742 4523353 0 -1
-2.8118438720703125 2.4152231216430664 0.1705951690673828 4657508 0 -1
-2.7834415435791016 2.447901725769043 0.1705951690673828 4724328 0 -1
-2.798577308654785 2.4038279056549072 0.39805540442466736 4212104 0 -1
-2.8379058837890625 2.3797948360443115 0.22746022045612335 3432845 0 -1
-2.6097679138183594 2.56933331489563 0.5970830917358398 3432845 0 -1
-2.7834415435791016 2.447901725769043 0.1705951690673828 2264205 0 -1
-2.5188751220703125 2.6450881958007812 0.6539481282234192 2199437 0 -1
-3.178454637527466 1.9011995792388916 -0.22746022045612335 2006409 0 -1
-2.8048038482666016 2.4091761112213135 0.31275781989097595 2139270 0 -1
-2.5255820751190186 2.6521310806274414 0.5970830917358398 2139270 0 -1
-3.3610479831695557 1.5133854150772095 0.42648792266845703 6933851 0 -1
-2.6471147537231445 2.54945707321167 0.5117855072021484 6933851 0 -1
-2.4395077228546143 2.671666383743286 0.824543297290802 6933851 0 -1
-2.6471147537231445 2.54945707321167 0.5117855072021484 11197490 0 -1
-3.6424989700317383 0.8618983030319214 0.028681935742497444 4456788 0 -1
-3.421971321105957 1.4629979133605957 0.4015471041202545 4456788 0 -1
-2.834171772003174 2.434401512145996 0.22945548593997955 4456788 0 -1
-2.8354241847991943 2.4354772567749023 0.20077355206012726 4456788 0 -1
-2.832751750946045 2.4331817626953125 0.25813743472099304 4456788 0 -1
-2.629246950149536 2.588510513305664 0.6310026049613953 4456788 0 -1
-2.81809139251709 2.4205892086029053 0.4589109718799591 4456788 0 -1
-2.834171772003174 2.434401512145996 0.22945548593997955 4456788 0 -1
-2.8294074535369873 2.430309295654297 0.31550130248069763 4456788 0 -1
-2.8206937313079834 2.4228246212005615 0.4302290380001068 4456788 0 -1
-2.8123741149902344 2.4156785011291504 0.5162748694419861 4456788 0 -1
-2.795067548751831 2.400813102722168 0.6596845388412476 4523353 0 -1
-2.8374269008636475 2.43719744682312 0.14340968430042267 4657508 0 -1
-2.8381776809692383 2.43784236907959 0.11472774296998978 4724328 0 -1
-2.8231263160705566 2.4249141216278076 0.4015471041202545 4212104 0 -1
-2.832751750946045 2.4331817626953125 0.25813743472099304 3432845 0 -1
-2.838761329650879 2.4383437633514404 0.08604580909013748 2264205 0 -1
-3.011603355407715 2.223001480102539 0 2006409 0 -1
-2.8294074535369873 2.430309295654297 0.31550130248069763 2139270 0 -1
-2.9532690048217773 2.1211135387420654 0.8891400098800659 3651704 0 -1
-3.362039089202881 1.5884225368499756 0.4302290380001068 6933851 0 -1
-2.4329421520233154 2.7203733921051025 0.8317761421203613 6933851 0 -1
-2.83935809135437 2.152507781982422 1.1472774744033813 7589974 0 -1
-3.4544942378997803 1.4769023656845093 0.37610748410224915 4456788 0 -1
-2.8251826763153076 2.4846107959747314 0.3182447850704193 4456788 0 -1
-2.8611745834350586 2.4575953483581543 0.17358806729316711 4456788 0 -1
-2.9785284996032715 2.3175857067108154 0.11572537571191788 4456788 0 -1
-2.828521728515625 2.4875476360321045 0.2603820860385895 4456788 0 -1
-2.8211703300476074 2.4810822010040283 0.37610748410224915 4456788 0 -1
-2.839799165725708 2.439235210418701 0.4918328523635864 4456788 0 -1
-2.847675323486328 2.446000337600708 0.40503883361816406 4456788 0 -1
-2.857384204864502 2.4543397426605225 0.2603820860385895 4456788 0 -1
-2.854011058807373 2.451442241668701 0.3182447850704193 4456788 0 -1
-2.836829423904419 2.4366843700408936 0.520764172077179 4456788 0 -1
-2.833686590194702 2.4339847564697266 0.5496955513954163 4456788 0 -1
-2.8268795013427734 2.42813777923584 0.6075582504272461 4523353 0 -1
-2.7822265625 2.3897833824157715 -0.8968716859817505 4657508 0 -1
-2.86210036277771 2.458390474319458 0.1446567177772522 4724328 0 -1
-3.487398862838745 0.9410719275474548 1.0993911027908325 2006409 0 -1
-2.864311695098877 2.2287137508392334 1.041528344154358 2006409 0 -1
-3.0383248329162598 2.1217141151428223 0.723283588886261 3651704 0 -1
-3.3912742137908936 1.6022348403930664 0.4339701533317566 6933851 0 -1
-2.818788766860962 2.478987693786621 0.641976535320282 4456788 0 -1
-2.88360595703125 2.4181177616119385 0.5836150646209717 4456788 0 -1
-2.786229372024536 2.507899045944214 0.6711573004722595 4456788 0 -1
-2.818788766860962 2.478987693786621 0.641976535320282 4523353 0 -1
-2.94059157371521 2.288067102432251 0.7878803014755249 2006409 0 -1
-2.8239681720733643 2.6006548404693604 -0.11772064119577408 4456788 0 -1
-3.309067964553833 1.9120022058486938 -0.3825920820236206 4456788 0 -1
-2.853971242904663 2.568873882293701 0.08829048275947571 4456788 0 -1
3.1619317531585693 2.018712043762207 -0.8240445256233215 4456788 0 -1
-3.644958019256592 0.9835891723632812 -0.7063238620758057 4523353 0 -1
-3.322286605834961 1.56964111328125 1.118346095085144 4725613 0 -1
-3.6704187393188477 1.1014460325241089 -0.5639117956161499 4456788 0 -1
-2.6839520931243896 2.700401782989502 -0.7123096585273743 4456788 0 -1
-3.6783363819122314 1.103821873664856 -0.5045526623725891 4456788 0 -1
-2.95923113822937 2.4815351963043213 -0.29679569602012634 4456788 0 -1
-2.646700143814087 2.720782995223999 0.7716687917709351 4456788 0 -1
-3.7148425579071045 1.002447485923767 -0.4451935291290283 4523353 0 -1
-2.95923113822937 2.4815351963043213 -0.29679569602012634 4523353 0 -1
-2.666935920715332 2.683281421661377 -0.8310279250144958 4523353 0 -1
-2.992546319961548 2.509472370147705 -0.05985795333981514 4523353 0 -1
-2.5398523807525635 3.339747190475464 0.16086825728416443 4456788 0 -1
-2.5405242443084717 3.3406307697296143 0.1286945939064026 4456788 0 -1
-2.5410468578338623 3.341317892074585 -0.09652095288038254 4523353 0 -1
-2.5607447624206543 3.3672194480895996 0.09726917743682861 4456788 0 -1
-4.059487819671631 3.158677339553833 1.300912857055664 4456788 0 -1
-4.5188469886779785 2.702958345413208 -0.650456428527832 4456788 0 -1
-4.081965923309326 3.094524383544922 1.382219910621643 4726897 0 -1
-4.081965923309326 3.094524383544922 1.382219910621643 4726897 0 -1
4.826446533203125 2.0634541511535645 0.7724170088768005 4726897 0 -1
-4.685956001281738 1.893689751625061 1.7179232835769653 4456788 0 -1
-4.966531276702881 1.490392804145813 1.2679909467697144 4456788 0 -1
-4.092421531677246 3.1843032836914062 1.2679909467697144 4456788 0 -1
4.971632480621338 1.7632793188095093 0.8180587291717529 4456788 0 -1
-4.53231954574585 2.711016893386841 -0.7771557569503784 4456788 0 -1
-4.219603538513184 3.030627489089966 1.2270880937576294 4726897 0 -1
-3.8443708419799805 3.3021082878112793 1.6770203113555908 4726897 0 -1
4.861442565917969 2.078416109085083 0.7362528443336487 4726897 0 -1
-3.9033873081207275 3.273280143737793 1.5952144861221313 4017546 0 -1
4.931212902069092 1.8733458518981934 0.8180587291717529 4017546 0 -1
-4.528990268707275 2.800516366958618 -0.6995898485183716 4456788 0 -1
-4.308035850524902 3.008375406265259 1.1111133098602295 4726897 0 -1
5.095682144165039 1.2057546377182007 1.1934179067611694 4726897 0 -1
4.915277004241943 2.1014318466186523 0.7866332530975342 4456788 0 -1
-5.137649059295654 1.0217976570129395 1.3248560428619385 4456788 0 -1
-4.5236639976501465 2.797222852706909 0.9522402882575989 4456788 0 -1
-4.134202003479004 3.2168126106262207 1.3248560428619385 4456788 0 -1
4.966928482055664 2.0072364807128906 0.7038297653198242 4456788 0 -1
-5.201282978057861 1.0344533920288086 1.0350438356399536 4456788 0 -1
-4.572737693786621 2.8275678157806396 -0.5382227897644043 4456788 0 -1
-4.27106237411499 3.0675864219665527 1.2420525550842285 4726897 0 -1
-3.940915107727051 3.3047502040863037 1.6560701131820679 4726897 0 -1
4.749866485595703 2.548466205596924 0.3726157546043396 4726897 0 -1
-5.01723575592041 1.5056085586547852 1.3248560428619385 4726897 0 -1
-4.028395175933838 3.2965145111083984 1.4490612745285034 4600703 0 -1
4.788483619689941 2.4685556888580322 0.41401752829551697 4600703 0 -1
5.1200127601623535 1.38163161277771 1.0350438356399536 4600703 0 -1
-4.448208808898926 2.9289188385009766 0.9108385443687439 4017546 0 -1
-3.9795424938201904 3.337141990661621 1.4904630184173584 4017546 0 -1
-3.477637767791748 3.9695000648498535 1.1592490673065186 4017546 0 -1
4.678398132324219 2.7032105922698975 0 4017546 0 -1
4.965015888214111 2.122696876525879 0.6247674226760864 4456788 0 -1
5.148042678833008 1.2181442975997925 1.2495348453521729 4456788 0 -1
-5.1428446769714355 1.387792706489563 1.0829302072525024 4456788 0 -1
-4.568666934967041 2.8250505924224854 0.833023190498352 4456788 0 -1
-4.230849742889404 3.207392930984497 1.1662324666976929 4456788 0 -1
5.0431084632873535 1.915854573249817 0.6664185523986816 4456788 0 -1
-4.616623401641846 2.8547046184539795 0.2915581166744232 4456788 0 -1
-4.2967915534973145 3.0860657691955566 1.2495348453521729 4726897 0 -1
-5.198058128356934 1.0338119268417358 1.207883596420288 4726897 0 -1
-5.196836948394775 1.402362585067749 0.9637130498886108 4456788 0 -1
-4.2633819580078125 3.232055187225342 1.1313153505325317 4456788 0 -1
5.010176181793213 2.1420042514801025 0.4609062373638153 4456788 0 -1
-4.647548198699951 2.8738272190093994 0.20950284600257874 4456788 0 -1
-4.330418109893799 3.1102170944213867 1.2151165008544922 4726897 0 -1
4.911500453948975 2.3204782009124756 0.6285085082054138 4726897 0 -1
-5.238380432128906 1.0418314933776855 1.1732158660888672 4726897 0 -1
-4.678097724914551 2.8927175998687744 0.0842999517917633 4456788 0 -1
-4.419639587402344 3.0863101482391357 1.0958993434906006 4726897 0 -1
-3.9615771770477295 3.402782440185547 1.7281490564346313 4726897 0 -1
-5.219213962554932 1.2349849939346313 1.2223492860794067 4726897 0 -1
-4.543811321258545 2.8096811771392822 -1.4415791034698486 4456788 0 -1
-4.582503795623779 3.8427698612213135 0.3212376832962036 4456788 0 -1
-4.457058906555176 3.919767141342163 1.0150911808013916 4456788 0 -1
-4.542873859405518 3.995237112045288 0.2319495677947998 4456788 0 -1
-3.972752094268799 4.442098617553711 1.0669680833816528 4456788 0 -1
-4.26630973815918 4.108916759490967 1.2525277137756348 4456788 0 -1
-4.493241310119629 3.8594532012939453 1.2525277137756348 4456788 0 -1
-4.537662029266357 3.9906535148620605 -0.37111932039260864 4456788 0 -1
-4.350270748138428 4.189779758453369 -0.4175092279911041 4456788 0 -1
-4.589229583740234 3.9419021606445312 -0.2319495677947998 4523353 0 -1
-4.917186737060547 3.531649351119995 0.04638991504907608 4657508 0 -1
-4.298247337341309 4.139675617218018 1.020578145980835 4657508 0 -1
-3.9995529651641846 4.4720659255981445 1.0260651111602783 4456788 0 -1
-5.41030740737915 2.673675537109375 0.7928684949874878 4456788 0 -1
-4.606300354003906 3.9565651416778564 0.41975390911102295 4456788 0 -1
-4.234903812408447 4.26085901260376 0.9794257879257202 4456788 0 -1
-4.4243574142456055 4.167382717132568 -0.32647526264190674 4456788 0 -1
-4.6626996994018555 3.910020112991333 -0.13991796970367432 4523353 0 -1
-4.84821081161499 3.675412178039551 0.18655729293823242 4657508 0 -1
-4.544278621673584 3.9964723587036133 0.6529505252838135 4657508 0 -1
-4.165579319000244 4.282176494598389 1.1659830808639526 4657508 0 -1
5.648603439331055 1.8537814617156982 1.305901050567627 4725613 0 -1
-4.792578220367432 4.718323707580566 0.7781534194946289 4456788 0 -1
-5.54123067855835 3.64861798286438 1.348799228668213 4536450 0 -1
6.069316864013672 2.867497682571411 0.8819071650505066 4536450 0 -1
-5.498946666717529 3.730480432510376 1.2969223260879517 2977934 0 -1
-5.20973014831543 4.053678512573242 1.5044299364089966 2977934 0 -1
-3.7482383251190186 5.3376851081848145 1.8156912326812744 2977934 0 -1
5.755630016326904 3.5590131282806396 -0.20750758051872253 2977934 0 -1
6.0394086837768555 2.9845659732818604 0.6743996143341064 2977934 0 -1
-4.806441783905029 4.731972694396973 0.886147141456604 4456788 0 -1
-5.419703006744385 4.108658313751221 -0.15637890994548798 4456788 0 -1
-5.356715202331543 3.84732985496521 1.668041706085205 4536450 0 -1
-6.154151916503906 2.907578706741333 0.6285085082054138 4456788 0 -1
-4.64003324508667 4.872530937194824 1.204641342163086 4456788 0 -1
-5.774263381958008 3.453888416290283 1.204641342163086 4456788 0 -1
-4.767226219177246 4.796444416046143 0.9951384663581848 4456788 0 -1
-5.444514751434326 4.127468109130859 -0.20950284600257874 4456788 0 -1
-5.441314220428467 4.125041961669922 -0.3142542541027069 4523353 0 -1
-5.648126602172852 3.719003677368164 0.9951384663581848 4657508 0 -1
-5.360108375549316 3.849766969680786 1.7807741165161133 4536450 0 -1
6.2715020179748535 2.3825156688690186 1.3093926906585693 4536450 0 -1
-5.766035079956055 3.4489667415618896 1.2570170164108276 2468738 0 -1
-4.038250923156738 5.101569175720215 2.0950284004211426 2468738 0 -1
-5.523041248321533 4.076808452606201 -0.21050047874450684 4456788 0 -1
-4.582305908203125 4.914493083953857 1.4208781719207764 4536450 0 -1
-1.7093547582626343 7.236956596374512 -0.5140301585197449 3692940 0 -1
-3.9526925086975098 5.975638389587402 -2.0561206340789795 2264205 0 -1
-3.5357372760772705 6.414488792419434 -1.5488245487213135 3692940 0 -1
-3.6473240852355957 6.221895694732666 -2.00773549079895 2782862 0 -1
-2.4260823726654053 6.774618148803711 -2.0650994777679443 2782862 0 -1
-3.7660419940948486 6.169192790985107 -1.9503716230392456 2523534 0 -1
-3.4852659702301025 6.455573558807373 -1.4914606809616089 2523534 0 -1
-2.502573013305664 6.812745571136475 -1.8356438875198364 2523534 0 -1
-2.248558521270752 6.983229160308838 -1.4914606809616089 2523534 0 -1
-3.905723810195923 6.023821830749512 -2.1224632263183594 2264205 0 -1
-2.252061605453491 6.994107723236084 -1.4340968132019043 2264205 0 -1
-3.8183786869049072 6.008255481719971 -2.419757843017578 3107982 0 -1
-3.4947433471679688 6.473127841949463 -1.5555585622787476 3107982 0 -1
-3.4947433471679688 6.473127841949463 -1.5555585622787476 3107982 0 -1
-3.8380398750305176 6.161714553833008 -1.9588515758514404 2523534 0 -1
-2.707219123840332 6.682906150817871 -2.1316914558410645 2523534 0 -1
-3.903625249862671 6.020585060119629 -2.246917963027954 2458766 0 -1
-2.564086675643921 6.80772590637207 -1.9012383222579956 2458766 0 -1
-1.9401304721832275 7.189910888671875 -1.037039041519165 2458766 0 -1
-3.8376214504241943 6.1610426902771 -2.083056688308716 3432845 0 -1
-2.5641794204711914 6.807971954345703 -2.0251941680908203 3432845 0 -1
-2.214853525161743 7.07296085357666 -1.446567177772522 3432845 0 -1
-3.922196388244629 5.929534912109375 -2.5459582805633545 3107982 0 -1
-3.922196388244629 5.929534912109375 -2.5459582805633545 3107982 0 -1
-3.691422700881958 6.426955223083496 -1.446567177772522 2070922 0 -1
-3.6022894382476807 6.535226345062256 -1.1572537422180176 2666112 0 -1
-3.1485226154327393 6.627729415893555 -1.9176992177963257 3302798 0 -1
-2.488459348678589 6.948800086975098 -1.7433629035949707 3302798 0 -1
-3.789484977722168 6.207594871520996 -2.1501476764678955 2977934 0 -1
-2.4577269554138184 6.862982749938965 -2.0920355319976807 2977934 0 -1
-2.1604843139648438 7.098452568054199 -1.5690265893936157 2977934 0 -1
-3.9273831844329834 6.05722713470459 -2.324483871459961 2912910 0 -1
-3.5603907108306885 6.594723224639893 -1.1622419357299805 2666112 0 -1
-2.9177324771881104 7.0345964431762695 -0.11672300845384598 4456788 0 -1
-2.4792306423187256 6.923029899597168 -1.9842911958694458 2977934 0 -1
-3.8232030868530273 6.262828826904297 -2.0426526069641113 2199437 0 -1
-3.2001516819000244 6.736410140991211 -1.6997164487838745 2977934 0 -1
-3.2521378993988037 6.555329322814941 -2.227214813232422 2199437 0 -1
-3.020364761352539 6.645421504974365 -2.285825729370117 2134668 0 -1
-3.302525281906128 6.802119255065918 -1.3537874221801758 2977934 0 -1
-3.3848111629486084 6.82275915145874 -1.000625491142273 2134668 0 -1
-3.7660651206970215 6.692817687988281 0.17658096551895142 7589974 0 -1
-3.3549399375915527 6.910076141357422 -0.05886032059788704 8180304 0 -1
-3.70645809173584 6.724207878112793 0.23544128239154816 8705099 0 -1
-3.353461980819702 6.907032489776611 -0.23544128239154816 8705099 0 -1
-3.7080914974212646 6.727171421051025 0.05886032059788704 9360965 0 -1
-3.782911539077759 6.722756385803223 0.059109728783369064 7589974 0 -1
-3.78302264213562 6.722953796386719 0 8180304 0 -1
-3.3691556453704834 6.939356327056885 -0.059109728783369064 8180304 0 -1
-3.782911539077759 6.722756385803223 0.059109728783369064 8705099 0 -1
-3.368858814239502 6.938745021820068 -0.11821945756673813 8705099 0 -1
-3.78302264213562 6.722953796386719 0 9360965 0 -1
-3.366642713546753 6.934180736541748 -0.7716687917709351 3257723 0 -1
-3.79887318611145 6.75112247467041 0.05935913696885109 8180304 0 -1
-3.383073568344116 6.968022346496582 0.11871827393770218 8180304 0 -1
-3.1769163608551025 6.989866733551025 -1.2517794370651245 10016830 6 -1
-3.172471523284912 7.138689994812012 0 4456788 6 -1
-3.1853160858154297 7.167592525482178 -0.12021472305059433 4456788 6 -1
-3.1855967044830322 7.168223857879639 -0.060107361525297165 4456788 6 -1
-3.18569016456604 7.1684346199035645 0 4456788 6 -1
-3.198063611984253 7.196277141571045 -0.18107031285762787 4456788 6 -1
-3.198063611984253 7.196277141571045 -0.18107031285762787 4456788 6 -1
-3.13818359375 7.223851680755615 -0.12071353942155838 4456788 6 -1
-3.1895041465759277 7.177016735076904 -0.6035677194595337 4456788 6 -1
-3.197406053543091 7.194797039031982 -0.24142707884311676 4456788 6 -1
-5.798653602600098 5.219397068023682 -1.0864218473434448 4456788 0 -1
-3.8023648262023926 6.898200988769531 0.06035676971077919 4456788 0 -1
-3.208730936050415 7.220280647277832 -0.3636370599269867 4456788 6 -1
-3.210618257522583 7.224527835845947 -0.24242471158504486 4456788 6 -1
-3.190840244293213 7.180023193359375 -0.9090926647186279 4456788 6 -1
-3.208730936050415 7.220280647277832 -0.3636370599269867 4456788 6 -1
-3.212033271789551 7.227711200714111 -0.060606177896261215 4456788 6 -1
-3.1872472763061523 7.171937942504883 -1.2171117067337036 4456788 6 -1
-3.221935749053955 7.249993801116943 -0.36513352394104004 4456788 6 -1
-2.9815735816955566 7.360163688659668 0.12171117216348648 4456788 6 -1
-3.222978115081787 7.252339839935303 0.3042779266834259 4456788 6 -1
-2.9209823608398438 7.385171890258789 0.06085558608174324 4456788 6 -1
-2.9202961921691895 7.383437156677246 0.18256676197052002 4456788 6 -1
-2.9209823608398438 7.385171890258789 -0.06085558608174324 4456788 6 -1
-3.269857406616211 7.1943559646606445 -0.7911226153373718 4456788 6 -1
-3.201014995574951 7.202918529510498 -0.9736893773078918 4456788 6 -1
-3.269857406616211 7.1943559646606445 -0.7911226153373718 4456788 6 -1
-3.0405454635620117 7.330695629119873 0.3042779266834259 4728182 6 -1
-2.929938316345215 7.407815456390381 0.366629958152771 4456788 6 -1
-2.9933536052703857 7.389243125915527 0.1833149790763855 4456788 6 -1
-2.9927380084991455 7.387723922729492 0.24441997706890106 4456788 6 -1
-2.9326953887939453 7.414785861968994 0.12220998853445053 4456788 6 -1
-2.9329535961151123 7.415438652038574 0.061104994267225266 4456788 6 -1
-3.2806289196014404 7.218055725097656 -0.8554699420928955 4456788 6 -1
-2.9326953887939453 7.414785861968994 0.12220998853445053 4456788 6 -1
-3.2832584381103516 7.223841190338135 -0.7943649291992188 4456788 6 -1
-3.2248451709747314 7.256540775299072 -0.733259916305542 4456788 6 -1
-3.285691261291504 7.229194164276123 -0.733259916305542 4456788 6 -1
-2.864739418029785 7.242971420288086 -1.710939884185791 4456788 0 -1
-2.9428491592407227 7.440457820892334 0.30677202343940735 4456788 6 -1
-3.004953384399414 7.417877674102783 0.24541760981082916 4456788 6 -1
-3.0041584968566895 7.4159159660339355 0.30677202343940735 4456788 6 -1
-3.0055713653564453 7.419403076171875 0.18406321108341217 4456788 6 -1
-2.944924831390381 7.445705890655518 0.06135440245270729 4456788 6 -1
-2.9442331790924072 7.4439568519592285 -0.18406321108341217 4456788 6 -1
-3.2911810874938965 7.241272449493408 -0.9203160405158997 4456788 6 -1
-2.9442331790924072 7.4439568519592285 -0.18406321108341217 4456788 6 -1
-2.9450113773345947 7.445924282073975 0 4456788 6 -1
-2.9446654319763184 7.445050239562988 0.12270880490541458 4456788 6 -1
-2.944924831390381 7.445705890655518 0.06135440245270729 4456788 6 -1
-3.2422232627868652 7.295644760131836 -0.6135440468788147 4456788 6 -1
-3.1874656677246094 7.3372955322265625 -0.8008495569229126 4456788 6 -1
-3.015394926071167 7.443653106689453 0.3696228563785553 4456788 6 -1
-3.017789125442505 7.449563503265381 0.18481142818927765 4456788 6 -1
-3.2554030418395996 7.3253021240234375 -0.6160380840301514 4456788 6 -1
-3.0163705348968506 7.446061611175537 -0.3080190420150757 4456788 6 -1
-3.2433643341064453 7.29821252822876 -0.9240571856498718 4456788 6 -1
-2.9568960666656494 7.475973129272461 -0.061603810638189316 4456788 6 -1
-2.9562015533447266 7.474216938018799 -0.18481142818927765 4456788 6 -1
-2.9548120498657227 7.470703601837158 -0.3080190420150757 4456788 6 -1
-3.2533836364746094 7.320757865905762 0.6776419281959534 4456788 0 -1
-2.9566357135772705 7.475314617156982 0.12320762127637863 4456788 6 -1
-2.9568960666656494 7.475973129272461 -0.061603810638189316 4456788 6 -1
-3.237183094024658 7.284304141998291 -1.047264814376831 4456788 6 -1
-3.2461612224578857 7.304506301879883 -0.8624533414840698 4456788 6 -1
-2.967559576034546 7.502933979034424 0.24741287529468536 4456788 6 -1
-3.0285825729370117 7.476207733154297 0.3092660903930664 4456788 6 -1
-2.968954563140869 7.506460666656494 0 4456788 6 -1
-3.2665553092956543 7.350396633148193 -0.680385410785675 4456788 6 -1
-4.288568496704102 7.466616153717041 -2.323486328125 4456788 0 -1
-3.50846266746521 8.264106750488281 -0.8290326595306396 4456788 0 -1
-4.490593433380127 7.818352699279785 0 4456788 0 -1
-4.293264389038086 7.629724025726318 -2.2880702018737793 4456788 0 -1
-4.492853164672852 7.984420299530029 -0.5626647472381592 4456788 0 -1
-0.9082708358764648 9.072778701782227 -1.0549964904785156 4523353 4 -1
-0.9114916920661926 9.104951858520508 -1.0587375164031982 4523353 4 -1
-0.9106506705284119 9.096550941467285 -1.1293200254440308 4590430 4 -1
-0.9173300862312317 9.1632719039917 -0.21174751222133636 2458766 4 -1
-0.9174647927284241 9.164617538452148 -0.14116500318050385 2072968 4 -1
-0.6352425217628479 9.189579010009766 0 6343264 4 -1
-0.6352238655090332 9.189309120178223 -0.07058250159025192 6933851 4 -1
-0.9147124886512756 9.137125015258789 -1.0624786615371704 4523353 4 -1
-0.9155012965202332 9.145004272460938 -0.9916467666625977 4726897 4 -1
-0.916235089302063 9.152334213256836 -0.9208148717880249 3887499 4 -1
-0.9155012965202332 9.145004272460938 -0.9916467666625977 3757452 4 -1
-0.9175381660461426 9.165350914001465 -0.7791510224342346 3692940 4 -1
-0.9201388359069824 9.191329002380371 -0.35415956377983093 2458766 4 -1
-0.9203822612762451 9.193760871887207 -0.2833276391029358 2070922 4 -1
-0.8499580025672913 9.20462703704834 0.07083190977573395 3651704 4 -1
-0.7791281342506409 9.210892677307129 0.07083190977573395 4505456 4 -1
-0.7791281342506409 9.210892677307129 0.07083190977573395 4899181 4 -1
-0.7081319689750671 9.214445114135742 0.21249572932720184 6343264 4 -1
-0.7079863548278809 9.212550163269043 0.2833276391029358 6933851 4 -1
-0.7083191275596619 9.216880798339844 0 8180304 4 -1
-0.7079863548278809 9.212550163269043 0.2833276391029358 9360965 4 -1
-0.7791281342506409 9.210892677307129 0.07083190977573395 11197490 4 -1
-0.9194612503051758 9.184560775756836 -0.9240571856498718 4726897 4 -1
-0.9194612503051758 9.184560775756836 -0.9240571856498718 3887499 4 -1
-0.9179332852363586 9.16929817199707 -1.0662198066711426 3757452 4 -1
-0.8527504801750183 9.234868049621582 -0.21324396133422852 3238030 4 -1
-0.9230800867080688 9.220708847045898 -0.42648792266845703 3107982 4 -1
-0.8525751233100891 9.232969284057617 -0.2843252718448639 2588302 4 -1
-0.9233787655830383 9.223692893981934 -0.35540661215782166 2458766 4 -1
-0.8527504801750183 9.234868049621582 -0.21324396133422852 2006409 4 -1
-0.8513717651367188 9.219937324523926 0.5686505436897278 3257723 4 -1
-0.8529758453369141 9.237309455871582 0 3651704 4 -1
-0.8529508113861084 9.237037658691406 0.07108131796121597 4505456 4 -1
-0.7818027138710022 9.242511749267578 0.14216263592243195 4899181 4 -1
-0.7815271615982056 9.239253997802734 0.2843252718448639 7589974 4 -1
-0.7108132243156433 9.249334335327148 0 8180304 4 -1
-0.9240571856498718 9.230469703674316 0 8705099 4 -1
-0.710729718208313 9.248248100280762 0.14216263592243195 9360965 4 -1
-0.7818715572357178 9.243326187133789 0.07108131796121597 11197490 4 -1
-0.7818715572357178 9.243326187133789 0.07108131796121597 12640037 4 -1
-0.7816879153251648 9.241154670715332 0.21324396133422852 13164576 4 -1
-0.9239997267723083 9.22989559173584 -0.784637987613678 3887499 4 -1
-0.9203042387962341 9.192980766296387 -1.141291618347168 3757452 4 -1
-0.9272722601890564 9.262584686279297 -0.071330726146698 3238030 4 -1
-0.9263189435005188 9.25306224822998 -0.427984356880188 3107982 4 -1
-0.8558682203292847 9.268631935119629 -0.142661452293396 2588302 4 -1
-0.9268637895584106 9.258504867553711 -0.285322904586792 2006409 4 -1
-0.9266186952590942 9.256056785583496 -0.35665363073349 2139270 4 -1
-0.9245732426643372 9.235624313354492 -0.71330726146698 3257723 4 -1
-0.9270544648170471 9.260409355163574 -0.213992178440094 3651704 4 -1
-0.8559436202049255 9.269448280334473 0.071330726146698 5424489 4 -1
-0.7831624150276184 9.258586883544922 0.570645809173584 7589974 4 -1
-0.9271906018257141 9.26176929473877 -0.142661452293396 8180304 4 -1
-0.9271906018257141 9.26176929473877 -0.142661452293396 8180304 4 -1
-0.9272994995117188 9.262857437133789 0 8705099 4 -1
-0.641957700252533 9.286722183227539 0.071330726146698 8705099 4 -1
-0.7845458984375 9.274941444396973 0.142661452293396 9360965 4 -1
-0.8558682203292847 9.268631935119629 -0.142661452293396 10016830 4 -1
-0.7132863402366638 9.281516075134277 -0.071330726146698 11197490 4 -1
-0.8589364290237427 9.301858901977539 -0.07158013433218002 2588302 4 -1
-0.8589364290237427 9.301858901977539 0.07158013433218002 2134668 4 -1
-0.9287918210029602 9.277764320373535 -0.5726410746574402 2006409 4 -1
-0.9298585653305054 9.288420677185059 -0.3579006791114807 2072968 4 -1
-0.9292022585868835 9.281864166259766 -0.501060962677002 2139270 4 -1
-0.9298585653305054 9.288420677185059 -0.3579006791114807 2994813 4 -1
-0.9295578598976135 9.285415649414062 -0.42948082089424133 3257723 4 -1
-0.9301046133041382 9.290877342224121 -0.2863205373287201 3651704 4 -1
-0.858331024646759 9.295303344726562 -0.3579006791114807 7589974 4 -1
-0.9305417537689209 9.295244216918945 0 8180304 4 -1
-0.7871734499931335 9.306004524230957 0.21474041044712067 9360965 4 -1
-0.858734667301178 9.299674034118652 0.21474041044712067 10016830 4 -1
-0.7868034243583679 9.301630020141602 0.3579006791114807 10672695 4 -1
-0.7156122326850891 9.31178092956543 0.21474041044712067 11197490 4 -1
-0.9315609931945801 9.305425643920898 -0.6464658975601196 2070155 4 -1
-0.9315609931945801 9.305425643920898 -0.6464658975601196 2006409 4 -1
-0.9315609931945801 9.305425643920898 -0.6464658975601196 2139270 4 -1
-0.9291397929191589 9.281240463256836 -0.9337840676307678 2468738 4 -1
-0.9327967166900635 9.317769050598145 -0.4309772551059723 2994813 4 -1
-0.9327967166900635 9.317769050598145 -0.4309772551059723 3257723 4 -1
-0.9330984950065613 9.320783615112305 -0.35914772748947144 3651704 4 -1
-0.8954703211784363 8.944913864135742 -2.6576931476593018 5949540 0 -1
-0.9336744546890259 9.326537132263184 -0.1436590850353241 6933851 4 -1
-0.861853301525116 9.333447456359863 -0.1436590850353241 8180304 4 -1
-0.8617267608642578 9.332077026367188 0.21548862755298615 10016830 4 -1
-0.7895448803901672 9.334040641784668 0.35914772748947144 10672695 4 -1
-0.7861952185630798 9.294440269470215 0.9337840676307678 11197490 4 -1
-0.8619292378425598 9.334269523620605 -0.07182954251766205 12640037 4 -1
-0.5667973160743713 9.228986740112305 1.7298948764801025 4456788 0 -1
-1.1531277894973755 9.334747314453125 0.14415790140628815 2458766 4 -1
-1.0811842679977417 9.344465255737305 0 2328718 4 -1
-1.080898642539978 9.341996192932129 -0.21623685956001282 2264205 4 -1
-1.0080382823944092 9.342634201049805 -0.43247371912002563 2006409 4 -1
-0.9336920380592346 9.326712608337402 -0.7928684949874878 2072968 4 -1
-0.9342715740203857 9.332501411437988 -0.7207895517349243 2139270 4 -1
-0.9330568909645081 9.320367813110352 -0.8649474382400513 2468738 4 -1
-0.9356775283813477 9.346546173095703 -0.5045526623725891 2994813 4 -1
-0.864922046661377 9.366680145263672 -0.07207895070314407 8180304 4 -1
-0.8313887119293213 9.003531455993652 -2.5948421955108643 8705099 0 -1
-0.8294580578804016 8.982623100280762 -2.666921377182007 9360965 0 -1
-0.43351128697395325 9.419403076171875 0.4339701533317566 4456788 4 -1
-1.0846387147903442 9.374320983886719 -0.2169850766658783 2264205 4 -1
-1.084797978401184 9.37569808959961 0.1446567177772522 2070922 4 -1
-1.0123294591903687 9.382405281066895 -0.2169850766658783 2006409 4 -1
-1.084797978401184 9.37569808959961 -0.1446567177772522 2139270 4 -1
-1.0125970840454102 9.38488483428955 0 2994813 4 -1
-0.8658740520477295 9.37699031829834 0.6509552597999573 6343264 4 -1
-0.7647433876991272 9.0408353805542 -2.603821039199829 11918891 0 -1
-1.5959607362747192 9.331966400146484 -0.2903110682964325 4456788 0 -1
0.1451512724161148 9.470514297485352 -0.07257776707410812 4456788 0 -1
-1.013669729232788 9.394826889038086 -0.6531999111175537 2199437 4 -1
-1.1612101793289185 9.400175094604492 0.07257776707410812 2139270 4 -1
-0.7964547872543335 9.415729522705078 0.6531999111175537 4045940 4 -1
-0.8688598275184631 9.409324645996094 0.6531999111175537 6343264 4 -1
-0.6527203321456909 9.44241714477539 0.3628888428211212 10672695 4 -1
-0.7599319219589233 8.983953475952148 -2.9031107425689697 11918891 0 -1
-2.308197021484375 9.126250267028809 -1.3108892440795898 4456788 0 -1
-1.6017745733261108 9.365961074829102 -0.21848152577877045 4456788 0 -1
0.1456543505191803 9.503337860107422 0 4456788 0 -1
-1.0924077033996582 9.441466331481934 0 2264205 4 -1
-1.0922794342041016 9.44035816192627 0.1456543505191803 2070922 4 -1
-1.1610883474349976 9.399188995361328 0.8010989427566528 2994813 4 -1
-0.8730020523071289 9.454182624816895 0.4369630515575409 2994813 4 -1
2.694526433944702 9.114212036132812 -0.07282717525959015 2994813 5 -1
-0.7251865863800049 9.436366081237793 0.8739261031150818 10672695 4 -1
-1.0935392379760742 9.45124626159668 0.6576892733573914 4456788 4 -1
2.9036917686462402 9.017841339111328 -1.0961487293243408 3562893 5 -1
-1.0960201025009155 9.472687721252441 0.14615316689014435 2070922 4 -1
-1.0960201025009155 9.472687721252441 0.14615316689014435 2072968 4 -1
2.7031192779541016 9.143277168273926 -0.21922975778579712 2994813 5 -1
-0.8034647703170776 9.498601913452148 -0.2923063337802887 12640037 4 -1
-0.36480650305747986 9.51496696472168 -0.9532378911972046 4456788 4 -1
-0.7245984077453613 9.428712844848633 1.466519832611084 4017546 0 -1
2.711787223815918 9.17259693145752 -0.2933039665222168 2070922 5 -1
2.7123448848724365 9.174483299255371 -0.2199779748916626 2072968 5 -1
2.7127432823181152 9.175829887390137 -0.1466519832611084 2994813 5 -1
2.785078763961792 9.150609970092773 -0.2933039665222168 3257723 5 -1
-0.7318809628486633 9.523475646972656 -0.5866079330444336 11918891 4 -1
-0.7315142750740051 9.51870346069336 -0.6599339246749878 12640037 4 -1
-0.7270123362541199 9.460123062133789 -1.2465418577194214 13164576 4 -1
0.43958228826522827 9.551315307617188 0.8829048275947571 4456788 0 -1
-0.29429295659065247 9.597309112548828 0.07357539981603622 4456788 4 -1
-1.0720438957214355 9.265466690063477 2.2808375358581543 4017546 0 -1
-0.8064494729042053 9.533886909484863 0.8093293905258179 4017546 4 -1
2.7938125133514404 9.179305076599121 -0.3678770065307617 2072968 5 -1
2.7938125133514404 9.179305076599121 -0.3678770065307617 2994813 5 -1
2.868682384490967 9.16091251373291 -0.22072620689868927 4505456 5 -1
2.7945518493652344 9.181734085083008 -0.2943015992641449 4899181 5 -1
-0.7331358790397644 9.539804458618164 -0.8093293905258179 8180304 4 -1
-0.734002411365509 9.551079750061035 -0.662178635597229 11197490 4 -1
2.7286295890808105 9.22956657409668 -0.4429488480091095 2072968 5 -1
-1.1090236902236938 9.585076332092285 0.5925937294960022 4728182 4 -1
-0.7393491864204407 9.620654106140137 0.5925937294960022 4728182 4 -1
2.6666717529296875 9.292128562927246 0 2271109 5 -1
2.8118438720703125 9.23854923248291 -0.44444531202316284 4505456 5 -1
2.8107683658599854 9.235014915466309 -0.5185195207595825 5424489 5 -1
2.7703611850738525 8.846931457519531 -2.740746021270752 8180304 0 -1
-1.4860796928405762 9.5826416015625 0.2229708731174469 4728182 0 -1
-1.1101315021514893 9.594650268554688 0.8918834924697876 4728182 4 -1
-0.7400876879692078 9.630264282226562 0.8918834924697876 4728182 4 -1
2.6736860275268555 9.316569328308105 -0.3716181218624115 2072968 5 -1
2.675571918487549 9.323141098022461 -0.0743236243724823 2271109 5 -1
2.779689073562622 8.87671947479248 -2.749974250793457 8180304 0 -1
2.6795806884765625 9.337109565734863 -0.5965842604637146 2912910 5 -1
2.67673659324646 9.32719898223877 -0.7457303404808044 2458766 5 -1
2.608139991760254 9.368898391723633 -0.3728651702404022 2199437 5 -1
2.534291982650757 9.39180850982666 0.2982921302318573 2072968 5 -1
2.683919906616211 9.352229118347168 -0.22371910512447357 2271109 5 -1
2.6712770462036133 9.308175086975098 -0.9694494605064392 5424489 5 -1
2.7409167289733887 9.271126747131348 -1.1185954809188843 5949540 5 -1
2.680211067199707 9.339305877685547 -0.9726917743682861 3692940 5 -1
2.680211067199707 9.339305877685547 -0.9726917743682861 3432845 5 -1
2.673288106918335 9.31518268585205 -1.1971590518951416 3302798 5 -1
2.688542366027832 9.36833667755127 -0.5985795259475708 2912910 5 -1
2.682197093963623 9.346226692199707 -0.8978692889213562 2718350 5 -1
2.684022903442383 9.352588653564453 -0.823046863079071 2458766 5 -1
2.612550973892212 9.384742736816406 -0.6734020113945007 2199437 5 -1
2.543290853500366 9.425156593322754 0.22446732223033905 2072968 5 -1
2.618708610534668 9.406862258911133 0.07482244074344635 2271109 5 -1
2.684022903442383 9.352588653564453 -0.823046863079071 3651704 5 -1
2.6780643463134766 9.331826210021973 -1.0475142002105713 5424489 5 -1
2.7546613216400146 9.317618370056152 -0.9726917743682861 6933851 5 -1
2.682199239730835 9.346233367919922 -1.201149582862854 3887499 5 -1
2.6911377906799316 9.37738037109375 -0.9008622169494629 3692940 5 -1
2.682199239730835 9.346233367919922 -1.201149582862854 3302798 5 -1
2.6869914531707764 9.362932205200195 -1.0510059595108032 2718350 5 -1
2.684676170349121 9.354865074157715 -1.1260777711868286 2588302 5 -1
2.689145088195801 9.370436668395996 -0.9759340882301331 2458766 5 -1
2.552143096923828 9.457962989807129 0.15014369785785675 2072968 5 -1
2.6262803077697754 9.434061050415039 -0.3002873957157135 2139270 5 -1
2.6275148391723633 9.438495635986328 0 2271109 5 -1
2.6197900772094727 9.410746574401855 -0.7507185339927673 5424489 5 -1
2.771045684814453 9.373038291931152 -0.6756466627120972 6343264 5 -1
2.7677743434906006 9.36197280883789 -0.8257903456687927 6933851 5 -1
2.74476957321167 9.018170356750488 -2.786886692047119 3757452 0 -1
2.753967046737671 9.315269470214844 -1.506425142288208 2588302 0 -1
2.7571940422058105 9.326184272766113 -1.4311039447784424 2523534 0 -1
2.560922861099243 9.490499496459961 0 2134668 5 -1
2.560922861099243 9.490499496459961 0 2072968 5 -1
2.9470572471618652 8.90582275390625 -2.9375290870666504 2994813 0 -1
2.485309600830078 9.509387016296387 -0.1506425142288208 5949540 5 -1
2.7865593433380127 9.42551326751709 -0.1506425142288208 5949540 5 -1
2.869576930999756 9.42823600769043 0.3778533339500427 2134668 5 -1
2.7176673412323 9.469823837280273 0.45342400670051575 4045940 5 -1
2.5566234588623047 9.474566459655762 -0.9824186563491821 5949540 5 -1
2.87092661857605 9.432669639587402 -0.22671200335025787 5949540 5 -1
2.8781163692474365 9.456292152404785 0.4549204409122467 2199437 5 -1
2.8770153522491455 9.452675819396973 0.53074049949646 2134668 5 -1
2.880401611328125 9.463800430297852 0.22746022045612335 4899181 5 -1
2.8781163692474365 9.456292152404785 0.4549204409122467 5424489 5 -1
2.6560933589935303 9.541155815124512 0.6846253275871277 2199437 5 -1
2.965925931930542 9.471451759338379 0.22820845246315002 2199437 5 -1
2.9663615226745605 9.4728422164917 0.15213896334171295 2134668 5 -1
2.8875837326049805 9.487399101257324 0.45641690492630005 2070155 5 -1
2.8892822265625 9.492979049682617 0.3042779266834259 2070922 5 -1
2.8885180950164795 9.49046802520752 0.38034743070602417 4899181 5 -1
2.8875837326049805 9.487399101257324 0.45641690492630005 5424489 5 -1
2.8875837326049805 9.487399101257324 0.45641690492630005 5949540 5 -1
2.9653160572052 9.469504356384277 0.3042779266834259 6343264 5 -1
2.8970513343811035 9.518505096435547 0.457913339138031 4505456 5 -1
2.8959431648254395 9.514863967895508 0.5342322587966919 4899181 5 -1
2.9742515087127686 9.498039245605469 0.3815944492816925 5424489 5 -1
2.9750382900238037 9.500551223754883 0.305275559425354 5949540 5 -1
2.9742515087127686 9.498039245605469 0.3815944492816925 6343264 5 -1
2.6795756816864014 9.625508308410645 0.15313659608364105 2006409 5 -1
2.830031394958496 9.57255744934082 0.45940980315208435 4505456 5 -1
2.904123544692993 9.541741371154785 0.6125463843345642 5424489 5 -1
2.983971357345581 9.529078483581543 0.3828414976596832 5949540 5 -1
2.9805479049682617 9.518146514892578 0.6125463843345642 6343264 5 -1
2.6068904399871826 9.660849571228027 0.6145416498184204 2070155 5 -1
2.611111879348755 9.676494598388672 0.23045311868190765 2006409 5 -1
2.545585870742798 9.144192695617676 -3.2263436317443848 2271109 0 -1
2.5524954795837402 9.169013977050781 -3.1495261192321777 2468738 0 -1
2.9159862995147705 9.580717086791992 0.4609062373638153 5424489 5 -1
