VERSION .7
FIELDS x y z rgb label object
SIZE 4 4 4 4 4 4
TYPE F F F I I I
COUNT 1 1 1 1 1 1
WIDTH 691
HEIGHT 1
POINTS 691
VIEWPOINT 0 0 0 1 0 0 0
DATA ascii
-4.367838382720947 2.5237669944763184 -1.5353565216064453 4456788 0 -1
-3.19214129447937 3.8733673095703125 -1.6161648035049438 4523353 0 -1
-4.077832221984863 3.01003360748291 1.4545482397079468 4590430 0 -1
4.9152655601501465 1.4750086069107056 1.2121235132217407 4590430 0 -1
-4.254548072814941 2.886281728744507 1.1717194318771362 4725613 0 -1
-3.7385034561157227 3.287832260131836 1.7373771667480469 4725613 0 -1
4.767123699188232 2.1465017795562744 0.6868700385093689 4725613 0 -1
4.938411712646484 1.6207078695297241 0.8888906240463257 4725613 0 -1
4.709020614624023 2.42759108543396 0.2845746874809265 4456788 0 -1
4.877164840698242 1.970961093902588 0.6911099553108215 4456788 0 -1
5.074944496154785 1.2008476257324219 0.975684642791748 4456788 0 -1
-3.4554483890533447 4.025826930999756 0.0406535267829895 4456788 0 -1
-3.4139938354492188 4.059412479400635 0.1219605803489685 4456788 0 -1
-4.593713760375977 2.6542794704437256 0.0406535267829895 4456788 0 -1
-3.4139938354492188 4.059412479400635 0.1219605803489685 4523353 0 -1
-3.3738465309143066 4.0938496589660645 -0.081307053565979 4590430 0 -1
-4.94545841217041 1.3345282077789307 1.382219910621643 4725613 0 -1
-4.280810832977295 2.9040982723236084 1.1789523363113403 4725613 0 -1
-3.7615807056427 3.3081276416778564 1.7481017112731934 4725613 0 -1
4.143213748931885 3.140956163406372 1.056991696357727 4725613 0 -1
4.769434452056885 2.2533578872680664 0.569149374961853 4725613 0 -1
4.935223579406738 1.7503660917282104 0.8537240624427795 4725613 0 -1
-4.4018940925598145 2.810356616973877 0.9350311160087585 4729209 0 -1
-4.0248517990112305 3.1317272186279297 1.463526964187622 4729209 0 -1
4.979824066162109 1.4943819046020508 1.056991696357727 4729209 0 -1
-3.5908889770507812 3.9326202869415283 -0.36812642216682434 4456788 0 -1
-3.4767494201660156 4.0506439208984375 0 4456788 0 -1
-3.4358465671539307 4.0853962898254395 0 4456788 0 -1
-4.621895790100098 2.670563220977783 0.04090293496847153 4456788 0 -1
-3.434938669204712 4.084316730499268 0.12270880490541458 4523353 0 -1
-3.435443162918091 4.084916591644287 -0.08180586993694305 4590430 0 -1
-3.456390857696533 4.1098246574401855 -0.0823046863079071 4456788 0 -1
-3.41524338722229 4.144081115722656 -0.0823046863079071 4456788 0 -1
-4.6496686935424805 2.686610460281372 0.0823046863079071 4456788 0 -1
-3.5353593826293945 4.035385608673096 -0.2469140589237213 4456788 0 -1
-3.455883502960205 4.1092209815979 -0.12345702946186066 4523353 0 -1
-3.4147419929504395 4.143472671508789 -0.12345702946186066 4590430 0 -1
-3.431398868560791 4.163683891296387 -0.28981226682662964 4456788 0 -1
-3.8899362087249756 3.7464282512664795 -0.1656070053577423 4456788 0 -1
-3.436345338821411 4.169686317443848 0 4456788 0 -1
-4.678260803222656 2.7031311988830566 0.04140175133943558 4456788 0 -1
-3.7954070568084717 3.818668842315674 0.45541927218437195 4456788 0 -1
-3.8899362087249756 3.7464282512664795 0.1656070053577423 4523353 0 -1
-3.8462915420532227 3.786698818206787 0.24841050803661346 4590430 0 -1
-3.369333267211914 4.171754837036133 -0.6624280214309692 4590430 0 -1
-4.248293399810791 3.3908441066741943 -0.0416511595249176 4456788 0 -1
-4.078816890716553 3.5871214866638184 -0.208255797624588 4456788 0 -1
-4.706028461456299 2.7191755771636963 0.0833023190498352 4456788 0 -1
-3.998394012451172 3.6822097301483154 0.0416511595249176 4456788 0 -1
-4.077497482299805 3.585961103439331 0.24990695714950562 4523353 0 -1
-5.200889587402344 1.5607208013534546 -0.24990695714950562 4590430 0 -1
-4.4685139656066895 3.031435966491699 -0.6247674226760864 4590430 0 -1
-4.1204376220703125 3.5392346382141113 -0.208255797624588 4590430 0 -1
-4.064235687255859 3.6582388877868652 -0.04190056771039963 4456788 0 -1
-3.342815637588501 4.056196689605713 -1.508420467376709 4456788 0 -1
-4.637289524078369 2.867483377456665 -0.41900569200515747 4456788 0 -1
-3.9804370403289795 3.7492458820343018 -0.04190056771039963 4456788 0 -1
-4.206860542297363 3.442556619644165 -0.8429995179176331 4456788 0 -1
-4.669848918914795 2.8876166343688965 -0.3371998071670532 4456788 0 -1
-3.508802652359009 4.257606506347656 0.423993855714798 4456788 0 -1
-3.5615482330322266 4.234861850738525 0 4456788 0 -1
-4.5024094581604 2.7840800285339355 -1.611176609992981 4456788 0 -1
-3.6022543907165527 4.196865558624268 0.1695975363254547 4523353 0 -1
-3.5577824115753174 4.23038387298584 -0.25439631938934326 4590430 0 -1
3.448113203048706 4.625467777252197 -0.5327357649803162 2782862 6 -1
3.450460433959961 4.6286163330078125 -0.48834115266799927 2523534 6 -1
3.4083380699157715 4.664160251617432 -0.4439464807510376 2328718 6 -1
3.4545388221740723 4.634087562561035 -0.3995518386363983 2264205 6 -1
3.4177558422088623 4.6770477294921875 -0.6250168085098267 4017546 6 -1
3.423029661178589 4.68426513671875 -0.5357286930084229 3887499 6 -1
3.5202479362487793 4.62890625 -0.35715246200561523 3238030 6 -1
3.5093393325805664 4.614562034606934 -0.5803727507591248 3107982 6 -1
3.4698450565338135 4.654620170593262 -0.49108463525772095 2782862 6 -1
3.471998929977417 4.6575093269348145 -0.44644057750701904 2523534 6 -1
3.467484712600708 4.651453495025635 -0.5357286930084229 2328718 6 -1
3.5093393325805664 4.614562034606934 -0.5803727507591248 2264205 6 -1
3.4649171829223633 4.648009777069092 -0.5803727507591248 2199437 6 -1
3.427485942840576 4.69036340713501 -0.44644057750701904 2994813 6 -1
3.5143303871154785 4.621124744415283 -0.49108463525772095 3257723 6 -1
3.5165116786956787 4.623993396759033 -0.44644057750701904 10672695 6 -1
3.423759698867798 4.6852641105651855 -0.8080824017524719 4147337 6 -1
3.4338881969451904 4.699124336242676 -0.6734020113945007 4017546 6 -1
3.4643819332122803 4.64729118347168 -0.8529758453369141 3432845 0 -1
3.497987747192383 4.692371845245361 -0.2693607807159424 2523534 6 -1
3.4752745628356934 4.661903381347656 -0.7182954549789429 2328718 6 -1
3.4784841537475586 4.666208744049072 -0.6734020113945007 2264205 6 -1
3.4752745628356934 4.661903381347656 -0.7182954549789429 2199437 6 -1
3.526118278503418 4.636625289916992 -0.6285085082054138 2994813 6 -1
3.48685622215271 4.6774396896362305 -0.5387215614318848 3257723 6 -1
3.580918550491333 4.615442276000977 -0.4489346444606781 5949540 6 -1
3.5863072872161865 4.622387886047363 -0.3142542541027069 8705099 6 -1
3.580918550491333 4.615442276000977 -0.4489346444606781 10672695 6 -1
3.5361568927764893 4.649825572967529 -0.4489346444606781 13164576 6 -1
3.4463846683502197 4.7162251472473145 -0.7674288749694824 4147337 6 -1
3.4463846683502197 4.7162251472473145 -0.7674288749694824 4017546 6 -1
3.479551315307617 4.667640209197998 -0.9028574824333191 3432845 0 -1
3.475259780883789 4.66188383102417 -0.9480003714561462 3302798 0 -1
3.518558979034424 4.719967365264893 -0.22571437060832977 2523534 6 -1
3.491142988204956 4.683189868927002 -0.7674288749694824 2328718 6 -1
3.491142988204956 4.683189868927002 -0.7674288749694824 2264205 6 -1
3.568770408630371 4.599784851074219 -0.9028574824333191 2199437 0 -1
3.461275815963745 4.736603260040283 -0.5417144894599915 3257723 6 -1
3.625417709350586 4.5800323486328125 -0.7674288749694824 3257723 0 -1
3.602832078933716 4.643686771392822 -0.4062858521938324 5949540 6 -1
3.512761354446411 4.7121901512146 -0.4062858521938324 6343264 6 -1
3.602832078933716 4.643686771392822 -0.4062858521938324 7589974 6 -1
3.641082525253296 4.5998215675354 -0.5417144894599915 8180304 6 -1
3.6513092517852783 4.612740993499756 -0.3160001039505005 8705099 6 -1
3.606231212615967 4.648067951202393 -0.3160001039505005 10016830 6 -1
3.6046383380889893 4.64601469039917 -0.36114299297332764 10672695 6 -1
3.628716468811035 4.677049160003662 -0.2269614040851593 7589974 6 -1
3.6680214405059814 4.633853912353516 -0.4085305333137512 8180304 6 -1
3.672887086868286 4.640000820159912 -0.2723536789417267 8705099 6 -1
3.5808281898498535 4.708565711975098 -0.31774598360061646 10016830 6 -1
3.58219838142395 4.710367202758789 -0.2723536789417267 13164576 6 -1
-4.529738426208496 3.7985219955444336 -0.7302670478820801 4456788 0 -1
-3.6513352394104004 4.706202507019043 0 4456788 0 -1
-4.294521331787109 4.0450873374938965 -0.8215504288673401 4456788 0 -1
-4.012221813201904 4.394049644470215 -0.27385014295578003 4456788 0 -1
-3.7421791553497314 4.633395195007324 0.09128338098526001 4456788 0 -1
-3.6052701473236084 4.7407050132751465 0.09128338098526001 4523353 0 -1
-3.6055877208709717 4.741122722625732 -0.045641690492630005 4590430 0 -1
-4.1058220863342285 4.311552047729492 -0.18256676197052002 4017546 0 -1
-4.55449104309082 3.8192789554595947 -0.7342575788497925 4456788 0 -1
-3.2548227310180664 5.019933223724365 -0.275346577167511 4456788 0 -1
-4.5349016189575195 3.802851915359497 -0.9178219437599182 4456788 0 -1
-3.625396728515625 4.767170429229736 0 4456788 0 -1
-4.267802715301514 4.110354423522949 -0.8719308376312256 4456788 0 -1
-4.0326032638549805 4.416370868682861 -0.3212376832962036 4456788 0 -1
-3.757652997970581 4.652554512023926 0.3212376832962036 4456788 0 -1
-3.716742515563965 4.695403575897217 -0.09178219735622406 4456788 0 -1
-3.625396728515625 4.767170429229736 0 4523353 0 -1
-3.579085350036621 4.8011603355407715 -0.09178219735622406 4590430 0 -1
-3.6435928344726562 4.696223258972168 -0.7342575788497925 4657508 0 -1
-3.7830772399902344 4.684033393859863 0.09228101372718811 4456788 0 -1
-3.672881841659546 4.733973503112793 -0.5998265743255615 4456788 0 -1
-3.6412456035614014 4.788010597229004 -0.27684304118156433 4523353 0 -1
-3.7764062881469727 4.675774097442627 0.36912405490875244 4590430 0 -1
-3.595154047012329 4.8227152824401855 -0.27684304118156433 4590430 0 -1
-3.6140427589416504 4.7522406578063965 -0.7843886017799377 4657508 0 -1
-3.7904367446899414 4.693145751953125 0.5102890729904175 4456788 0 -1
-3.77876353263855 4.67869234085083 -0.6958487033843994 4456788 0 -1
-3.679572582244873 4.742597579956055 -0.7886285185813904 4456788 0 -1
4.0818328857421875 4.470285415649414 0.09277983009815216 3692940 6 -1
3.937466621398926 4.587409973144531 0.32472941279411316 6933851 6 -1
3.9337551593780518 4.583086013793945 0.4175092279911041 8705099 6 -1
3.892632484436035 4.628537654876709 0.2783394753932953 9360965 6 -1
3.8894245624542236 4.624723434448242 0.37111932039260864 12640037 6 -1
3.4512085914611816 5.013540744781494 -0.046639323234558105 2271109 0 -1
3.5860583782196045 4.907362461090088 -0.32647526264190674 2271109 6 -1
3.9061851501464844 4.644652843475342 0.46639323234558105 2271109 6 -1
3.9586358070373535 4.6120734214782715 0.32647526264190674 4505456 6 -1
4.003438949584961 4.569668292999268 0.37311458587646484 5949540 6 -1
3.75899600982666 4.748783111572266 0.6063112020492554 11918891 6 -1
4.0014328956604 4.567378520965576 0.41975390911102295 11918891 6 -1
3.515725612640381 5.006575107574463 0.1406661868095398 2070922 6 -1
3.9591293334960938 4.6126484870910645 0.703330934047699 2070922 6 -1
4.064803600311279 4.54502534866333 0.5157760381698608 4045940 6 -1
3.7760708332061768 4.770354270935059 0.6564422249794006 10672695 6 -1
3.6885175704956055 4.850170135498047 0.5626647472381592 11197490 6 -1
3.877915859222412 4.705491542816162 0.5157760381698608 11197490 6 -1
3.722801446914673 4.798315048217773 0.7502197027206421 11918891 6 -1
3.9760537147521973 4.63236665725708 0.4219985902309418 11918891 6 -1
3.6228108406066895 4.9576568603515625 0.37710511684417725 4045940 6 -1
3.9591386318206787 4.707617282867432 0.09427627921104431 4045940 6 -1
3.9591386318206787 4.707617282867432 0.09427627921104431 4045940 6 -1
3.898543119430542 4.730520725250244 0.5185195207595825 10016830 6 -1
3.913604497909546 4.748795986175537 0.6160380840301514 2271109 6 -1
3.81624174118042 4.821102619171143 0.6634256839752197 2994813 6 -1
3.79305100440979 4.791805267333984 0.9477509260177612 10016830 6 -1
4.02577543258667 4.690295696258545 -0.6669173836708069 4456788 6 -1
3.806926727294922 4.906744003295898 -0.28582173585891724 4456788 6 -1
4.330379009246826 4.451589107513428 0.28582173585891724 4456788 6 -1
4.899543285369873 3.8123226165771484 -0.33345869183540344 4456788 0 -1
5.3519134521484375 3.092372417449951 0.6669173836708069 4456788 0 -1
3.937117576599121 4.777327060699463 0.5716434717178345 2271109 6 -1
3.803373336791992 4.804845809936523 -1.0480129718780518 10016830 0 -1
3.825716972351074 4.833072662353516 0.8098282217979431 10672695 6 -1
4.0223069190979 4.686254501342773 0.7145543098449707 10672695 6 -1
3.833021879196167 4.842300891876221 0.7145543098449707 12640037 6 -1
3.9276645183563232 4.7658562660217285 0.7145543098449707 13164576 6 -1
3.9100472927093506 4.841241836547852 0.5746363401412964 6343264 6 -1
4.055856704711914 4.725342273712158 0.5267499685287476 10672695 6 -1
4.064481735229492 4.735391139984131 0.335204541683197 11918891 6 -1
3.859503746032715 4.875755786895752 0.6225227117538452 12640037 6 -1
3.859503746032715 4.875755786895752 0.6225227117538452 12640037 6 -1
3.9992430210113525 4.755302906036377 0.670409083366394 13164576 6 -1
3.98575758934021 4.8363471031188965 -0.4332219362258911 4657508 6 -1
4.033778667449951 4.796367645263672 -0.4332219362258911 4664956 6 -1
4.035800933837891 4.79877233505249 -0.38508617877960205 3692940 6 -1
3.896134853363037 4.922032356262207 0.24067886173725128 8705099 6 -1
4.032987117767334 4.698697566986084 1.058987021446228 8705099 6 -1
4.031517505645752 4.793679237365723 0.48135772347450256 10672695 6 -1
3.9801173210144043 4.732562065124512 1.107122778892517 12640037 6 -1
4.026275634765625 4.78744649887085 0.5776292681694031 13164576 6 -1
4.049892425537109 4.81552791595459 -0.5322369933128357 4590430 6 -1
4.049892425537109 4.81552791595459 -0.5322369933128357 4657508 6 -1
4.033694744110107 4.796267986297607 -0.7741628885269165 4725613 0 -1
3.9893555641174316 4.840713024139404 -0.7257776856422424 4729209 6 -1
4.100648880004883 4.777528285980225 -0.4838517904281616 4664956 6 -1
4.001679420471191 4.855666637420654 -0.5322369933128357 2328718 6 -1
4.014082908630371 4.870717525482178 -0.19354072213172913 4899181 6 -1
4.015969753265381 4.873006820678711 0 8705099 6 -1
4.0409016609191895 4.804837703704834 0.6773925423622131 12640037 6 -1
4.052405834197998 4.818516731262207 0.4838517904281616 13164576 6 -1
4.061731338500977 4.829604625701904 -0.6808842420578003 4590430 6 -1
4.050497531890869 4.816247463226318 -0.8267880082130432 4725613 0 -1
4.006219387054443 4.861175537109375 -0.7781534194946289 4729209 6 -1
4.127989292144775 4.809381484985352 -0.34044212102890015 4664956 6 -1
4.070568084716797 4.646292209625244 -1.4590376615524292 4536450 0 -1
4.009919166564941 4.865664958953857 -0.7295188307762146 3302798 6 -1
3.9278199672698975 4.962060451507568 -0.48634588718414307 2912910 6 -1
4.1100850105285645 4.788521766662598 -0.6808842420578003 2912910 6 -1
4.067998886108398 4.837057590484619 -0.5836150646209717 2328718 6 -1
4.167691230773926 4.7571516036987305 0.5349804759025574 2006409 6 -1
4.036196708679199 4.897550582885742 -0.09726917743682861 4899181 6 -1
3.8851661682128906 5.00758695602417 0.34044212102890015 8705099 6 -1
4.098533630371094 4.8733649253845215 -0.39107197523117065 4456788 6 -1
4.033958435058594 4.894834518432617 -0.6843759417533875 4590430 6 -1
4.062505722045898 4.830525875091553 -0.9287959337234497 4725613 0 -1
4.0712690353393555 4.840946197509766 -0.8310279250144958 4729209 0 -1
4.288225173950195 4.79484224319458 0.39506250619888306 4456788 6 -1
4.147059917449951 4.931065082550049 -0.14814843237400055 4600703 6 -1
-4.534106731414795 4.76129674911499 -0.05038044601678848 4456788 0 -1
-3.875192403793335 5.303029537200928 0.3022826611995697 4456788 0 -1
-3.8341763019561768 5.352440357208252 0.5569283962249756 4456788 0 -1
-3.9148268699645996 5.357267379760742 0.25439631938934326 4456788 0 -1
-3.711459159851074 5.5001139640808105 0.25439631938934326 4456788 0 -1
-3.731954574584961 5.530486583709717 -0.10225734114646912 4456788 0 -1
-3.897390604019165 5.4406867027282715 -0.41102463006973267 4456788 0 -1
-3.7496085166931152 5.5566487312316895 -0.15413422882556915 4456788 0 -1
-4.397530555725098 5.019498348236084 -0.929294764995575 4456788 0 -1
-3.9195399284362793 5.471606731414795 -0.30976492166519165 4456788 0 -1
-3.7161967754364014 5.618106365203857 -0.15488246083259583 4456788 0 -1
-2.5938098430633545 6.402949333190918 -0.5843632817268372 4456788 4 -1
-2.547252655029297 6.440263748168945 0.31874361634254456 4456788 4 -1
-2.4208455085754395 6.12066650390625 -2.1780812740325928 4456788 0 -1
-2.394378662109375 6.202460765838623 -1.9655855894088745 4456788 0 -1
-2.600320339202881 6.419020652770996 -0.31874361634254456 4456788 4 -1
-2.775275230407715 6.244919300079346 -1.1687265634536743 2134668 0 -1
-2.61037540435791 6.44384241104126 -0.4269867241382599 4456788 4 -1
-2.551067352294922 6.449909210205078 -0.640480101108551 4456788 4 -1
-2.5612435340881348 6.475637435913086 -0.16012002527713776 4456788 4 -1
-2.5726828575134277 6.504559516906738 -0.21449099481105804 4456788 4 -1
-2.3587775230407715 6.58667516708374 0.16086825728416443 4456788 4 -1
-2.359400987625122 6.58841609954834 0 4456788 4 -1
-2.4130237102508545 6.568965911865234 0 4456788 4 -1
-2.359123945236206 6.587642192840576 0.10724549740552902 4456788 4 -1
-2.585559844970703 6.537117004394531 0.10774431377649307 4456788 4 -1
-2.531917095184326 6.558743953704834 0.053872156888246536 4456788 4 -1
-2.531991481781006 6.558936595916748 0 4456788 4 -1
-2.47782826423645 6.578707218170166 0.10774431377649307 4456788 4 -1
-2.369748592376709 6.617310523986816 0.1616164743900299 4456788 4 -1
-2.4242470264434814 6.5995192527771 0 4456788 4 -1
-2.370374917984009 6.6190595626831055 0 4456788 4 -1
-2.424175977706909 6.599325656890869 -0.053872156888246536 4456788 4 -1
-2.4780466556549072 6.579286575317383 -0.053872156888246536 4456788 4 -1
-2.3154144287109375 6.634986877441406 -0.21548862755298615 4456788 4 -1
-2.3272273540496826 6.668837547302246 0 4456788 4 -1
-2.5437135696411133 6.589302062988281 0 4456788 4 -1
-2.543414831161499 6.588528156280518 0.10824313014745712 4456788 4 -1
-2.4348268508911133 6.628320693969727 0.16236470639705658 4456788 4 -1
-2.488934278488159 6.608193874359131 0.16236470639705658 4456788 4 -1
-2.433682441711426 6.625205039978027 0.2706078290939331 4456788 4 -1
-2.7048070430755615 6.521236896514893 -0.21648626029491425 4456788 4 -1
-2.212460517883301 6.685916900634766 0.5412156581878662 4456788 4 -1
-2.4351844787597656 6.629293918609619 0.10824313014745712 4456788 4 -1
-2.4354705810546875 6.630072593688965 0 4456788 4 -1
-2.3271591663360596 6.668641567230225 0.05412156507372856 4456788 4 -1
-2.3796005249023438 6.644821643829346 -0.2706078290939331 4456788 4 -1
-2.4229226112365723 6.432930946350098 1.6236469745635986 2134668 0 -1
-2.445544481277466 6.657496929168701 0.21748389303684235 4456788 4 -1
-2.446622133255005 6.660430431365967 -0.05437097325921059 4456788 4 -1
-2.3922526836395264 6.680151462554932 -0.05437097325921059 4456788 4 -1
-2.554760456085205 6.617918491363525 0.16311292350292206 4456788 4 -1
-2.498420238494873 6.6333794593811035 0.3262258470058441 4456788 4 -1
-2.337883234024048 6.6993727684021 -0.05437097325921059 4456788 4 -1
-2.4448976516723633 6.655735969543457 -0.27185487747192383 4456788 4 -1
-2.3920419216156006 6.679563045501709 -0.10874194651842117 4456788 4 -1
-2.439500570297241 6.6410441398620605 -0.5437097549438477 4456788 4 -1
-2.439500570297241 6.6410441398620605 -0.5437097549438477 4456788 4 -1
-2.3888790607452393 6.670731067657471 0.3805968165397644 4456788 4 -1
-2.4448976516723633 6.655735969543457 -0.27185487747192383 4456788 4 -1
-2.4026618003845215 6.7092180252075195 0.16386115550994873 4456788 4 -1
-2.4579172134399414 6.691179275512695 0 4456788 4 -1
-2.3486075401306152 6.730103969573975 0.05462038144469261 4456788 4 -1
-2.508920907974243 6.661258697509766 0.382342666387558 4456788 4 -1
-2.3987772464752197 6.698370456695557 0.4369630515575409 4456788 4 -1
-2.3987772464752197 6.698370456695557 0.4369630515575409 4456788 4 -1
-2.5124638080596924 6.670665740966797 0.05462038144469261 4456788 4 -1
-2.6214704513549805 6.627910614013672 -0.10924076288938522 4456788 4 -1
-2.4561126232147217 6.686266899108887 -0.27310192584991455 4456788 4 -1
-2.3486075401306152 6.730103969573975 -0.05462038144469261 4456788 4 -1
-2.3828201293945312 6.653811454772949 -0.9285464882850647 4456788 4 -1
-2.3998372554779053 6.701330661773682 -0.382342666387558 4456788 4 -1
-2.4007556438446045 6.703895092010498 -0.32772231101989746 4456788 4 -1
-2.50515079498291 6.651249408721924 -0.5462038516998291 4456788 4 -1
-2.6337499618530273 6.658957004547119 0 4456788 4 -1
-2.3593318462371826 6.760834693908691 0.05486978963017464 4456788 4 -1
-2.359123945236206 6.760239601135254 0.10973957926034927 4456788 4 -1
-2.523714065551758 6.700535297393799 0.10973957926034927 4456788 4 -1
-2.3537840843200684 6.744937419891357 0.4938281178474426 4456788 4 -1
-2.5740303993225098 6.667835235595703 0.4389583170413971 4456788 4 -1
-2.3537840843200684 6.744937419891357 0.4938281178474426 4456788 4 -1
-2.4022631645202637 6.708104610443115 0.71330726146698 4456788 4 -1
-2.4107954502105713 6.731930255889893 0.38408854603767395 4456788 4 -1
-2.2990448474884033 6.763791084289551 0.4938281178474426 4456788 4 -1
-2.5239362716674805 6.701125144958496 0.05486978963017464 4456788 4 -1
-2.4691405296325684 6.7217326164245605 0 4456788 4 -1
-2.524010419845581 6.701322078704834 0 4456788 4 -1
-2.523343324661255 6.699551105499268 -0.1646093726158142 4456788 4 -1
-2.303922176361084 6.778140544891357 -0.1646093726158142 4456788 4 -1
-2.521341562271118 6.6942362785339355 -0.3292187452316284 4456788 4 -1
-2.303448438644409 6.77674674987793 -0.21947915852069855 4456788 4 -1
-2.52282452583313 6.698173522949219 -0.21947915852069855 4456788 4 -1
-2.52282452583313 6.698173522949219 -0.21947915852069855 4456788 4 -1
-2.354964017868042 6.748318672180176 0.4389583170413971 4456788 4 -1
-2.352464437484741 6.741156101226807 -0.5486978888511658 4456788 4 -1
-2.5072834491729736 6.656911373138428 -0.823046863079071 4456788 4 -1
-2.303922176361084 6.778140544891357 -0.1646093726158142 4456788 4 -1
-2.254507064819336 6.812978744506836 0.49607279896736145 4456788 4 -1
-2.367619514465332 6.784584045410156 0.33071520924568176 4456788 4 -1
-2.4785430431365967 6.747328758239746 0.2755959928035736 4456788 4 -1
-2.2598209381103516 6.829036712646484 0.05511919781565666 4456788 4 -1
-2.58573055267334 6.69814395904541 0.4409535825252533 4456788 4 -1
-2.3600850105285645 6.762993335723877 0.6614304184913635 4456788 4 -1
-2.416614532470703 6.748179912567139 0.6063112020492554 4456788 4 -1
-2.63942289352417 6.673299789428711 0.49607279896736145 4456788 4 -1
-2.4206838607788086 6.759542942047119 0.4409535825252533 4456788 4 -1
-2.3082003593444824 6.790726661682129 0.5511919856071472 4456788 4 -1
-2.367619514465332 6.784584045410156 0.33071520924568176 4456788 4 -1
-2.5318334102630615 6.722092151641846 0.38583439588546753 4456788 4 -1
-2.2588255405426025 6.826028823852539 0.22047679126262665 4456788 4 -1
-2.5829861164093018 6.691034317016602 0.5511919856071472 4456788 4 -1
-2.479198694229126 6.7491135597229 0.22047679126262665 4456788 4 -1
-2.534813165664673 6.730003833770752 0.16535760462284088 4456788 4 -1
-2.534813165664673 6.730003833770752 0.16535760462284088 4456788 4 -1
-2.5902981758117676 6.709975719451904 -0.11023839563131332 4456788 4 -1
-2.3683855533599854 6.786778926849365 -0.2755959928035736 4456788 4 -1
-2.5247421264648438 6.7032647132873535 -0.6614304184913635 4456788 4 -1
-2.4715375900268555 6.72825813293457 -0.6063112020492554 4456788 4 -1
-2.534291982650757 6.7286200523376465 -0.22047679126262665 4456788 4 -1
-2.31255841255188 6.803548336029053 -0.33071520924568176 4456788 4 -1
-2.3067684173583984 6.7865142822265625 -0.6063112020492554 4456788 4 -1
-2.2677125930786133 6.852884769439697 0.3322116434574127 4456788 4 -1
-2.3783326148986816 6.815283298492432 0.3322116434574127 4456788 4 -1
-2.598578453063965 6.7314252853393555 0.3875802457332611 4456788 4 -1
-2.3707642555236816 6.793595314025879 0.6644232869148254 4456788 4 -1
-2.4791951179504395 6.749104022979736 0.7197918891906738 4456788 4 -1
-2.59743070602417 6.728452205657959 0.4429488480091095 4456788 4 -1
-2.5408923625946045 6.7461442947387695 0.4983174800872803 4456788 4 -1
-2.3199453353881836 6.82528018951416 0.4983174800872803 4456788 4 -1
-2.4827210903167725 6.758702754974365 0.609054684638977 4456788 4 -1
-2.488952875137329 6.775667190551758 0.3322116434574127 4456788 4 -1
-2.4359326362609863 6.802123546600342 0.11073721200227737 4456788 4 -1
-2.6016368865966797 6.7393479347229 0.16610582172870636 4456788 4 -1
-2.5961291790008545 6.725080490112305 -0.4983174800872803 4456788 4 -1
-2.3156301975250244 6.812585353851318 -0.6644232869148254 4456788 4 -1
-2.412935495376587 6.737905979156494 -0.9966349601745605 4456788 4 -1
-2.4856555461883545 6.766691207885742 -0.4983174800872803 4456788 4 -1
-2.4880006313323975 6.773075580596924 -0.3875802457332611 4456788 4 -1
-2.2634389400482178 6.839970111846924 -0.5536860823631287 4456788 4 -1
-2.313915491104126 6.8075408935546875 -0.7197918891906738 4456788 4 -1
-2.4102623462677 6.730441570281982 -1.0520035028457642 4456788 4 -1
-2.4772095680236816 6.743699073791504 -0.7751604914665222 4456788 4 -1
-2.587307929992676 6.7022294998168945 -0.7751604914665222 4456788 4 -1
-2.3628897666931152 6.771030426025391 -0.885897696018219 4456788 4 -1
-2.7110698223114014 6.69241189956665 -0.27684304118156433 3692940 4 -1
-2.3342416286468506 6.867340087890625 0.27809008955955505 4456788 4 -1
-2.541473627090454 6.747687339782715 0.8342702388763428 4456788 4 -1
-2.552337884902954 6.776532173156738 0.5005621314048767 4456788 4 -1
-2.55474591255188 6.782925605773926 0.3893260955810547 4456788 4 -1
-2.7232818603515625 6.722557544708252 0.27809008955955505 4456788 4 -1
-2.7240023612976074 6.72433614730835 0.22247205674648285 4456788 4 -1
-2.669586420059204 6.749562740325928 0.05561801418662071 4456788 4 -1
-2.669586420059204 6.749562740325928 0.05561801418662071 4456788 4 -1
-2.5436654090881348 6.753506183624268 -0.7786521911621094 4456788 4 -1
-2.5436654090881348 6.753506183624268 -0.7786521911621094 4456788 4 -1
-2.331782341003418 6.68189001083374 1.6129224300384521 4456788 0 -1
-2.3183348178863525 6.820542812347412 -0.8898882269859314 4456788 4 -1
-2.4839303493499756 6.761994361877441 -0.8898882269859314 4456788 4 -1
-2.375725269317627 6.807811737060547 -0.8342702388763428 4456788 4 -1
-4.504927158355713 5.691126346588135 0.05561801418662071 4456788 0 -1
-2.983469009399414 6.564242839813232 0.8342702388763428 4523353 4 -1
-2.7795941829681396 6.701547622680664 -0.22247205674648285 4017546 4 -1
-2.836435556411743 6.681161880493164 0.05561801418662071 3692940 4 -1
-2.8913726806640625 6.655712127685547 0.16685405373573303 3562893 4 -1
-2.565068483352661 6.810332775115967 0.4469393789768219 4456788 4 -1
-2.3447091579437256 6.898135662078857 0.2793371081352234 4456788 4 -1
-2.286256790161133 6.908924579620361 0.4469393789768219 4456788 4 -1
-2.361328601837158 6.766557216644287 1.340818166732788 4456788 0 -1
-2.5607566833496094 6.798884391784668 0.6145416498184204 4456788 4 -1
-2.5590145587921143 6.794259548187256 0.670409083366394 4456788 4 -1
-2.6777760982513428 6.77026891708374 0.39107197523117065 4456788 4 -1
-2.565068483352661 6.810332775115967 0.4469393789768219 4456788 4 -1
-2.733563184738159 6.747937202453613 0.39107197523117065 4456788 4 -1
-2.7346091270446777 6.750519752502441 0.335204541683197 4456788 4 -1
-2.7354938983917236 6.752703666687012 0.2793371081352234 4456788 4 -1
-2.681636333465576 6.780028820037842 0 4456788 4 -1
-2.736217737197876 6.754490375518799 0.22346968948841095 4456788 4 -1
-2.849238634109497 6.7113189697265625 0 4456788 4 -1
-2.7932891845703125 6.734565734863281 0.05586742237210274 4523353 4 -1
-2.73750376701355 6.757665157318115 0 4017546 4 -1
-2.8491549491882324 6.711122035980225 0.05586742237210274 3692940 4 -1
-2.637181282043457 6.831423282623291 0.11223366111516953 4456788 4 -1
-2.41125226020813 6.909616470336914 0.2805841565132141 4456788 4 -1
-2.636251926422119 6.829015731811523 -0.22446732223033905 4456788 4 -1
-2.412740468978882 6.913881301879883 -0.11223366111516953 4456788 4 -1
-2.570438861846924 6.824590682983398 0.6734020113945007 4456788 4 -1
-2.6928961277008057 6.808497428894043 0.16835050284862518 4456788 4 -1
-2.4118900299072266 6.911444664001465 0.22446732223033905 4456788 4 -1
-2.689730405807495 6.800493240356445 0.39281782507896423 4456788 4 -1
-2.687195301055908 6.794083595275879 0.5050514936447144 4456788 4 -1
-2.7477059364318848 6.7828497886657715 0.2805841565132141 4456788 4 -1
-2.7477059364318848 6.7828497886657715 0.2805841565132141 4456788 4 -1
-2.692342519760132 6.807097434997559 0.22446732223033905 4456788 4 -1
-2.917989492416382 6.716982364654541 -0.05611683055758476 4456788 4 -1
-2.6336944103240967 6.822390556335449 0.39281782507896423 4456788 4 -1
-2.7489981651306152 6.78603982925415 0.16835050284862518 4456788 4 -1
-2.8618743419647217 6.741082191467285 0.05611683055758476 4456788 4 -1
-2.636251926422119 6.829015731811523 0.22446732223033905 4456788 4 -1
-2.7484328746795654 6.78464412689209 0.22446732223033905 4456788 4 -1
-2.8055121898651123 6.764035224914551 0.11223366111516953 4456788 4 -1
-2.803781509399414 6.759862899780273 0.2805841565132141 4456788 4 -1
-4.488819122314453 5.785634994506836 -0.11223366111516953 4456788 0 -1
-2.8058416843414307 6.764829635620117 0 4523353 4 -1
-2.917989492416382 6.716982364654541 0.05611683055758476 4657508 4 -1
-2.6907596588134766 6.803095817565918 0.33670100569725037 4657508 4 -1
-2.7489981651306152 6.78603982925415 0.16835050284862518 4017546 4 -1
-2.7016849517822266 6.830718040466309 0.3945636749267578 4456788 4 -1
-2.4234635829925537 6.944609642028809 0.11273247748613358 4456788 4 -1
-2.3656439781188965 6.959725856781006 0.28183120489120483 4456788 4 -1
-2.5818629264831543 6.854922294616699 0.6763948798179626 4456788 4 -1
-2.586674213409424 6.867696285247803 0.5072961449623108 4456788 4 -1
-2.421968936920166 6.94032621383667 0.28183120489120483 4456788 4 -1
-2.6959519386291504 6.81622314453125 0.6200286149978638 4456788 4 -1
-2.4696080684661865 6.8961591720581055 0.6763948798179626 4456788 4 -1
-2.6360371112823486 6.8284592628479 0.7327611446380615 4456788 4 -1
-2.870540142059326 6.761494159698486 0.3945636749267578 4456788 4 -1
-2.6464121341705322 6.855334758758545 0.3381974399089813 4456788 4 -1
-2.6414246559143066 6.8424153327941895 0.5636624097824097 4456788 4 -1
-2.702718734741211 6.83333158493042 0.3381974399089813 4456788 4 -1
-2.8739185333251953 6.769452095031738 0.16909871995449066 4456788 4 -1
-2.8175673484802246 6.793099880218506 0.16909871995449066 4456788 4 -1
-2.705261707305908 6.839761257171631 0.11273247748613358 4456788 4 -1
-2.8162429332733154 6.789906978607178 0.28183120489120483 4456788 4 -1
-4.377941608428955 5.8727850914001465 0.6763948798179626 4456788 0 -1
-4.509299278259277 5.812031269073486 0 4456788 0 -1
-4.377941608428955 5.8727850914001465 0.6763948798179626 4523353 0 -1
-2.586674213409424 6.867696285247803 -0.5072961449623108 4590430 4 -1
-2.9860072135925293 6.7191081047058105 0.22546495497226715 4657508 4 -1
-2.700491428375244 6.827700614929199 0.4509299099445343 4657508 4 -1
-2.595052480697632 6.8899407386779785 0.6227721571922302 4456788 4 -1
-2.755781888961792 6.802785873413086 0.8492347002029419 4456788 4 -1
-2.5330026149749756 6.8955841064453125 0.7926190495491028 4456788 4 -1
-2.3157153129577637 6.997946739196777 0.509540855884552 4456788 4 -1
-2.645580530166626 6.853180885314941 0.7926190495491028 4456788 4 -1
-2.7689497470855713 6.835290908813477 0.4529251754283905 4456788 4 -1
-2.826707601547241 6.815136909484863 0.3963095247745514 4456788 4 -1
-2.6036317348480225 6.912718772888184 0.16984695196151733 4456788 4 -1
-2.657104969024658 6.8830342292785645 0.3963095247745514 4456788 4 -1
-2.7155559062957764 6.865788459777832 0.28307825326919556 4456788 4 -1
-2.8240432739257812 6.808713436126709 0.509540855884552 4456788 4 -1
-2.7728633880615234 6.84495210647583 0.22646258771419525 4456788 4 -1
-2.7728633880615234 6.84495210647583 0.22646258771419525 4456788 4 -1
-2.7701733112335205 6.838311672210693 0.3963095247745514 4456788 4 -1
-2.7701733112335205 6.838311672210693 0.3963095247745514 4456788 4 -1
-2.883241653442383 6.791412353515625 0.3963095247745514 4456788 4 -1
-2.878909111022949 6.78120756149292 0.5661565065383911 4456788 4 -1
-4.4030375480651855 5.906450271606445 0.5661565065383911 4456788 0 -1
-4.528719902038574 5.837062835693359 0.11323129385709763 4456788 0 -1
-4.4030375480651855 5.906450271606445 0.5661565065383911 4523353 0 -1
-5.249775409698486 5.168437957763672 -0.5661565065383911 4590430 0 -1
-2.772529363632202 6.844127655029297 0.7392457127571106 4456788 4 -1
-2.3865787982940674 7.0213165283203125 0.2843252718448639 4456788 4 -1
-2.7179596424102783 6.871865749359131 0.6823806762695312 4456788 4 -1
-2.6108734607696533 6.93194580078125 0.4549204409122467 4456788 4 -1
-2.7834415435791016 6.87106466293335 0.3411903381347656 4456788 4 -1
-2.7811477184295654 6.8654022216796875 0.4549204409122467 4456788 4 -1
-2.8391599655151367 6.845159530639648 0.39805540442466736 4456788 4 -1
-2.7811477184295654 6.8654022216796875 0.4549204409122467 4456788 4 -1
-2.7275187969207764 6.896034240722656 0.2843252718448639 4456788 4 -1
-2.8915915489196777 6.8110809326171875 0.5686505436897278 4456788 4 -1
-2.8915915489196777 6.8110809326171875 0.5686505436897278 4456788 4 -1
-2.8932135105133057 6.814900875091553 0.5117855072021484 4456788 4 -1
-2.6719515323638916 6.921492576599121 -0.1705951690673828 4456788 4 -1
-5.1649885177612305 5.3095598220825195 -0.4549204409122467 4456788 0 -1
-5.059652805328369 5.4264445304870605 -0.1705951690673828 4456788 0 -1
-4.424914836883545 5.935797214508057 0.5117855072021484 4456788 0 -1
-4.492339611053467 5.907145977020264 0 4456788 0 -1
-4.776524543762207 5.679530620574951 -0.05686505511403084 4523353 0 -1
-4.424914836883545 5.935797214508057 0.5117855072021484 4523353 0 -1
-2.9964566230773926 6.742621421813965 0.7961108088493347 4523353 4 -1
-2.9059031009674072 6.844790935516357 0.5140301585197449 4456788 4 -1
-2.680515766143799 6.9436774253845215 0.39980125427246094 4456788 4 -1
-2.7945802211761475 6.898561000823975 0.39980125427246094 4456788 4 -1
-2.7933456897735596 6.895514011383057 0.4569157063961029 4456788 4 -1
-2.738595485687256 6.924039840698242 0.3426867723464966 4456788 4 -1
-4.5605645179748535 5.878107070922852 0.4569157063961029 4456788 0 -1
-3.135388135910034 6.74686861038208 0.4569157063961029 4456788 4 -1
-4.51204252243042 5.933054447174072 0 4456788 0 -1
-4.739943981170654 5.751482009887695 -0.11422892659902573 4523353 0 -1
-2.950269937515259 6.791289329528809 0.8567169904708862 4523353 4 -1
-2.8078575134277344 6.931336879730225 0.3441832363605499 4456788 4 -1
-2.8055436611175537 6.925625324249268 0.4589109718799591 4456788 4 -1
-2.9169564247131348 6.8708271980285645 0.5736387372016907 4456788 4 -1
-4.580479621887207 5.903775691986084 0.4589109718799591 4456788 0 -1
-3.151676893234253 6.781919479370117 0.3441832363605499 4456788 4 -1
-4.474250793457031 6.001978874206543 -0.05736387148499489 4456788 0 -1
-4.6452460289001465 5.8683929443359375 0.17209161818027496 4523353 0 -1
-4.289641857147217 6.10867166519165 0.5736387372016907 4523353 0 -1
-4.862101078033447 6.393359661102295 -0.8040918707847595 4456788 0 -1
-4.205524921417236 6.8891143798828125 0.12370643764734268 4456788 0 -1
-4.452908992767334 6.731860160827637 0.12370643764734268 4456788 0 -1
-4.196005821228027 6.873520374298096 0.5566789507865906 4523353 0 -1
-4.885324001312256 6.423895835876465 -0.7452315092086792 4456788 0 -1
-4.222482681274414 6.916893005371094 0.12420525401830673 4456788 0 -1
-4.470207691192627 6.758012294769287 0.1863078773021698 4456788 0 -1
-4.212924957275391 6.901236534118652 0.5589236617088318 4523353 0 -1
-4.721818923950195 6.591573715209961 -1.0016231536865234 4456788 0 -1
-4.507171630859375 6.813893795013428 -0.06260144710540771 4456788 0 -1
-5.080014705657959 6.28984260559082 -1.3827186822891235 4456788 0 -1
-4.690369129180908 6.679328441619873 -0.8170610666275024 4456788 0 -1
-3.016486644744873 7.626636505126953 -0.12570171058177948 4456788 0 -1
-4.5240654945373535 6.8394341468811035 -0.18855255842208862 4456788 0 -1
-4.7626214027404785 6.648533344268799 -0.6285085082054138 4523353 0 -1
-4.272728443145752 6.99920129776001 0.18855255842208862 4523353 0 -1
-2.8897809982299805 7.6724534034729 0.25140342116355896 4523353 0 -1
-4.539883136749268 6.863347053527832 -0.31550130248069763 4456788 0 -1
-6.680717468261719 4.398911952972412 -2.09053897857666 4456788 0 -1
-2.266963243484497 7.6679840087890625 2.2259676456451416 4456788 0 -1
-7.173047065734863 3.9974043369293213 1.208382487297058 4456788 0 -1
-6.645025253295898 4.772627353668213 -1.3991796970367432 4456788 0 -1
-6.870449066162109 4.24836540222168 -1.9079723358154297 4456788 0 -1
-5.779184818267822 5.940947532653809 -0.4451935291290283 4456788 0 -1
-1.650551199913025 7.805485248565674 2.2895667552948 4456788 0 -1
-1.650551199913025 7.805485248565674 2.2895667552948 4456788 0 -1
-7.04869270324707 4.216190814971924 -1.4046666622161865 4456788 0 -1
-6.699168682098389 4.9449615478515625 -0.3192424178123474 4456788 0 -1
-2.3373630046844482 7.679602146148682 2.234696865081787 4456788 0 -1
-7.154590606689453 3.98711895942688 -1.5323636531829834 4456788 0 -1
-6.586698532104492 4.730735778808594 -1.9154545068740845 4456788 0 -1
-6.79915714263916 4.612542152404785 -1.7373771667480469 4456788 0 -1
-5.282100200653076 6.672938346862793 -1.5922216176986694 4456788 0 -1
-4.574276447296143 7.343692302703857 -0.33171284198760986 4456788 0 -1
-3.6078083515167236 8.698355674743652 -0.6509552597999573 4523353 0 -1
-1.8803164958953857 9.249049186706543 0.1446567177772522 4523353 0 -1
-4.491359233856201 8.319107055664062 -0.580622136592865 4456788 0 -1
-5.1821513175964355 8.319595336914062 -2.3968122005462646 4523353 0 -1
-4.742551326751709 8.78437614440918 -1.4690139293670654 4523353 0 -1
-3.366178035736084 9.163734436035156 -2.551445245742798 4523353 0 -1
-3.1603336334228516 9.297703742980957 -2.319495677947998 4590430 0 -1
-4.0333099365234375 9.28436279296875 0.07756593078374863 4456788 0 -1
-4.421128273010254 9.106075286865234 0.07756593078374863 4456788 0 -1
-5.142614841461182 8.42417049407959 -2.2494120597839355 4523353 0 -1
-4.752281188964844 8.802398681640625 -1.551318645477295 4523353 0 -1
-3.3215057849884033 9.275007247924805 -2.3269779682159424 4523353 0 -1
-5.075899124145508 8.484769821166992 -2.1718461513519287 4657508 0 -1
-7.103768825531006 6.394137859344482 -3.3353350162506104 4724328 0 -1
-5.2812180519104 8.145255088806152 -2.8699395656585693 4724328 0 -1
-4.3421525955200195 9.14035415649414 -0.855968713760376 4523353 0 -1
-4.383080959320068 9.0277099609375 -1.5563068389892578 4590430 0 -1
-4.275318145751953 9.199821472167969 -0.4668920338153839 4657508 0 -1
-5.448141098022461 8.402701377868652 -2.6172890663146973 4523353 0 -1
-5.088087558746338 8.858620643615723 -1.6655476093292236 4523353 0 -1
-4.304488658905029 10.37803840637207 -0.7766569256782532 4456788 0 -1
-4.397824764251709 10.358980178833008 0.43147608637809753 4456788 0 -1
-4.319093704223633 10.413250923156738 -0.6923570036888123 4456788 0 -1
-4.327104091644287 10.432563781738281 -0.08654462546110153 4456788 0 -1
-4.518959045410156 9.724098205566406 -3.5483295917510986 4523353 0 -1
-4.035245895385742 10.202383995056152 -2.6828832626342773 4590430 0 -1
-4.0761542320251465 10.062191009521484 -3.1156065464019775 4725613 0 -1
-4.215494632720947 10.16347599029541 -2.690614938735962 4456788 0 -1
-4.429793357849121 10.434280395507812 -1.1348069906234741 4456788 0 -1
-4.445741653442383 10.471846580505371 -1.0505070686340332 4456788 0 -1
-4.534912586212158 10.43901252746582 -1.3168749809265137 4456788 0 -1
-4.250977516174316 10.49375057220459 -1.7558332681655884 4456788 0 -1
-4.458407402038574 10.501681327819824 -1.0534999370574951 4456788 0 -1
-4.19614839553833 10.609195709228516 -1.0534999370574951 4523353 0 -1
-4.3834052085876465 10.568305015563965 -1.0564929246902466 4456788 0 -1
-4.398815155029297 10.60545825958252 -0.9711952805519104 4456788 0 -1
-4.438846588134766 10.701973915100098 -0.8903870582580566 4456788 0 -1
-4.448519229888916 10.72529411315918 -0.9821692705154419 4456788 0 -1
3.5882842540740967 11.458904266357422 0.27609482407569885 4456788 0 -1
3.597268581390381 11.487595558166504 0.36912405490875244 4456788 5 -1
3.5963172912597656 11.484557151794434 0.46140506863594055 4456788 5 -1
3.6069910526275635 11.51864242553711 0.37012168765068054 4456788 5 -1
3.7002387046813965 11.4916353225708 0.2775912582874298 4456788 5 -1
3.606036901473999 11.515596389770508 0.4626521170139313 4456788 5 -1
3.430333375930786 11.603073120117188 0.4638991355895996 4456788 5 -1
3.803861379623413 11.495030403137207 0.09277983009815216 4456788 5 -1
3.709449529647827 11.520240783691406 0.37111932039260864 4456788 5 -1
3.618307113647461 11.554780006408691 0.09277983009815216 4456788 5 -1
3.523045063018799 11.575260162353516 0.4638991355895996 4456788 5 -1
3.705850839614868 11.509064674377441 0.6494588255882263 4456788 0 -1
3.38811993598938 11.460286140441895 -1.9483764171600342 4456788 0 -1
3.6280336380004883 11.585841178894043 0.09302923828363419 4456788 5 -1
3.627714157104492 11.584820747375488 0.18605847656726837 4456788 5 -1
3.7207324504852295 11.555281639099121 0.18605847656726837 4456788 5 -1
3.6264357566833496 11.580738067626953 0.37211695313453674 4456788 5 -1
3.533450126647949 11.60944652557373 0.37211695313453674 4456788 5 -1
3.4130358695983887 11.213814735412598 -3.162994146347046 4456788 0 -1
3.5102360248565674 11.209663391113281 -3.06996488571167 4456788 0 -1
3.383378028869629 11.444247245788574 -2.2327017784118652 4456788 0 -1
3.7310361862182617 11.587281227111816 -0.09327864646911621 4456788 5 -1
3.6377604007720947 11.616902351379395 0.09327864646911621 4456788 5 -1
3.543651819229126 11.642965316772461 0.27983593940734863 4456788 5 -1
3.4503979682922363 11.670941352844238 0.27983593940734863 4456788 5 -1
3.4620473384857178 11.374846458435059 -2.611802101135254 4456788 0 -1
3.687072277069092 11.45074462890625 -1.8655729293823242 4456788 0 -1
3.5536487102508545 11.675810813903809 -0.18705610930919647 4456788 5 -1
3.273385763168335 11.758578300476074 -0.09352805465459824 4456788 5 -1
3.64663028717041 11.645227432250977 -0.2805841565132141 4456788 5 -1
3.3669111728668213 11.73214054107666 0.09352805465459824 4456788 5 -1
3.6458804607391357 11.64283275604248 0.37411221861839294 4456788 5 -1
3.273481845855713 11.758923530578613 0 4456788 5 -1
-4.382894992828369 11.353565216064453 -0.9352805018424988 4456788 0 -1
3.4681358337402344 11.730939865112305 -0.37510985136032104 4456788 5 -1
3.5631251335144043 11.70694637298584 -0.18755492568016052 4456788 5 -1
3.563438892364502 11.707977294921875 -0.09377746284008026 4456788 5 -1
3.3724188804626465 11.751333236694336 -0.5626647472381592 4456788 5 -1
3.5631251335144043 11.70694637298584 0.18755492568016052 4456788 5 -1
3.6563546657562256 11.676280975341797 0.2813323736190796 4456788 5 -1
3.6546359062194824 11.670792579650879 0.4688872992992401 4456788 5 -1
3.375988721847534 11.763772010803223 0 4456788 5 -1
3.478585720062256 11.76628589630127 -0.18805374205112457 4456788 5 -1
3.5730209350585938 11.739459991455078 0 4456788 5 -1
3.572916030883789 11.739115715026855 0.09402687102556229 4456788 5 -1
3.478585720062256 11.76628589630127 -0.18805374205112457 4456788 5 -1
3.7600810527801514 11.677483558654785 0.28208062052726746 4456788 5 -1
3.7600810527801514 11.677483558654785 0.28208062052726746 4456788 5 -1
3.572601556777954 11.738081932067871 0.18805374205112457 4456788 5 -1
3.2885243892669678 11.812958717346191 -0.47013434767723083 4456788 5 -1
3.356126308441162 11.694561004638672 -1.5984567403793335 4456788 0 -1
3.557884693145752 11.689728736877441 -1.1283224821090698 4456788 5 -1
3.452749729156494 11.678895950317383 -1.5044299364089966 4456788 5 -1
3.663691282272339 11.69970989227295 -1.037039041519165 4456788 5 -1
3.669860363006592 11.71941089630127 -0.7542102336883545 4456788 5 -1
3.762073278427124 11.683671951293945 -0.8484864830970764 4456788 5 -1
3.7706081867218018 11.710177421569824 -0.18855255842208862 4456788 5 -1
3.580815553665161 11.765069007873535 0.37710511684417725 4456788 5 -1
3.9577434062957764 11.643683433532715 0.37710511684417725 4456788 5 -1
3.7709403038024902 11.711209297180176 0.09427627921104431 4456788 5 -1
3.580815553665161 11.765069007873535 0.37710511684417725 4456788 5 -1
3.9594874382019043 11.64881420135498 -0.09427627921104431 4456788 5 -1
3.393846273422241 11.825997352600098 -0.09427627921104431 4456788 5 -1
3.739715337753296 11.30118465423584 -3.111117124557495 4456788 0 -1
3.289968729019165 11.818147659301758 -0.9427627921104431 4456788 5 -1
3.573969602584839 11.742576599121094 -0.8484864830970764 4456788 5 -1
3.6659653186798096 11.706972122192383 -0.9427627921104431 4456788 5 -1
3.5587568283081055 11.692593574523926 -1.4141441583633423 4456788 5 -1
3.567322015762329 11.720735549926758 -1.1313153505325317 4456788 5 -1
3.473445177078247 11.74889850616455 -1.1313153505325317 4456788 5 -1
3.5697503089904785 11.728713989257812 -1.037039041519165 4456788 5 -1
3.5773415565490723 11.753655433654785 -0.6599339246749878 4456788 5 -1
3.5767593383789062 11.75174331665039 -1.1343082189559937 4456788 5 -1
3.5834245681762695 11.773642539978027 -0.8507311940193176 4456788 5 -1
3.6795690059661865 11.750414848327637 -0.7562054991722107 4456788 5 -1
3.3993265628814697 11.845093727111816 -0.5671541094779968 4456788 5 -1
3.7739169597625732 11.720453262329102 -0.7562054991722107 4456788 5 -1
3.86826491355896 11.689653396606445 -0.7562054991722107 4456788 5 -1
3.7800283432006836 11.739433288574219 -0.2835770547389984 4456788 5 -1
3.8750979900360107 11.71030330657959 -0.18905137479305267 4456788 5 -1
3.969029664993286 11.676887512207031 -0.2835770547389984 4456788 5 -1
3.6855275630950928 11.76944351196289 -0.2835770547389984 4456788 5 -1
4.0644850730896 11.647074699401855 -0.09452568739652634 4456788 5 -1
3.781027317047119 11.742536544799805 0 4456788 5 -1
3.780916452407837 11.742191314697266 -0.09452568739652634 4456788 5 -1
3.4937522411346436 11.817586898803711 0.5671541094779968 4456788 5 -1
3.2633004188537598 11.371105194091797 -3.497450351715088 4456788 0 -1
3.497039556503296 11.828706741333008 -0.18905137479305267 4456788 5 -1
3.377254009246826 11.768180847167969 -1.5124109983444214 4456788 5 -1
3.7739169597625732 11.720453262329102 -0.7562054991722107 4456788 5 -1
3.574110984802246 11.743041038513184 -1.2288339138031006 4456788 5 -1
3.5767593383789062 11.75174331665039 -1.1343082189559937 4456788 5 -1
3.47106671333313 11.740853309631348 -1.5124109983444214 4456788 5 -1
3.574110984802246 11.743041038513184 -1.2288339138031006 4456788 5 -1
3.5852210521698 11.779544830322266 -0.7562054991722107 4456788 5 -1
3.581415891647339 11.76704216003418 -0.9452568292617798 4456788 5 -1
-4.528700351715088 11.449993133544922 -0.7562054991722107 4456788 0 -1
3.489124059677124 11.801931381225586 -0.8507311940193176 4456788 5 -1
3.680570363998413 11.753612518310547 -1.1373010873794556 4456788 5 -1
3.78387451171875 11.751378059387207 -0.7582007646560669 4456788 5 -1
3.8719515800476074 11.700794219970703 -1.0425260066986084 4456788 5 -1
3.5928795337677 11.804707527160645 -0.8529758453369141 4456788 5 -1
3.7855465412139893 11.756570816040039 -0.6634256839752197 4456788 5 -1
3.9804370403289795 11.710448265075684 -0.09477509558200836 4456788 5 -1
3.8853225708007812 11.741201400756836 -0.18955019116401672 4456788 5 -1
3.8853225708007812 11.741201400756836 -0.18955019116401672 4456788 5 -1
3.6957945823669434 11.802229881286621 -0.18955019116401672 4456788 5 -1
3.7908923625946045 11.773173332214355 -0.09477509558200836 4456788 5 -1
