VERSION .7
FIELDS x y z rgb label object
SIZE 4 4 4 4 4 4
TYPE F F F I I I
COUNT 1 1 1 1 1 1
WIDTH 685
HEIGHT 1
POINTS 685
VIEWPOINT 0 0 0 1 0 0 0
DATA ascii
-2.9828338623046875 2.2612762451171875 0.028681935742497444 4456788 0 -1
-2.673130512237549 2.5745129585266113 0.4875929057598114 4456788 0 -1
-2.8153181076049805 2.4182074069976807 0.4875929057598114 4456788 0 -1
-2.8123741149902344 2.4156785011291504 0.5162748694419861 4523353 0 -1
-2.809258460998535 2.4130022525787354 0.5449568033218384 4657508 0 -1
-2.8395116329193115 2.438988208770752 0 4724328 0 -1
-3.1188881397247314 2.053628921508789 -0.25813743472099304 4729209 0 -1
-2.9825711250305176 2.2610769271850586 -0.05736387148499489 4729209 0 -1
-2.678234577178955 2.5794286727905273 0.4302290380001068 4729209 0 -1
-2.974151611328125 2.2546942234039307 0.28681936860084534 3562893 0 -1
-2.6180214881896973 2.5774590969085693 0.7170484066009521 3562893 0 -1
-3.179111957550049 1.9658145904541016 0.20077355206012726 2977934 0 -1
-2.963153123855591 2.246356248855591 0.4302290380001068 2977934 0 -1
-3.1248600482940674 1.9950437545776367 0.5162748694419861 2523534 0 -1
-2.9083445072174072 2.204806089401245 0.8317761421203613 2523534 0 -1
-2.838761329650879 2.4383437633514404 0.08604580909013748 4045940 0 -1
-3.0369884967803955 2.241739511489868 0.08679403364658356 4456788 0 -1
-2.854011058807373 2.451442241668701 0.3182447850704193 4456788 0 -1
-3.0016965866088867 2.275576114654541 0.2603820860385895 4456788 0 -1
-2.818910837173462 2.479095220565796 0.40503883361816406 4456788 0 -1
-2.847675323486328 2.446000337600708 0.40503883361816406 4456788 0 -1
-2.8499577045440674 2.44796085357666 0.37610748410224915 4456788 0 -1
-2.818910837173462 2.479095220565796 0.40503883361816406 4456788 0 -1
-2.97774076461792 2.3169727325439453 0.1446567177772522 4456788 0 -1
-2.8345224857330322 2.4928250312805176 0.08679403364658356 4456788 0 -1
-2.823213815689087 2.4249892234802246 0.6364895701408386 4456788 0 -1
-2.839799165725708 2.439235210418701 0.4918328523635864 4456788 0 -1
-2.836829423904419 2.4366843700408936 0.520764172077179 4456788 0 -1
-2.836829423904419 2.4366843700408936 0.520764172077179 4523353 0 -1
-2.839799165725708 2.439235210418701 0.4918328523635864 4657508 0 -1
-2.8642032146453857 2.4601967334747314 0 4724328 0 -1
-3.1422948837280273 2.0690410137176514 -0.3182447850704193 4729209 0 -1
-2.979928493499756 2.3186750411987305 0 4729209 0 -1
-2.7302632331848145 2.5716843605041504 0.4339701533317566 4729209 0 -1
-2.9981529712677 2.2728896141052246 0.3182447850704193 3562893 0 -1
-2.8322737216949463 2.49084734916687 0.17358806729316711 4045940 0 -1
-2.85494327545166 2.3940818309783936 -0.7878803014755249 4456788 0 -1
-2.713765859603882 2.6136491298675537 -0.5544342994689941 4456788 0 -1
-3.0197043418884277 2.2892277240753174 0.37934979796409607 4456788 0 -1
-2.8642802238464355 2.4602630138397217 0.49607279896736145 4456788 0 -1
-2.992884874343872 2.328756332397461 0.35016903281211853 4456788 0 -1
-2.8901867866516113 2.4236364364624023 0.5252535343170166 4456788 0 -1
-2.994922161102295 2.3303415775299072 0.320988267660141 4456788 0 -1
-2.8612849712371826 2.4576902389526367 0.5252535343170166 4456788 0 -1
-2.992884874343872 2.328756332397461 0.35016903281211853 4523353 0 -1
-2.8612849712371826 2.4576902389526367 0.5252535343170166 4523353 0 -1
-2.992884874343872 2.328756332397461 0.35016903281211853 4590430 0 -1
-2.835348129272461 2.493551015853882 0.49607279896736145 4590430 0 -1
-2.611583709716797 2.8009064197540283 -0.2943015992641449 4456788 0 -1
-1.6751043796539307 3.4501657485961914 0.20601113140583038 4456788 0 -1
-3.655132532119751 0.9863348007202148 0.6474635601043701 4456788 0 -1
-2.4598381519317627 2.924872636795044 0.3825920820236206 4456788 0 -1
-2.4598381519317627 2.924872636795044 0.3825920820236206 4456788 0 -1
3.185075044631958 1.9695018529891968 -0.8534746766090393 4456788 0 -1
-3.1866283416748047 2.0982322692871094 0.44145241379737854 4523353 0 -1
-2.7864482402801514 2.336643934249878 -1.2360666990280151 4657508 0 -1
-1.9990029335021973 3.0830745697021484 -1.118346095085144 4657508 0 -1
-3.6700119972229004 1.1013239622116089 -0.2648714482784271 4729209 0 -1
-2.67499041557312 2.4634580612182617 -1.2360666990280151 4729209 0 -1
-3.52927565574646 1.5891335010528564 0.14839784801006317 4523353 0 -1
-3.1597392559051514 2.0805273056030273 0.8310279250144958 4523353 0 -1
-2.2823288440704346 2.8832924365997314 1.2168623208999634 4523353 0 -1
3.263218641281128 2.0833778381347656 0.11871827393770218 4523353 0 -1
-3.5464603900909424 1.5968713760375977 0.35914772748947144 4523353 0 -1
-3.293811082839966 2.0367391109466553 0.5087926387786865 4523353 0 -1
-2.3192059993743896 2.929879903793335 1.1373010873794556 4523353 0 -1
-2.5398523807525635 3.339747190475464 0.16086825728416443 4456788 0 -1
-2.5414199829101562 3.341808557510376 0.0643472969532013 4523353 0 -1
-2.560218334197998 3.3665270805358887 0.1296922266483307 4456788 0 -1
-0.748701274394989 5.0878777503967285 0.039406485855579376 2666112 4 -1
-0.6683154106140137 5.0868635177612305 0.3546583652496338 4045940 4 -1
-0.6683154106140137 5.0868635177612305 0.3546583652496338 4505456 4 -1
-0.6686504483222961 5.089413642883301 0.315251886844635 4899181 4 -1
-0.6692019104957581 5.093611240386963 0.23643891513347626 5424489 4 -1
-0.669418454170227 5.095259189605713 0.19703243672847748 5949540 4 -1
-0.7082957029342651 5.086338043212891 0.27584540843963623 6343264 4 -1
-0.7929083108901978 5.11288595199585 0.1189676821231842 2782862 4 -1
-0.7102559208869934 5.100414752960205 0.5155266523361206 3257723 4 -1
-0.7121067643165588 5.113705635070801 0.3569030463695526 3651704 4 -1
-0.6728824377059937 5.121624946594238 0.3172471523284912 5424489 4 -1
-0.7117075324058533 5.110838890075684 0.396558940410614 5949540 4 -1
-0.7121067643165588 5.113705635070801 0.3569030463695526 6343264 4 -1
-0.7136175036430359 5.12455415725708 0.1189676821231842 8705099 4 -1
-0.7532628774642944 5.118876934051514 0.1189676821231842 9360965 4 -1
-0.8371252417564392 5.134620189666748 0.23943181335926056 2912910 4 -1
-0.8371252417564392 5.134620189666748 0.23943181335926056 2782862 4 -1
-0.8373960852622986 5.136281490325928 0.19952651858329773 2718350 4 -1
-0.8377898931503296 5.138697147369385 0.11971590667963028 2199437 4 -1
-0.7977311015129089 5.143984317779541 0.1596212089061737 2271109 4 -1
-0.7981060743331909 5.146402359008789 0 2468738 4 -1
-0.7161836624145508 5.142982482910156 0.39905303716659546 3651704 4 -1
-0.7161836624145508 5.142982482910156 0.39905303716659546 4505456 4 -1
-0.6759760975837708 5.145172595977783 0.4389583170413971 5424489 4 -1
-0.6771143674850464 5.153836727142334 0.3192424178123474 6343264 4 -1
-0.8813005089759827 5.153176307678223 0.36139240860939026 2912910 4 -1
-0.8423572778701782 5.166711330413818 0.2409282624721527 2782862 4 -1
-0.8423572778701782 5.166711330413818 0.2409282624721527 2718350 4 -1
-0.8426298499107361 5.1683831214904785 0.20077355206012726 2199437 4 -1
-0.8030706644058228 5.178415298461914 0.04015471041202545 2468738 4 -1
-0.7214255332946777 5.180624485015869 0.3212376832962036 2994813 4 -1
-0.6816474199295044 5.188339710235596 0.28108298778533936 3651704 4 -1
-0.7217443585395813 5.1829142570495605 0.28108298778533936 4045940 4 -1
-0.7214255332946777 5.180624485015869 -0.3212376832962036 4899181 4 -1
-0.6412671208381653 5.191156387329102 0.3212376832962036 6343264 4 -1
-0.7629395127296448 5.184635162353516 0 7589974 4 -1
-0.7224452495574951 5.1879472732543945 -0.1606188416481018 11197490 4 -1
-0.6823093891143799 5.19337797164917 -0.1606188416481018 12640037 4 -1
-0.6823093891143799 5.19337797164917 -0.1606188416481018 13164576 4 -1
-0.8394463658332825 5.148857116699219 -0.7676782608032227 4456788 4 -1
-0.7988094091415405 4.899604797363281 -1.7777812480926514 4600703 0 -1
-0.48243796825408936 5.2245659828186035 -0.5252535343170166 4341894 4 -1
-0.7673175930976868 5.214386940002441 -0.1616164743900299 4212104 4 -1
-0.8882380127906799 5.193741321563721 -0.20202060043811798 3302798 4 -1
-0.9291856288909912 5.189876079559326 -0.08080823719501495 3238030 4 -1
-0.8876110315322876 5.190075397491455 0.28282883763313293 2782862 4 -1
-0.8879507184028625 5.192061424255371 0.24242471158504486 2718350 4 -1
-0.8472651243209839 5.19681453704834 0.28282883763313293 2264205 4 -1
-0.8057066202163696 5.195413112640381 0.40404120087623596 2072968 4 -1
-0.7658506631851196 5.204418182373047 0.3636370599269867 2994813 4 -1
-0.7272527813911438 5.222470760345459 -0.04040411859750748 4505456 4 -1
-0.6462950706481934 5.231858253479004 0.12121235579252243 7589974 4 -1
-0.7270819544792175 5.221243858337402 -0.12121235579252243 10672695 4 -1
-0.6866885423660278 5.226709842681885 -0.12121235579252243 12640037 4 -1
-0.6865473389625549 5.225635051727295 -0.1616164743900299 13164576 4 -1
-4.526920795440674 2.7077877521514893 -0.569149374961853 4456788 0 -1
-0.8911949992179871 5.211031436920166 -0.4471887946128845 4725613 4 -1
-0.8899292945861816 5.2036309242248535 -0.5284958481788635 4600703 4 -1
-0.9347840547561646 5.2211456298828125 -0.1219605803489685 3302798 4 -1
-0.9347840547561646 5.2211456298828125 0.1219605803489685 2718350 4 -1
-0.8942725658416748 5.229026794433594 0.081307053565979 2523534 4 -1
-0.8124735951423645 5.239048004150391 0.2032676339149475 2134668 4 -1
-0.8524951338768005 5.228893280029297 0.2845746874809265 2070155 4 -1
-0.8126885294914246 5.240434169769287 0.162614107131958 2070922 4 -1
-0.7701461315155029 5.233608722686768 0.406535267829895 2271109 4 -1
-0.7672981023788452 5.214254856109619 0.6098029017448425 2666112 4 -1
-0.7696684002876282 5.230362415313721 0.4471887946128845 2994813 4 -1
-0.7314196825027466 5.25239372253418 0.162614107131958 4505456 4 -1
-0.6097313165664673 5.26978874206543 0.081307053565979 7589974 4 -1
-0.7317420244216919 5.254708290100098 -0.0406535267829895 10672695 4 -1
-0.7315701246261597 5.25347375869751 -0.1219605803489685 11197490 4 -1
-0.7723943591117859 5.248886585235596 -0.0406535267829895 11918891 4 -1
-4.53231954574585 2.711016893386841 -0.7771557569503784 4456788 0 -1
-0.8939010500907898 5.22685432434082 -0.6135440468788147 4664956 4 -1
-0.8960524797439575 5.239434719085693 -0.4908352196216583 4600703 4 -1
-0.9406570196151733 5.25394868850708 -0.08180586993694305 3302798 4 -1
-0.8996267914772034 5.260334491729736 -0.12270880490541458 2912910 4 -1
-0.858734667301178 5.26716423034668 -0.12270880490541458 2782862 4 -1
-0.8998381495475769 5.261570453643799 -0.04090293496847153 2718350 4 -1
-0.8174580931663513 5.2711896896362305 0.20451468229293823 2134668 4 -1
-0.816111147403717 5.2625041007995605 0.36812642216682434 2070155 4 -1
-0.8165202736854553 5.265142440795898 0.3272234797477722 2070922 4 -1
-0.8145931959152222 5.252715587615967 0.4908352196216583 2139270 4 -1
-0.7753055691719055 5.268670558929443 0.36812642216682434 2271109 4 -1
-0.7760370373725891 5.273641109466553 0.2863205373287201 2468738 4 -1
-0.7743902802467346 5.262450218200684 0.4499322772026062 2666112 4 -1
-0.7351930141448975 5.279489994049072 0.2863205373287201 4505456 4 -1
-0.7348682284355164 5.277158260345459 0.3272234797477722 4899181 4 -1
-0.7360582947731018 5.285703659057617 0.12270880490541458 5424489 4 -1
-0.65396648645401 5.293959140777588 0.20451468229293823 8180304 4 -1
-0.7743902802467346 5.262450218200684 0.4499322772026062 13164576 4 -1
-4.528990268707275 2.800516366958618 -0.6995898485183716 4456788 0 -1
-0.8985218405723572 5.253873825073242 -0.6584374904632568 4664956 4 -1
-0.9021298885345459 5.274970531463623 -0.45267578959465027 4600703 4 -1
-0.9040483236312866 5.286188125610352 -0.28806641697883606 3887499 4 -1
-0.9040483236312866 5.286188125610352 -0.28806641697883606 3757452 4 -1
-0.9046868681907654 5.289921760559082 -0.20576171576976776 3562893 4 -1
-0.9051123261451721 5.292409420013428 -0.12345702946186066 2912910 4 -1
-0.9053515791893005 5.293808460235596 0 2782862 4 -1
-0.9051123261451721 5.292409420013428 -0.12345702946186066 2718350 4 -1
-0.8210874199867249 5.294592380523682 0.37037110328674316 2070155 4 -1
-0.8210874199867249 5.294592380523682 0.37037110328674316 2070922 4 -1
-0.7785822153091431 5.2909369468688965 0.4938281178474426 2139270 4 -1
-0.7800330519676208 5.3007965087890625 0.37037110328674316 2271109 4 -1
-0.7804241180419922 5.3034539222717285 0.3292187452316284 2468738 4 -1
-0.7795957922935486 5.297824859619141 0.4115234315395355 2666112 4 -1
-0.7396758794784546 5.311682224273682 0.28806641697883606 4505456 4 -1
-0.7807689905166626 5.305797576904297 0.28806641697883606 9360965 4 -1
-0.6626220345497131 5.0435285568237305 1.8216770887374878 4456788 0 -1
-4.560926914215088 2.8202643394470215 -0.6624280214309692 4456788 0 -1
-0.8687984347343445 5.328892230987549 -0.20700876414775848 3757452 4 -1
-0.9000794291496277 5.262980937957764 -0.8280350565910339 3692940 4 -1
-0.9095273613929749 5.318225383758545 -0.28981226682662964 3562893 4 -1
-0.9107315540313721 5.3252668380737305 -0.08280350267887115 2912910 4 -1
-0.9107315540313721 5.3252668380737305 0.08280350267887115 2782862 4 -1
-0.6614744663238525 5.354737758636475 0.28981226682662964 8705099 4 -1
-0.7862637042999268 5.343137264251709 0.1656070053577423 9360965 4 -1
-0.6203696131706238 5.361733436584473 0.24841050803661346 9360965 4 -1
-1.1360108852386475 5.171605110168457 1.0764455795288086 13164576 0 -1
-0.9249861240386963 5.1664204597473145 1.2834542989730835 13164576 0 -1
-0.4983444809913635 5.396825790405273 0.416511595249176 4456788 4 -1
-0.9372509717941284 5.23492431640625 1.1245813369750977 4456788 0 -1
-4.616623401641846 2.8547046184539795 0.2915581166744232 4456788 0 -1
-0.8407382369041443 5.156781196594238 1.4994417428970337 3692940 0 -1
-0.890099287033081 5.204624652862549 -1.291185975074768 3432845 0 -1
-0.9150064587593079 5.3502631187438965 0.2915581166744232 2782862 4 -1
-0.8329253792762756 5.370926856994629 -0.0833023190498352 5949540 4 -1
-0.8883529305458069 5.194413661956787 1.3328371047973633 13164576 0 -1
-0.5855047702789307 5.426537036895752 0.335204541683197 4456788 4 -1
-0.9472771883010864 5.290925025939941 1.0056136846542358 4456788 0 -1
-0.7281656861305237 5.2290263175964355 1.4246193170547485 4456788 0 -1
-4.647548198699951 2.8738272190093994 0.20950284600257874 4456788 0 -1
-1.0048753023147583 5.3711090087890625 0.20950284600257874 3757452 4 -1
-1.0467451810836792 5.363106727600098 0.20950284600257874 3692940 4 -1
-0.9602837562561035 5.363571643829346 -0.4609062373638153 3432845 4 -1
-0.8705369830131531 5.339555263519287 0.7961108088493347 2070922 4 -1
-0.9179074168205261 5.367225646972656 -0.5028068423271179 8705099 4 -1
-0.5982593894004822 5.170639514923096 1.6760227680206299 8705099 0 -1
-0.7162129282951355 5.451434135437012 -0.1685999035835266 4456788 4 -1
-0.5452244281768799 5.446283340454102 0.5479496717453003 4456788 4 -1
-4.676449298858643 2.891698122024536 0.1685999035835266 4456788 0 -1
-1.0108567476272583 5.403079986572266 0.21074987947940826 3757452 4 -1
-1.0467660427093506 5.363214015960693 0.632249653339386 3107982 4 -1
-0.8712950944900513 5.344205856323242 0.9694494605064392 2070155 4 -1
-0.8757187724113464 5.371338367462158 0.8008495569229126 2070922 4 -1
-0.8349428772926331 5.383935928344727 0.7586995959281921 2006409 4 -1
-0.8340178728103638 5.377971172332764 0.8008495569229126 2072968 4 -1
-0.7962282299995422 5.410852432250977 -0.5900996923446655 6933851 4 -1
-4.562662124633789 2.8213374614715576 -1.3567802906036377 4456788 0 -1
-0.9571261405944824 5.345935344696045 1.059984564781189 4728182 0 -1
-1.0592063665390015 5.426953315734863 0.211996927857399 4147337 4 -1
-1.14313542842865 5.40590763092041 0.29679569602012634 3757452 4 -1
-0.9749281406402588 5.445366382598877 0.12719815969467163 3757452 4 -1
-1.057461142539978 5.41801118850708 0.3815944492816925 3562893 4 -1
-1.0547126531600952 5.403929233551025 0.5511919856071472 3107982 4 -1
-1.057461142539978 5.41801118850708 0.3815944492816925 2977934 4 -1
-1.0562126636505127 5.411614894866943 0.46639323234558105 2523534 4 -1
-0.8358522057533264 5.38979959487915 0.9327864646911621 2070155 4 -1
-0.7613719701766968 5.467483997344971 0.3815944492816925 2070922 4 -1
-0.838952898979187 5.409793853759766 0.8055883049964905 2006409 4 -1
-0.838952898979187 5.409793853759766 0.8055883049964905 2072968 4 -1
-1.1062287092208862 5.441404819488525 0.38383913040161133 4212104 4 -1
-1.0650924444198608 5.45711088180542 0.2558927536010742 4147337 4 -1
-1.0220975875854492 5.463162899017334 0.2985415458679199 2977934 4 -1
-1.0624257326126099 5.443447589874268 0.46913671493530273 2912910 4 -1
-0.8839536905288696 5.421848773956299 0.8956246376037598 2006409 4 -1
-1.2355071306228638 5.421070098876953 0.2558927536010742 2139270 4 -1
-1.0657188892364502 5.460320472717285 0.1705951690673828 2139270 4 -1
-1.0657188892364502 5.460320472717285 0.1705951690673828 2271109 4 -1
-1.0220975875854492 5.463162899017334 0.2985415458679199 2666112 4 -1
-1.1132557392120361 5.4759697914123535 0.3431856036186218 4212104 4 -1
-1.070911169052124 5.486924171447754 0.3002873957157135 4147337 4 -1
-1.1120741367340088 5.470157623291016 0.4289819896221161 4017546 4 -1
-1.0686386823654175 5.47528076171875 0.4718801975250244 3887499 4 -1
-1.1089171171188354 5.4546284675598145 0.600574791431427 3302798 4 -1
-3.5184922218322754 4.269363880157471 -0.8579639792442322 2139270 0 -1
-0.8922525644302368 5.472750663757324 0.7721676230430603 2139270 4 -1
-1.1133750677108765 5.476556777954102 0.690361738204956 3302798 4 -1
-1.0771374702453613 5.518824577331543 0.3020332455635071 2782862 4 -1
-3.525197744369507 4.277500629425049 -0.9923949837684631 2468738 0 -1
-1.0741205215454102 5.5033674240112305 0.517771303653717 2468738 4 -1
-3.7782490253448486 4.137810707092285 -0.824543297290802 2006409 0 -1
-3.502856731414795 4.337077617645264 -0.9981313943862915 2006409 0 -1
-3.5405220985412598 4.296095371246338 -1.041528344154358 2468738 0 -1
-1.082342505455017 5.5454936027526855 0.3905731439590454 2468738 4 -1
-3.6079585552215576 4.118253231048584 -1.571271300315857 2977934 0 -1
-1.0891085863113403 5.580160140991211 0.34917140007019043 2977934 4 -1
-3.790834426879883 4.1515936851501465 -0.9165748953819275 2070922 0 -1
-3.7477569580078125 4.190522193908691 -0.9165748953819275 2006409 0 -1
-3.8725805282592773 3.9809763431549072 -1.4046666622161865 3107982 0 -1
-3.8023722171783447 4.164229393005371 -1.0096042156219482 2006409 0 -1
-4.539883136749268 3.8995161056518555 -0.22945548593997955 4456788 0 -1
-4.566702842712402 3.922553062438965 -0.13842152059078217 4456788 0 -1
-4.619339466094971 3.873659133911133 0.5566789507865906 4456788 0 -1
-4.519977569580078 3.9751009941101074 0.6494588255882263 4456788 0 -1
-4.731632232666016 3.7766289710998535 -0.04638991504907608 4456788 0 -1
-4.592061996459961 3.9443349838256836 -0.09277983009815216 4456788 0 -1
-4.583964824676514 3.937379837036133 -0.37111932039260864 4523353 0 -1
-4.342178821563721 4.1819868087768555 -0.5566789507865906 4523353 0 -1
-4.345134735107422 4.184833526611328 0.5102890729904175 4657508 0 -1
-4.731215476989746 3.7762961387634277 0.09277983009815216 4729209 0 -1
-4.298247337341309 4.139675617218018 1.020578145980835 4729209 0 -1
-5.513298034667969 2.48248291015625 -0.6995898485183716 4456788 0 -1
-5.21976900100708 3.1222164630889893 -0.23319661617279053 4456788 0 -1
-4.319082260131836 4.252164363861084 -0.5596718788146973 4456788 0 -1
-5.683980941772461 2.1593191623687744 0.27983593940734863 4456788 0 -1
-5.235316753387451 3.0250020027160645 0.6995898485183716 4456788 0 -1
-3.8055741786956787 4.525021076202393 1.4458190202713013 4456788 0 -1
-5.749903678894043 1.8870265483856201 0.6529505252838135 4456788 0 -1
-4.640735626220703 3.8916015625 0.6063112020492554 4456788 0 -1
-4.092595100402832 4.297662734985352 1.352540373802185 4456788 0 -1
-5.247917175292969 3.032282590866089 -0.5596718788146973 4456788 0 -1
-4.563028812408447 3.8264386653900146 -1.2592617273330688 4456788 0 -1
-4.321355819702148 4.161931991577148 -1.0260651111602783 4456788 0 -1
-4.321355819702148 4.161931991577148 -1.0260651111602783 4456788 0 -1
-4.84821081161499 3.675412178039551 -0.18655729293823242 4456788 0 -1
-4.613903045654297 3.963095188140869 -0.23319661617279053 4456788 0 -1
-4.426050662994385 4.1689772605896 -0.27983593940734863 4456788 0 -1
-4.655161380767822 3.903698682785034 -0.37311458587646484 4523353 0 -1
-4.408699035644531 4.1526336669921875 -0.6063112020492554 4523353 0 -1
-4.420187473297119 4.163454532623291 0.41975390911102295 4657508 0 -1
-5.576803207397461 2.3842546939849854 0.5130325555801392 4729209 0 -1
-4.85034704208374 3.6770317554473877 -0.046639323234558105 4729209 0 -1
-4.85034704208374 3.6770317554473877 -0.046639323234558105 4729209 0 -1
-3.87247371673584 4.420179843902588 1.5857369899749756 4729209 0 -1
2.914989709854126 5.6306328773498535 0.29180753231048584 2718350 5 -1
2.8664064407348633 5.655519962310791 0.29180753231048584 2588302 5 -1
2.929938316345215 5.659508228302002 0.2933039665222168 2718350 5 -1
2.9308862686157227 5.661339282989502 0.24441997706890106 2588302 5 -1
2.88110613822937 5.68452262878418 0.2933039665222168 2523534 5 -1
2.944887161254883 5.688383102416992 0.29480043053627014 2718350 5 -1
2.894697904586792 5.711339950561523 0.3439338207244873 2588302 5 -1
2.9466192722320557 5.6917290687561035 0.19653362035751343 2523534 5 -1
2.944887161254883 5.688383102416992 0.29480043053627014 2458766 5 -1
2.8981049060821533 5.718061923980713 0.14740021526813507 2328718 5 -1
2.908106803894043 5.737795829772949 0.39506250619888306 2718350 5 -1
2.908106803894043 5.737795829772949 0.39506250619888306 2588302 5 -1
2.912816047668457 5.747087478637695 -0.14814843237400055 2328718 5 -1
2.905019998550415 5.731705665588379 0.4938281178474426 2264205 5 -1
2.864119052886963 5.773200511932373 -0.04938281327486038 2199437 5 -1
3.1731033325195312 5.639042854309082 0.29779332876205444 2912910 5 -1
2.77646541595459 5.84453821182251 0.29779332876205444 2264205 5 -1
2.9757468700408936 5.747992515563965 0.24816110730171204 2264205 5 -1
2.823716402053833 5.815929889678955 0.39705777168273926 2199437 5 -1
2.891010284423828 5.8274054527282715 0.24940814077854156 3107982 5 -1
3.1421735286712646 5.700490474700928 0.09976325929164886 3107982 5 -1
3.1421735286712646 5.700490474700928 0.09976325929164886 2977934 5 -1
3.1392197608947754 5.695131778717041 0.2992897629737854 2912910 5 -1
2.842501401901245 5.854621410369873 0.1496448814868927 2458766 5 -1
2.842918872833252 5.855481147766113 0.09976325929164886 2328718 5 -1
2.893049478530884 5.831515789031982 0.04988162964582443 2264205 5 -1
2.842918872833252 5.855481147766113 0.09976325929164886 2199437 5 -1
2.893049478530884 5.831515789031982 0.04988162964582443 2134668 5 -1
2.8431694507598877 5.855996608734131 0.04988162964582443 2070155 5 -1
2.893049478530884 5.831515789031982 0.04988162964582443 2070922 5 -1
2.693528890609741 5.9263153076171875 0.04988162964582443 2072968 5 -1
2.890075206756592 5.8255205154418945 0.2992897629737854 2072968 5 -1
2.8379058837890625 5.845155715942383 0.39905303716659546 2139270 5 -1
3.106663942337036 5.754309177398682 0.20052415132522583 3107982 5 -1
3.1073029041290283 5.755492687225342 0.15039311349391937 2977934 5 -1
3.1537089347839355 5.7214179039001465 0.350917249917984 2912910 5 -1
2.857469081878662 5.885449409484863 0 2523534 5 -1
2.9072587490081787 5.860157012939453 0.10026207566261292 2458766 5 -1
2.907514810562134 5.860673427581787 0.05013103783130646 2328718 5 -1
2.907514810562134 5.860673427581787 0.05013103783130646 2264205 5 -1
2.857133626937866 5.884758472442627 0.10026207566261292 2070155 5 -1
2.8573851585388184 5.885276794433594 0.05013103783130646 2070922 5 -1
2.8573851585388184 5.885276794433594 0.05013103783130646 2072968 5 -1
2.857133626937866 5.884758472442627 0.10026207566261292 2139270 5 -1
2.8567140102386475 5.883894443511963 0.15039311349391937 2271109 5 -1
3.0728461742401123 5.811891078948975 0.10076089203357697 3107982 5 -1
3.0728461742401123 5.811891078948975 0.10076089203357697 2977934 5 -1
3.0196304321289062 5.83275842666626 0.3022826611995697 2912910 5 -1
2.9710497856140137 5.861984729766846 0.20152178406715393 2588302 5 -1
2.9710497856140137 5.861984729766846 0.20152178406715393 2458766 5 -1
2.921722650527954 5.889311790466309 0.10076089203357697 2328718 5 -1
2.871601104736328 5.914556503295898 0.05038044601678848 2072968 5 -1
2.871601104736328 5.914556503295898 0.05038044601678848 2139270 5 -1
2.871601104736328 5.914556503295898 0.05038044601678848 2271109 5 -1
2.871601104736328 5.914556503295898 0.05038044601678848 2468738 5 -1
3.086970090866089 5.83860445022583 0.20251941680908203 2977934 5 -1
3.138221502304077 5.812761306762695 0.15188956260681152 2912910 5 -1
2.98716139793396 5.893773555755615 0 2718350 5 -1
2.985757827758789 5.89100456237793 0.20251941680908203 2588302 5 -1
2.9870736598968506 5.8936004638671875 0.05062985420227051 2523534 5 -1
3.189587116241455 5.786507606506348 0.05062985420227051 2523534 5 -1
2.9868104457855225 5.893081188201904 0.10125970840454102 2458766 5 -1
2.9863719940185547 5.892216205596924 0.15188956260681152 2328718 5 -1
2.885816812515259 5.943836688995361 0.05062985420227051 2072968 5 -1
2.885816812515259 5.943836688995361 0.05062985420227051 2139270 5 -1
2.885816812515259 5.943836688995361 0.05062985420227051 2271109 5 -1
2.885816812515259 5.943836688995361 0.05062985420227051 2468738 5 -1
2.833939790725708 5.9655232429504395 0.20251941680908203 2994813 5 -1
2.760857343673706 5.686460971832275 1.9239344596862793 3257723 0 -1
2.979231119155884 5.878127098083496 -0.8140681982040405 4523353 5 -1
2.979231119155884 5.878127098083496 -0.8140681982040405 4600703 5 -1
2.981982469558716 5.8835554122924805 -0.763188898563385 4536450 5 -1
2.9869463443756104 5.8933491706848145 -0.6614304184913635 4341894 5 -1
2.97318696975708 5.866201877593994 -0.915826678276062 4212104 0 -1
2.9454474449157715 5.937134265899658 0.40703409910202026 3302798 5 -1
3.0010831356048584 5.921241760253906 0.152637779712677 2782862 5 -1
2.8462257385253906 5.9913859367370605 0.305275559425354 2458766 5 -1
3.0018763542175293 5.922806739807129 0 2458766 5 -1
2.7970447540283203 6.018805980682373 0.20351704955101013 2328718 5 -1
3.001523971557617 5.9221110343933105 0.10175852477550507 2328718 5 -1
3.001788377761841 5.922632694244385 -0.05087926238775253 2070922 5 -1
2.9502172470092773 5.946748733520508 0.152637779712677 2139270 5 -1
2.747157335281372 6.044309139251709 0.10175852477550507 2271109 5 -1
2.949610710144043 5.945526123046875 -0.20351704955101013 2271109 5 -1
2.9966001510620117 5.912396430969238 -0.7669300436973572 4600703 5 -1
2.9966001510620117 5.912396430969238 -0.7669300436973572 4536450 5 -1
3.0015881061553955 5.922237873077393 -0.6646726727485657 4341894 5 -1
3.0015881061553955 5.922237873077393 -0.6646726727485657 4212104 5 -1
3.0662789344787598 5.922865390777588 0.20451468229293823 2782862 5 -1
3.016237258911133 5.951141357421875 0.10225734114646912 2523534 5 -1
2.856389045715332 6.012779712677002 0.46015802025794983 2458766 5 -1
3.0654678344726562 5.921298503875732 0.2556433379650116 2458766 5 -1
2.8100123405456543 6.046710014343262 0.2556433379650116 2328718 5 -1
2.811746597290039 6.050442218780518 -0.10225734114646912 2271109 5 -1
2.810755729675293 6.048309803009033 -0.20451468229293823 5424489 5 -1
3.0112175941467285 5.941237449645996 -0.7706711292266846 4600703 5 -1
3.005478858947754 5.929914474487305 -0.8734273314476013 4536450 5 -1
3.018465042114258 5.955536842346191 -0.6165369153022766 4471684 5 -1
3.0162301063537598 5.951127052307129 -0.6679149866104126 4341894 5 -1
3.018465042114258 5.955536842346191 -0.6165369153022766 4212104 5 -1
2.682724952697754 5.772807598114014 2.1065011024475098 2523534 0 -1
2.640887975692749 5.810494422912598 2.0551230907440186 2458766 0 -1
2.8138234615325928 6.054911136627197 -0.6165369153022766 4045940 5 -1
2.8138234615325928 6.054911136627197 -0.6165369153022766 4899181 5 -1
2.8628623485565186 6.026406288146973 -0.6679149866104126 5424489 5 -1
2.798787832260132 6.022556781768799 -0.9248054027557373 10672695 0 -1
2.983738660812378 6.014317989349365 -0.5679023265838623 4600703 5 -1
2.985590696334839 6.018050670623779 -0.5162748694419861 4471684 5 -1
3.0331177711486816 5.984447002410889 -0.6195298433303833 4341894 5 -1
3.0370664596557617 5.9922380447387695 -0.5162748694419861 4212104 5 -1
3.035182476043701 5.988520622253418 -0.5679023265838623 3238030 5 -1
2.7875568866729736 6.133195877075195 0.10325497388839722 2588302 5 -1
2.7875568866729736 6.133195877075195 0.10325497388839722 2458766 5 -1
2.7875568866729736 6.133195877075195 0.10325497388839722 2328718 5 -1
2.8206937313079834 6.069694995880127 -0.7744122743606567 3651704 5 -1
2.8253891468048096 6.079798698425293 -0.6711573004722595 4045940 5 -1
2.8206937313079834 6.069694995880127 -0.7744122743606567 4899181 5 -1
2.8635082244873047 6.02776575088501 -0.929294764995575 5424489 0 -1
2.809258460998535 6.045087814331055 -0.9809222221374512 10672695 0 -1
-5.387430667877197 4.084192752838135 -0.36313825845718384 4523353 0 -1
2.799295663833618 6.159023761749268 -0.2593844532966614 4341894 5 -1
3.003201484680176 6.053548812866211 -0.41501516103744507 4341894 5 -1
2.801270008087158 6.163367748260498 0.051876895129680634 3562893 5 -1
3.0085065364837646 6.064241886138916 0.10375379025936127 3562893 5 -1
2.801023244857788 6.162825107574463 0.10375379025936127 2588302 5 -1
2.7983901500701904 6.157031536102295 0.3112613558769226 2458766 5 -1
2.7946829795837402 6.1488752365112305 0.4668920338153839 2264205 5 -1
2.828918695449829 6.0873942375183105 -0.8819071650505066 3651704 5 -1
2.7745792865753174 6.104642868041992 -0.9337840676307678 4505456 0 -1
2.8803536891937256 6.063226222991943 -0.8819071650505066 4899181 5 -1
2.819525957107544 6.0671820640563965 -1.0375378131866455 5424489 0 -1
-5.419703006744385 4.108658313751221 -0.15637890994548798 4456788 0 -1
-5.418588638305664 4.107813358306885 -0.20850521326065063 4456788 0 -1
-5.415402889251709 4.105398654937744 -0.31275781989097595 4523353 0 -1
2.762612819671631 6.216426849365234 -0.05212630331516266 4341894 5 -1
2.8140764236450195 6.191544532775879 -0.15637890994548798 4212104 5 -1
2.8028957843780518 6.166944980621338 0.6255156397819519 2264205 5 -1
2.969017744064331 6.115203380584717 -0.2606315016746521 2468738 5 -1
2.790837287902832 6.140413284301758 -0.886147141456604 3257723 5 -1
2.8008205890655518 6.162378787994385 -0.6776419281959534 3651704 5 -1
2.7879185676574707 6.1339921951293945 -0.9382734298706055 4505456 0 -1
2.8008205890655518 6.162378787994385 -0.6776419281959534 5424489 5 -1
-5.444514751434326 4.127468109130859 -0.20950284600257874 4456788 0 -1
-5.43923282623291 4.123464107513428 -0.366629958152771 4523353 0 -1
2.549102306365967 6.004354476928711 -2.0426526069641113 2718350 0 -1
2.7990143299102783 5.892004489898682 -2.0426526069641113 2718350 0 -1
2.7990143299102783 5.892004489898682 -2.0426526069641113 2718350 0 -1
3.1940741539001465 6.041177749633789 -0.15712712705135345 2588302 5 -1
-5.517683029174805 4.072853088378906 -0.36837583780288696 4523353 0 -1
2.526745319366455 5.951693534851074 2.315505266189575 2588302 0 -1
2.9121956825256348 6.13025426864624 1.0525023937225342 2588302 0 -1
3.021735429763794 5.961988925933838 1.5787535905838013 2199437 0 -1
2.8936352729797363 6.226653575897217 0.6873688101768494 3238030 5 -1
2.888826608657837 6.216306209564209 0.793117880821228 3107982 5 -1
2.9357450008392334 6.179826736450195 0.8988669514656067 2588302 5 -1
2.904956102371216 6.251014232635498 0.7437350749969482 3302798 5 -1
2.96014404296875 6.231187343597412 0.6906111240386963 3238030 5 -1
2.9623374938964844 6.235804557800293 0.6374872326850891 3107982 5 -1
3.073852777481079 6.195960521697998 0.47811540961265564 2718350 5 -1
3.023705244064331 6.227841854095459 0.3718675374984741 2264205 5 -1
3.0293924808502197 6.239555358886719 0.640480101108551 3302798 5 -1
3.0293924808502197 6.239555358886719 0.640480101108551 3238030 5 -1
2.9716596603393555 6.255427837371826 0.7472267746925354 3107982 5 -1
2.920933723449707 6.285395622253418 0.6938534379005432 2782862 5 -1
3.1356871128082275 6.186819553375244 0.640480101108551 2782862 5 -1
2.8655290603637695 6.304750919342041 0.7472267746925354 2718350 5 -1
2.869950771331787 6.314479827880859 0.640480101108551 2588302 5 -1
3.043548583984375 6.268712043762207 0.6434730291366577 3432845 5 -1
3.092172622680664 6.2328877449035645 0.7507185339927673 3302798 5 -1
2.888734817504883 6.355808734893799 0.4826047420501709 3238030 5 -1
3.1480071544647217 6.211127758026123 0.6970957517623901 3238030 5 -1
3.1544411182403564 6.223822116851807 0.5362275242805481 2912910 5 -1
2.8812267780303955 6.33928918838501 0.6970957517623901 2718350 5 -1
2.8812267780303955 6.33928918838501 0.6970957517623901 2588302 5 -1
3.2186365127563477 6.217161178588867 0.6464658975601196 3238030 5 -1
2.896772861480713 6.373493671417236 0.6464658975601196 2718350 5 -1
3.2377471923828125 6.254075527191162 0.5412156581878662 3238030 5 -1
3.250649929046631 6.278998851776123 0.5980806946754456 3238030 5 -1
-6.47387170791626 2.9150023460388184 -0.9327864646911621 4456788 0 -1
4.440331935882568 5.3879313468933105 -1.591223955154419 4456788 0 -1
-6.496497631072998 2.925189971923828 -0.9921455979347229 4456788 0 -1
4.503287315368652 5.464321136474609 -1.2677415609359741 4456788 0 -1
-4.463475227355957 5.638760089874268 -0.16535760462284088 4456788 0 -1
-4.481564521789551 5.661612510681152 -0.27684304118156433 4456788 0 -1
-2.714223623275757 6.862420082092285 1.440332055091858 4726897 0 -1
-2.3812527656555176 6.82365083694458 2.07407808303833 3107982 0 -1
-4.883835315704346 5.574584484100342 -1.2674921751022339 2977934 0 -1
-2.6254239082336426 6.637906074523926 2.3621444702148438 2977934 0 -1
-2.4421215057373047 6.8194050788879395 2.0164647102355957 2977934 0 -1
-4.953147888183594 5.5383195877075195 -1.1522656679153442 2912910 0 -1
-2.645612955093384 6.688950061798096 2.1893045902252197 2912910 0 -1
-2.4366307258605957 6.804072856903076 2.07407808303833 2912910 0 -1
-4.8629841804504395 5.550784111022949 -1.440332055091858 2458766 0 -1
-4.917365074157715 5.612856388092041 -0.9218124747276306 2328718 0 -1
-4.820478916168213 5.616178035736084 -1.3251054286956787 3257723 0 -1
-4.9696784019470215 5.218693256378174 -2.2566449642181396 4664956 0 -1
-4.630370616912842 5.394689559936523 -2.5459582805633545 4664956 0 -1
-2.38600754737854 6.837275981903076 2.1409194469451904 3107982 0 -1
-2.6437368392944336 6.684206962585449 2.314507484436035 2977934 0 -1
-2.441495895385742 6.8176589012146 2.1409194469451904 2977934 0 -1
-5.031769275665283 5.510623455047607 -1.1572537422180176 2912910 0 -1
-4.891323566436768 5.583131790161133 -1.388704538345337 2458766 0 -1
-4.8542375564575195 5.655508995056152 -1.2151165008544922 2328718 0 -1
-4.834447860717773 5.632452964782715 -1.388704538345337 2070922 0 -1
-4.860231876373291 5.662492752075195 -1.1572537422180176 3257723 0 -1
-4.996032238006592 5.586270809173584 -1.1622419357299805 3107982 0 -1
-2.384636402130127 6.833347320556641 2.266371726989746 3107982 0 -1
-2.655132293701172 6.71301794052124 2.324483871459961 2977934 0 -1
-2.401869535446167 6.882730007171631 2.0920355319976807 2977934 0 -1
-4.996032238006592 5.586270809173584 -1.1622419357299805 2588302 0 -1
-4.919417381286621 5.615198612213135 -1.3365782499313354 2458766 0 -1
-4.8622145652771 5.6648030281066895 -1.3365782499313354 2070922 0 -1
-4.829407691955566 5.742411136627197 -1.1041297912597656 3257723 0 -1
-4.990856647491455 5.580483436584473 -1.4006761312484741 3107982 0 -1
-4.953685283660889 5.654313564300537 -1.2255916595458984 2588302 0 -1
-2.734926462173462 7.084624767303467 0.5836150646209717 2199437 0 -1
-5.149226188659668 5.5225114822387695 -1.4126477241516113 3432845 0 -1
-5.018196105957031 5.611052989959717 -1.5303683280944824 2912910 0 -1
-5.140634059906006 5.629848957061768 -0.9417651295661926 2264205 0 -1
-4.852703094482422 5.770110607147217 -1.4715080261230469 2264205 0 -1
-5.133872985839844 5.622444152832031 -1.2413042783737183 3432845 0 -1
-5.294793605804443 5.442997932434082 -1.3595237731933594 2912910 0 -1
-5.171639919281006 5.6638054847717285 -0.8275362253189087 2264205 0 -1
-4.93231201171875 5.86476993560791 -0.8866459727287292 2264205 0 -1
-5.103243350982666 5.70614767074585 -1.1871827840805054 2912910 0 -1
-1.597570538520813 7.272820472717285 2.1369290351867676 2912910 0 -1
-4.80675745010376 5.832554340362549 -1.9753124713897705 4456788 0 -1
-4.836615085601807 5.868783950805664 -1.9234355688095093 4456788 0 -1
-4.135214805603027 6.638808727264404 -0.6010736227035522 4456788 0 -1
-4.507919788360596 6.419510841369629 -0.060107361525297165 4456788 0 -1
-5.035585403442383 5.630496501922607 -2.2332005500793457 4456788 0 -1
-4.836618900299072 5.868788242340088 -2.0521302223205566 4456788 0 -1
-4.627537250518799 6.207605361938477 -1.448562502861023 4456788 0 -1
-4.4662699699401855 6.48811149597168 -0.06035676971077919 4456788 0 -1
-5.566265106201172 5.7220683097839355 -1.8855255842208862 4456788 0 -1
-3.4963223934173584 7.35985803604126 -0.9427627921104431 4456788 0 -1
-5.2511186599731445 6.768161773681641 -1.465023398399353 4456788 0 -1
-3.5090084075927734 7.895964622497559 -0.9322876334190369 4456788 0 -1
-5.411945819854736 6.4350786209106445 -2.1975350379943848 4456788 0 -1
-5.060764312744141 6.925432205200195 -1.398431420326233 4456788 0 -1
-3.9685146808624268 7.3506693840026855 -2.397310972213745 4456788 0 -1
-3.778773546218872 7.616868019104004 -1.7979832887649536 4456788 0 -1
-5.627685546875 6.292548179626465 -2.0643510818481445 4456788 0 -1
-5.022811412811279 7.011753559112549 -1.0654715299606323 4456788 0 -1
-3.9868831634521484 7.540673732757568 -1.6647993326187134 4456788 0 -1
-3.5721356868743896 7.859429836273193 -0.998879611492157 4456788 0 -1
-3.1918134689331055 8.069918632507324 -0.46614381670951843 4456788 0 -1
-5.463467121124268 6.496340274810791 -1.8645752668380737 4456788 0 -1
-5.078577041625977 6.949808120727539 -1.1986554861068726 4456788 0 -1
-3.750905990600586 7.7256364822387695 -1.3318394422531128 4456788 0 -1
-4.456944465637207 7.450138092041016 -0.3995518386363983 4456788 0 -1
-5.529370307922363 6.442083358764648 -2.0052413940429688 4456788 0 -1
-5.218094348907471 6.861468315124512 -1.3368276357650757 4456788 0 -1
-3.6449530124664307 7.8433732986450195 -1.1363035440444946 4456788 0 -1
-2.8070082664489746 8.258220672607422 -0.1336827576160431 4456788 0 -1
-5.461082935333252 6.362524032592773 -2.40628981590271 4456788 0 -1
-5.073131084442139 6.942356109619141 -1.4705103635787964 4456788 0 -1
-5.336670398712158 6.741877555847168 -1.4705103635787964 4456788 0 -1
-3.9530892372131348 7.635839939117432 -1.4705103635787964 4456788 0 -1
-3.527585744857788 7.937767505645752 -0.8020966053009033 4456788 0 -1
-3.20603084564209 8.105864524841309 -0.3342069089412689 4456788 0 -1
-5.594421863555908 6.3856730461120605 -2.0052413940429688 4456788 0 -1
-4.67216157913208 7.351690769195557 -0.467889666557312 4456788 0 -1
-3.7603108882904053 7.745007514953613 -1.403668999671936 4456788 0 -1
-4.4750847816467285 7.4804606437683105 -0.3342069089412689 4456788 0 -1
-5.416322231292725 6.842502593994141 -1.4924583435058594 4456788 0 -1
-4.225429058074951 7.509171485900879 -2.035170555114746 4456788 0 -1
-5.575191497802734 6.629186153411865 -1.831653356552124 4456788 0 -1
-5.168296813964844 8.132364273071289 -3.10263729095459 4729209 0 -1
-4.629156112670898 8.755449295043945 -2.094280242919922 4729209 0 -1
1.2284539937973022 12.271109580993652 -0.9477509260177612 4456788 6 -1
1.2284539937973022 12.271109580993652 -0.9477509260177612 4456788 6 -1
1.2249665260314941 12.236272811889648 -1.3268513679504395 4456788 6 -1
1.2323776483535767 12.310302734375 -0.8552204966545105 4456788 6 -1
1.2323776483535767 12.310302734375 -0.8552204966545105 4456788 6 -1
1.2316867113113403 12.303401947021484 -0.9502450227737427 4456788 6 -1
1.2300853729248047 12.287405967712402 -1.140294075012207 4456788 6 -1
1.2281900644302368 12.268473625183105 -1.3303430080413818 4456788 6 -1
1.2309226989746094 12.295769691467285 -1.04526948928833 4456788 6 -1
1.2221568822860718 12.208208084106445 -1.805465579032898 4456788 0 -1
1.2300853729248047 12.287405967712402 -1.140294075012207 4590430 6 -1
1.1354633569717407 12.296510696411133 -1.140294075012207 3757452 6 -1
-1.7882105112075806 12.151971817016602 -1.710440993309021 3238030 0 -1
0.4700603485107422 12.260222434997559 -1.805465579032898 3238030 0 -1
1.2340123653411865 12.326632499694824 -0.5701470375061035 2328718 6 -1
3.221334457397461 11.937912940979004 -0.9502450227737427 2139270 0 -1
1.235612154006958 12.342613220214844 -0.8574652075767517 4456788 6 -1
1.235612154006958 12.342613220214844 -0.8574652075767517 4456788 6 -1
1.2324007749557495 12.310534477233887 -1.2385607957839966 4456788 6 -1
1.2333139181137085 12.319656372070312 -1.143286943435669 4456788 6 -1
1.234919548034668 12.335694313049316 -0.9527391195297241 4456788 6 -1
0.37459617853164673 12.216110229492188 -2.286573886871338 4456788 0 -1
0.850996732711792 12.310733795166016 -1.5243825912475586 4456788 0 -1
1.2253646850585938 12.240250587463379 -1.810204267501831 4456788 0 -1
1.6196564435958862 12.32796859741211 0 4456788 6 -1
1.2333139181137085 12.319656372070312 -1.143286943435669 4729209 6 -1
-1.323772668838501 12.268902778625488 -1.5243825912475586 4212104 0 -1
0.7522591352462769 12.248804092407227 -2.0007522106170654 4212104 0 -1
1.140565037727356 12.35175895690918 -0.8574652075767517 4212104 6 -1
3.4176557064056396 11.90896224975586 -1.0480129718780518 4212104 0 -1
-2.1156294345855713 11.816642761230469 -3.2393128871917725 3107982 0 -1
-1.4026427268981934 12.122767448425293 -2.381847858428955 3107982 0 -1
0.3715677857398987 12.117350578308105 -2.7629435062408447 3107982 0 -1
1.1357102394104004 12.299182891845703 -1.4291086196899414 3107982 6 -1
1.1392185688018799 12.337177276611328 -1.0480129718780518 10016830 6 -1
1.3348115682601929 12.371212005615234 -0.7641865611076355 4456788 6 -1
1.3359123468399048 12.381415367126465 -0.5731399059295654 4456788 6 -1
1.238846778869629 12.374923706054688 -0.8597098588943481 4456788 6 -1
0.9461038708686829 12.311014175415039 -1.7194197177886963 4456788 0 -1
0.9461038708686829 12.311014175415039 -1.7194197177886963 4456788 0 -1
1.7189654111862183 12.3440523147583 -0.2865699529647827 4456788 6 -1
0.3771141767501831 12.298226356506348 -2.0059897899627686 4456788 0 -1
0.8532244563102722 12.342960357666016 -1.528373122215271 4456788 0 -1
1.3401882648468018 12.42104434967041 -0.38309091329574585 4456788 6 -1
1.3407788276672363 12.426517486572266 0.09577272832393646 4456788 6 -1
1.4350718259811401 12.403046607971191 -0.5746363401412964 4456788 6 -1
1.3398337364196777 12.41775894165039 -0.4788636267185211 4456788 6 -1
0.7604019641876221 12.381391525268555 -1.5323636531829834 4456788 0 -1
0.952200710773468 12.390347480773926 -1.340818166732788 4456788 0 -1
-1.1465365886688232 12.416428565979004 -0.8619545102119446 4456788 0 -1
0.8569806218147278 12.397297859191895 -1.340818166732788 4456788 0 -1
-4.368009090423584 11.597192764282227 -1.628136396408081 4456788 0 -1
1.3233458995819092 12.264946937561035 -2.0112273693084717 4456788 0 -1
1.4396553039550781 12.442660331726074 -0.38408854603767395 4456788 6 -1
1.4401628971099854 12.447047233581543 -0.19204427301883698 4456788 6 -1
1.3441519737243652 12.457780838012695 0.19204427301883698 4456788 6 -1
1.3428884744644165 12.446069717407227 -0.5761328339576721 4456788 6 -1
0.09345072507858276 12.195612907409668 -2.880664110183716 4456788 0 -1
0.7608355283737183 12.388450622558594 -1.7283984422683716 4456788 0 -1
1.6323283910751343 12.424420356750488 -0.09602213650941849 4456788 6 -1
-1.7958647012710571 12.203987121582031 -2.2085092067718506 4456788 0 -1
0.8568359613418579 12.3952054977417 -1.6323763132095337 4456788 0 -1
4.41585111618042 11.724214553833008 0.28806641697883606 4456788 0 -1
1.225170373916626 12.238309860229492 -2.4005534648895264 4456788 0 -1
1.4439035654067993 12.479376792907715 -0.19254308938980103 4456788 6 -1
1.44407320022583 12.480842590332031 0 4456788 6 -1
1.4419944286346436 12.462876319885254 0.6739007830619812 4456788 6 -1
1.4398276805877686 12.4441499710083 -0.9627154469490051 4456788 6 -1
1.3474454879760742 12.48830509185791 -0.28881463408470154 4456788 6 -1
0.860701858997345 12.451129913330078 -1.44407320022583 4456788 0 -1
1.6365681886672974 12.45669174194336 -0.09627154469490051 4456788 6 -1
0.9545128345489502 12.42043399810791 -1.6366162300109863 4456788 0 -1
1.7328877449035645 12.444029808044434 0 4456788 6 -1
1.7287622690200806 12.41440486907959 -0.8664438724517822 4456788 6 -1
4.327638626098633 11.781115531921387 0.5776292681694031 4456788 0 -1
-4.327638626098633 11.781115531921387 -0.5776292681694031 4456788 0 -1
1.4477717876434326 12.512809753417969 0.09652095288038254 4456788 6 -1
1.4476442337036133 12.511707305908203 -0.19304190576076508 4456788 6 -1
1.446751356124878 12.503990173339844 0.4826047420501709 4456788 6 -1
1.2541828155517578 12.528117179870605 0.38608381152153015 4456788 6 -1
1.2529661655426025 12.515963554382324 0.6756466627120972 4456788 6 -1
1.2538511753082275 12.524803161621094 0.4826047420501709 4456788 6 -1
1.2510833740234375 12.497156143188477 -0.9652094841003418 4456788 6 -1
-2.5916976928710938 11.798510551452637 -3.571275234222412 4456788 0 -1
1.6384941339492798 12.47135066986084 -0.6756466627120972 4456788 6 -1
3.566134452819824 12.062418937683105 -0.6756466627120972 4456788 0 -1
4.341402053833008 11.818583488464355 0.38608381152153015 4456788 0 -1
-4.341402053833008 11.818583488464355 -0.38608381152153015 4456788 0 -1
1.447287917137146 12.508626937866211 -0.9677035808563232 4456788 6 -1
1.3544269800186157 12.553010940551758 0.2903110682964325 4456788 6 -1
1.3537904024124146 12.547110557556152 0.4838517904281616 4456788 6 -1
1.2574236392974854 12.560489654541016 0.38708144426345825 4456788 6 -1
1.3537904024124146 12.547110557556152 -0.4838517904281616 4456788 6 -1
1.146112084388733 12.411829948425293 -2.032177448272705 4456788 0 -1
1.4456520080566406 12.494488716125488 -1.455296516418457 4456788 6 -1
1.4542280435562134 12.568610191345215 -0.48509883880615234 4456788 6 -1
1.3581172227859497 12.587212562561035 -0.19403953850269318 4456788 6 -1
1.3579177856445312 12.58536434173584 0.29105931520462036 4456788 6 -1
1.3576385974884033 12.582776069641113 0.38807907700538635 4456788 6 -1
1.3582369089126587 12.588321685791016 -0.09701976925134659 4456788 6 -1
1.2603310346603394 12.589530944824219 0.48509883880615234 4456788 6 -1
1.4225598573684692 12.294907569885254 -2.8208060264587402 4456788 0 -1
1.436200737953186 12.412803649902344 -2.2371909618377686 4456788 0 -1
1.3592075109481812 12.597317695617676 -0.7781534194946289 4456788 6 -1
1.3611286878585815 12.61512279510498 0.38907670974731445 4456788 6 -1
1.3616085052490234 12.6195707321167 0.19453835487365723 4456788 6 -1
1.3616085052490234 12.6195707321167 0.19453835487365723 4456788 6 -1
1.2328852415084839 12.315373420715332 -2.8208060264587402 4456788 0 -1
1.3614085912704468 12.617717742919922 0.29180753231048584 4456788 6 -1
1.426207423210144 12.326433181762695 -2.8280389308929443 4456788 0 -1
1.4471937417984009 12.507813453674316 -1.8528530597686768 4456788 0 -1
1.363816499710083 12.640034675598145 -0.5851114988327026 4456788 6 -1
1.1700855493545532 12.671451568603516 -0.19503717124462128 4456788 6 -1
1.1700855493545532 12.671451568603516 -0.19503717124462128 4456788 6 -1
1.3491332530975342 12.503948211669922 -1.9503716230392456 4456788 0 -1
1.4654431343078613 12.665539741516113 0.4888399541378021 4456788 6 -1
1.279356598854065 12.779579162597656 -0.5910972952842712 4456788 6 -1
1.6664459705352783 12.68410587310791 -1.2807108163833618 4456788 6 -1
1.6651114225387573 12.67394733428955 -1.3792270421981812 4456788 6 -1
1.6664459705352783 12.68410587310791 -1.2807108163833618 4456788 6 -1
1.668816089630127 12.70214557647705 -1.0836783647537231 4456788 6 -1
