VERSION .7
FIELDS x y z rgb label object
SIZE 4 4 4 4 4 4
TYPE F F F I I I
COUNT 1 1 1 1 1 1
WIDTH 681
HEIGHT 1
POINTS 681
VIEWPOINT 0 0 0 1 0 0 0
DATA ascii
-1.5585732460021973 2.356234312057495 -0.1952865719795227 4456788 0 -1
-1.5356481075286865 2.3215765953063965 -0.520764172077179 4456788 0 -1
-1.6446340084075928 2.2506089210510254 -0.49906569719314575 4726897 0 -1
-1.0371161699295044 2.622159242630005 -0.2603820860385895 4726897 0 -1
-1.7153759002685547 2.2109463214874268 -0.4339701533317566 4729209 0 -1
-1.58101224899292 2.3429458141326904 -0.17358806729316711 4729209 0 -1
-1.4474990367889404 2.4692587852478027 0.10973957926034927 4456788 0 -1
-1.7149460315704346 2.2103922367095947 -0.6145416498184204 4456788 0 -1
-1.4908802509307861 2.4422264099121094 -0.1316874921321869 4456788 0 -1
-1.4908802509307861 2.4422264099121094 -0.1316874921321869 4456788 0 -1
-1.4264470338821411 2.4835171699523926 -0.04389583319425583 4456788 0 -1
-2.098074197769165 1.9321630001068115 -0.2633749842643738 4456788 0 -1
-1.7134041786193848 2.2530195713043213 -0.4389583170413971 4456788 0 -1
-1.5764878988265991 2.383317470550537 -0.19753125309944153 4456788 0 -1
-1.5493098497390747 2.389510154724121 -0.3072708249092102 4456788 0 -1
-1.4042954444885254 2.495626926422119 -0.06584374606609344 4456788 0 -1
-2.1541457176208496 1.8064112663269043 -0.5486978888511658 4456788 0 -1
-1.6463053226470947 2.2982122898101807 -0.4609062373638153 4456788 0 -1
-1.4670095443725586 2.452223300933838 -0.19753125309944153 4456788 0 -1
-1.6483381986618042 2.3010501861572266 -0.4389583170413971 4456788 0 -1
-1.5576351881027222 2.354816198348999 -0.4828541576862335 4456788 0 -1
-1.8049471378326416 2.1028833389282227 -0.7242812514305115 4726897 0 -1
-1.637150764465332 2.285432815551758 -0.5486978888511658 4726897 0 -1
-1.597487449645996 2.367361068725586 -0.21947915852069855 4729209 0 -1
-2.0680150985717773 1.8614307641983032 0.680385410785675 3692940 0 -1
-2.154547691345215 1.894820213317871 -0.3995518386363983 4456788 0 -1
-1.569333553314209 2.4203929901123047 -0.2663678824901581 4456788 0 -1
-2.1186466217041016 1.951108694076538 -0.31076255440711975 4456788 0 -1
-1.7166393995285034 2.302783966064453 -0.37735453248023987 4456788 0 -1
-1.6146385669708252 2.392777681350708 -0.24417057633399963 4456788 0 -1
-1.3752237558364868 2.5472540855407715 0.1109866201877594 4456788 0 -1
-1.565565586090088 2.414581537246704 -0.3329598605632782 4456788 0 -1
-1.4202533960342407 2.523986339569092 -0.06659197062253952 4456788 0 -1
-1.6824417114257812 2.302347183227539 -0.5105384588241577 4456788 0 -1
-1.5448464155197144 2.430830717086792 -0.31076255440711975 4456788 0 -1
-2.1631393432617188 1.858020544052124 -0.5105384588241577 4456788 0 -1
-1.5460846424102783 2.43277907371521 -0.2885652184486389 4456788 0 -1
-1.5753356218338013 2.381575584411621 -0.48834115266799927 4456788 0 -1
-1.8474910259246826 2.065756320953369 -0.8434983491897583 4726897 0 -1
-1.7395539283752441 2.197598695755005 -0.7325116991996765 4726897 0 -1
-1.6314270496368408 2.3232364654541016 -0.5771304368972778 4726897 0 -1
-1.6978669166564941 2.323455810546875 -0.3329598605632782 4729209 0 -1
-1.5737414360046387 2.4271910190582275 -0.15538127720355988 4729209 0 -1
-1.1293684244155884 2.6602025032043457 -0.19977591931819916 4729209 0 -1
-2.099309206008911 1.8895987272262573 0.643722414970398 3692940 0 -1
-2.195976972579956 1.8862262964248657 -0.4489346444606781 4456788 0 -1
-1.5683163404464722 2.4677608013153076 -0.17957386374473572 4456788 0 -1
-1.458994746208191 2.540184497833252 0.022446732968091965 4456788 0 -1
-0.8974474668502808 2.7871549129486084 0.08978693187236786 4456788 0 -1
-2.3284809589385986 1.6260181665420532 -0.7182954549789429 4456788 0 -1
-1.6691609621047974 2.376971483230591 -0.3815944492816925 4456788 0 -1
-1.5241806507110596 2.4967761039733887 -0.15712712705135345 4456788 0 -1
-1.7466769218444824 2.3430778980255127 -0.20202060043811798 4456788 0 -1
-1.5932968854904175 2.4573516845703125 0.0673401951789856 4456788 0 -1
-1.5709104537963867 2.4228248596191406 -0.4938281178474426 4456788 0 -1
-1.8156912326812744 2.340242624282837 0 4456788 0 -1
-1.4264527559280396 2.5878522396087646 -0.2042652666568756 4456788 0 -1
-1.2936420440673828 2.6644785404205322 0.02269614115357399 4456788 0 -1
-2.774045944213867 0.9103975892066956 -0.4993151128292084 4456788 0 -1
-2.083073854446411 2.0958409309387207 -0.2042652666568756 4456788 0 -1
-1.67116117477417 2.4276812076568604 -0.29504984617233276 4456788 0 -1
-0.4766189455986023 2.9234063625335693 0 4456788 0 -1
-2.684560775756836 1.147732138633728 -0.4993151128292084 4456788 0 -1
-2.22037672996521 1.907184362411499 -0.4539228081703186 4456788 0 -1
-1.859115719795227 2.3018722534179688 -0.13617683947086334 4456788 0 -1
-1.633690357208252 2.4697957038879395 0.06808841973543167 4657508 0 -1
-2.2176382541656494 1.9048322439193726 -0.4766189455986023 4724328 0 -1
-1.9518681764602661 2.2279322147369385 0 4724328 0 -1
-2.5132739543914795 1.554091453552246 -0.2042652666568756 2271109 0 -1
-2.0151476860046387 2.1612327098846436 -0.2042652666568756 2271109 0 -1
-1.8610289096832275 2.304241180419922 0.02269614115357399 2271109 0 -1
-1.2927302122116089 2.662600517272949 0.11348070204257965 2271109 0 -1
-1.8550941944122314 2.343562126159668 -0.18356439471244812 4456788 0 -1
-2.1385042667388916 2.059610366821289 -0.39007434248924255 4456788 0 -1
-1.5344606637954712 2.5649733543395996 -0.18356439471244812 4456788 0 -1
-1.9933891296386719 2.228890895843506 -0.1606188416481018 4456788 0 -1
-1.8351588249206543 2.3653345108032227 0.06883664429187775 4456788 0 -1
-1.3072818517684937 2.6925718784332275 0.09178219735622406 4456788 0 -1
-2.084118127822876 2.142453908920288 -0.18356439471244812 4456788 0 -1
-1.9732593297958374 2.2523486614227295 -0.022945549339056015 4456788 0 -1
-1.8566242456436157 2.3454949855804443 0.1376732885837555 4456788 0 -1
-2.608102321624756 1.453446388244629 -0.22945548593997955 4456788 0 -1
-2.1248960494995117 2.0919737815856934 -0.275346577167511 4456788 0 -1
-1.9727957248687744 2.251819610595703 -0.06883664429187775 4456788 0 -1
-1.0600483417510986 2.745976686477661 0.550693154335022 4456788 0 -1
-2.057750940322876 2.160858392715454 -0.25240105390548706 4456788 0 -1
-1.8810378313064575 2.3290152549743652 -0.06883664429187775 4456788 0 -1
-1.8577163219451904 2.346874475479126 -0.09178219735622406 4456788 0 -1
-2.2193613052368164 1.9518204927444458 -0.4818565249443054 4724328 0 -1
-1.9503144025802612 2.2722458839416504 -0.022945549339056015 4724328 0 -1
-2.144435405731201 2.0653226375579834 -0.3212376832962036 4471684 0 -1
-1.9727957248687744 2.251819610595703 -0.06883664429187775 4471684 0 -1
-1.3996784687042236 2.647310733795166 0 4471684 0 -1
-2.039994478225708 2.187880754470825 -0.1376732885837555 3107982 0 -1
-1.2547228336334229 2.6999685764312744 0.3212376832962036 3107982 0 -1
-2.5203771591186523 1.6091160774230957 -0.1606188416481018 2271109 0 -1
-2.409282684326172 1.7784011363983154 0 2271109 0 -1
-2.075995922088623 2.1341042518615723 -0.3212376832962036 2271109 0 -1
-1.8351588249206543 2.3653345108032227 0.06883664429187775 2271109 0 -1
-2.081408739089966 2.185701847076416 -0.2319495677947998 4456788 0 -1
-1.9483764171600342 2.316718578338623 0 4456788 0 -1
-2.637929916381836 1.4700688123703003 -0.20875461399555206 4456788 0 -1
-2.504981756210327 1.699377417564392 -0.02319495752453804 4456788 0 -1
-2.10677170753479 2.165741443634033 -0.18555966019630432 4456788 0 -1
-1.9713398218154907 2.2967417240142822 0.04638991504907608 4456788 0 -1
-1.852925419807434 2.3882339000701904 0.16236470639705658 4456788 0 -1
-1.9706450700759888 2.2959322929382324 -0.09277983009815216 4456788 0 -1
-1.8785709142684937 2.373220443725586 -0.04638991504907608 4456788 0 -1
-1.8779088258743286 2.3723840713500977 -0.09277983009815216 4590430 0 -1
-1.9710503816604614 2.2964046001434326 -0.06958486884832382 4471684 0 -1
-2.6397862434387207 1.5252865552902222 -0.2578880190849304 4456788 0 -1
-1.945825219154358 2.3610785007476807 -0.023444365710020065 4456788 0 -1
-2.1910533905029297 2.1102209091186523 -0.3282211124897003 4456788 0 -1
-2.1049695014953613 2.2104430198669434 -0.2109992951154709 4456788 0 -1
-1.9692689180374146 2.3415608406066895 0.023444365710020065 4456788 0 -1
-1.7987923622131348 2.4615678787231445 0.2578880190849304 4456788 0 -1
-1.846659779548645 2.4282422065734863 0.23444364964962006 4456788 0 -1
-1.895422339439392 2.3945090770721436 0.18755492568016052 4456788 0 -1
-1.9922444820404053 2.3210971355438232 -0.0703330934047699 4456788 0 -1
-1.9737259149551392 2.2995216846466064 -0.4219985902309418 4590430 0 -1
-1.896985650062561 2.396483898162842 0.1406661868095398 4590430 0 -1
-2.0124237537384033 2.2970526218414307 -0.18755492568016052 4471684 0 -1
-1.545691967010498 2.6367642879486084 -0.1406661868095398 4471684 0 -1
-2.531991481781006 1.717700719833374 0 2271109 0 -1
-2.1049695014953613 2.2104430198669434 -0.2109992951154709 2271109 0 -1
-1.9456537961959839 2.360870361328125 0.04688873142004013 2271109 0 -1
-2.0849907398223877 2.2834115028381348 -0.02369377389550209 4456788 0 -1
-2.037604808807373 2.3257949352264404 -0.02369377389550209 4456788 0 -1
-2.6619465351104736 1.5380909442901611 -0.33171284198760986 4456788 0 -1
-1.99004328250885 2.366262674331665 -0.04738754779100418 4456788 0 -1
-2.558627128601074 1.7357702255249023 -0.04738754779100418 4456788 0 -1
-2.172070264816284 2.185382843017578 -0.2606315016746521 4456788 0 -1
-1.99004328250885 2.366262674331665 0.04738754779100418 4456788 0 -1
-1.8402851819992065 2.468648672103882 0.2843252718448639 4456788 0 -1
-1.4209585189819336 2.7447423934936523 0.09477509558200836 4456788 0 -1
-2.4195358753204346 1.7377725839614868 -0.8292820453643799 4456788 0 -1
-2.6960105895996094 1.5024360418319702 -0.18955019116401672 4456788 0 -1
-2.152078628540039 2.2123165130615234 -0.18955019116401672 4456788 0 -1
-1.8663051128387451 2.4540746212005615 0.2369377315044403 4456788 0 -1
-2.0367071628570557 2.324770450592041 -0.09477509558200836 4456788 0 -1
-2.0111114978790283 2.2955546379089355 -0.4975692331790924 4456788 0 -1
-2.011841297149658 2.343928575515747 -0.14216263592243195 4456788 0 -1
-2.005439043045044 2.3364696502685547 -0.2843252718448639 4590430 0 -1
-2.2683467864990234 2.041750192642212 -0.4975692331790924 4726897 0 -1
-2.128429412841797 2.2350783348083496 -0.18955019116401672 4726897 0 -1
-1.5621354579925537 2.6648149490356445 -0.14216263592243195 4726897 0 -1
-2.2317299842834473 2.102107048034668 -0.40279415249824524 4471684 0 -1
-2.0361685752868652 2.324155569076538 -0.11846886575222015 4471684 0 -1
-1.6820603609085083 2.594252109527588 0.04738754779100418 3302798 0 -1
-2.1248514652252197 2.231321096420288 -0.2606315016746521 2271109 0 -1
-1.966583251953125 2.3862662315368652 0 2271109 0 -1
-2.037126064300537 2.3252487182617188 -0.07108131796121597 8705099 0 -1
-1.795432686805725 2.5063915252685547 0.2369377315044403 8705099 0 -1
-1.1677347421646118 2.8153858184814453 0.5212630033493042 8705099 0 -1
0 3.0148935317993164 0.6871194243431091 10672695 0 -1
2.271754026412964 1.9978972673416138 -0.6397318840026855 10672695 0 -1
-2.0585694313049316 2.3497250080108643 -0.07182954251766205 4456788 0 -1
-2.0588717460632324 2.350069999694824 -0.04788636416196823 4523353 0 -1
-2.0590531826019287 2.3502769470214844 -0.023943182080984116 4471684 0 -1
-2.8773415088653564 1.721088171005249 0.4668920338153839 4600703 0 -1
-2.7960338592529297 1.785107135772705 0.6743996143341064 4212104 0 -1
-2.5042734146118164 2.1000192165374756 0.8819071650505066 4212104 0 -1
-2.5042734146118164 2.1000192165374756 0.8819071650505066 4212104 0 -1
-2.0076417922973633 2.5876474380493164 0.855968713760376 4212104 0 -1
-3.1303417682647705 0.9393757581710815 0.8819071650505066 3692940 0 -1
-2.3949368000030518 2.1556947231292725 1.0375378131866455 3692940 0 -1
-2.655445098876953 1.9601048231124878 0.7522149682044983 3238030 0 -1
-2.425812244415283 2.1333842277526855 1.0115994215011597 3238030 0 -1
3.130774736404419 1.189367413520813 0.4928304851055145 3238030 0 -1
-2.7153682708740234 1.8961881399154663 0.7003380656242371 2912910 0 -1
-2.475318670272827 2.0757386684417725 1.0115994215011597 2912910 0 -1
-2.5430715084075928 2.0297935009002686 0.9337840676307678 2588302 0 -1
-2.3510468006134033 2.165131092071533 1.1153532266616821 2588302 0 -1
-3.242807149887085 0.6449432969093323 0.7262765169143677 2588302 0 -1
-3.1554791927337646 0.9469191431999207 0.7781534194946289 2199437 0 -1
-2.9208760261535645 1.3799915313720703 1.0115994215011597 2199437 0 -1
-2.5293161869049072 2.069788932800293 0.8819071650505066 2199437 0 -1
-2.9109137058258057 1.7411695718765259 0.41900569200515747 4456788 0 -1
-2.9080493450164795 1.7394561767578125 0.4451935291290283 4523353 0 -1
-2.905008316040039 1.7376371622085571 0.47138139605522156 4600703 0 -1
-2.8830175399780273 1.7244833707809448 0.6285085082054138 4212104 0 -1
-2.5590193271636963 2.094095468521118 0.8641992211341858 4212104 0 -1
-2.0644116401672363 2.60799503326416 0.7856356501579285 4212104 0 -1
3.1188361644744873 1.3333983421325684 0.41900569200515747 4212104 0 -1
3.248023271560669 0.8764766454696655 0.602320671081543 4212104 0 -1
-2.6455862522125244 2.0056099891662598 0.8118234872817993 3238030 0 -1
3.1571788787841797 1.1993982791900635 0.5237571001052856 3238030 0 -1
-3.268239974975586 0.6500015258789062 0.7594478130340576 3238030 0 -1
-2.771592855453491 1.8802461624145508 0.6808842420578003 2912910 0 -1
-2.499119758605957 2.0956976413726807 1.0213263034820557 2912910 0 -1
3.1871566772460938 1.0459738969802856 0.6546963453292847 2912910 0 -1
-3.2052295207977295 0.8649287819862366 0.8118234872817993 2588302 0 -1
-2.864739418029785 1.7135502099990845 0.733259916305542 2588302 0 -1
-2.5733096599578857 2.053928852081299 0.9165748953819275 2588302 0 -1
-2.5733096599578857 2.053928852081299 0.9165748953819275 2588302 0 -1
-3.2171738147735596 0.8681519627571106 0.7594478130340576 2199437 0 -1
-2.8681640625 1.4785939455032349 1.1260777711868286 2199437 0 -1
-2.9123990535736084 1.800891637802124 0.4229962229728699 4456788 0 -1
-2.9123990535736084 1.800891637802124 0.4229962229728699 4523353 0 -1
-2.9357450008392334 1.7560224533081055 0.44943347573280334 4600703 0 -1
-2.2179133892059326 2.6912319660186768 -0.6524516940116882 4456788 0 -1
-2.027146100997925 2.886760711669922 -0.3805968165397644 4456788 0 -1
-1.7940315008163452 3.060401439666748 0.05437097325921059 4456788 0 -1
-3.2990355491638184 1.4854629039764404 -0.4469393789768219 4456788 0 -1
-2.7569706439971924 2.311924695968628 -0.5866079330444336 4456788 0 -1
-1.9978985786437988 3.0204017162323 -0.41900569200515747 4456788 0 -1
-1.8416755199432373 3.141676664352417 0.1676022708415985 4456788 0 -1
3.32939076423645 1.0926527976989746 -1.0056136846542358 4456788 0 -1
-2.5966145992279053 2.5563838481903076 -0.11173484474420547 4456788 0 -1
-2.206698417663574 2.9016706943511963 -0.02793371118605137 4523353 0 -1
-2.707580804824829 2.4371068477630615 -0.1396685540676117 4590430 0 -1
-2.2923734188079834 2.670767307281494 0.9497461915016174 4590430 0 -1
-2.6959519386291504 2.482761859893799 0.3100143074989319 4456788 0 -1
-2.496779680252075 2.6218855381011963 0.6482117772102356 4456788 0 -1
-3.0308825969696045 2.056148052215576 -0.3381974399089813 4456788 0 -1
-1.0462417602539062 3.3410909175872803 1.1273248195648193 4456788 0 -1
-2.6316566467285156 2.534569025039673 0.42274680733680725 4456788 0 -1
-2.756751775741577 2.424429178237915 0.22546495497226715 4456788 0 -1
-2.8574256896972656 2.223356008529663 0.6482117772102356 4456788 0 -1
-2.7411105632781982 2.4106736183166504 0.4509299099445343 4456788 0 -1
-2.752117395401001 2.420353651046753 0.3100143074989319 4523353 0 -1
-2.748208999633789 2.4169163703918457 0.36638057231903076 4590430 0 -1
-2.7901289463043213 2.396570920944214 0 4726897 0 -1
-2.5218441486358643 2.6482057571411133 0.3945636749267578 4726897 0 -1
-3.5687334537506104 0.844443678855896 -0.28183120489120483 4471684 0 -1
-2.7016849517822266 2.488041639328003 0.1972818374633789 4471684 0 -1
-3.4651005268096924 1.3163763284683228 0.1705951690673828 4456788 0 -1
-2.9555935859680176 2.2406256198883057 0.11373011022806168 4456788 0 -1
-2.652495861053467 2.5546398162841797 0.4549204409122467 4456788 0 -1
-2.806544780731201 2.4106714725494385 0.2843252718448639 4456788 0 -1
-2.7653682231903076 2.432007074356079 0.4549204409122467 4456788 0 -1
-2.435059070587158 2.6667943000793457 0.8529758453369141 4456788 0 -1
-2.778195858001709 2.4432883262634277 0.2843252718448639 4456788 0 -1
-2.652495861053467 2.5546398162841797 0.4549204409122467 4456788 0 -1
-2.4479308128356934 2.6808910369873047 0.7676782608032227 4456788 0 -1
-2.8095266819000244 2.4132328033447266 0.22746022045612335 4456788 0 -1
-2.790837287902832 2.397179365158081 0.48335298895835876 4456788 0 -1
-2.7879185676574707 2.3946726322174072 0.5117855072021484 4523353 0 -1
-2.8028957843780518 2.4075372219085693 0.3411903381347656 4590430 0 -1
-2.784830093383789 2.392019510269165 0.5402180552482605 4657508 0 -1
-3.3045599460601807 1.6330534219741821 0.42648792266845703 4726897 0 -1
-2.900117874145508 2.3147759437561035 0 4726897 0 -1
-2.6549456119537354 2.5569989681243896 0.42648792266845703 4726897 0 -1
-2.7834415435791016 2.447901725769043 0.1705951690673828 4471684 0 -1
-2.531663656234741 2.658517360687256 0.5402180552482605 4471684 0 -1
-3.486919403076172 1.236698865890503 0.2843252718448639 4017546 0 -1
-2.9264004230499268 2.277024984359741 0.14216263592243195 4017546 0 -1
-2.606383800506592 2.5660016536712646 0.6255156397819519 4017546 0 -1
-2.1861531734466553 2.9916539192199707 0.19902770221233368 4017546 0 -1
-2.9811179637908936 2.2004988193511963 0.19902770221233368 3238030 0 -1
-2.899777412414551 2.3145041465759277 0.05686505511403084 3107982 0 -1
-2.6572351455688477 2.5592041015625 0.39805540442466736 3107982 0 -1
-3.5787105560302734 0.965712308883667 0.1705951690673828 2718350 0 -1
-3.3229737281799316 1.5699657201766968 0.5117855072021484 2718350 0 -1
-2.9499433040618896 2.236341953277588 0.2558927536010742 2718350 0 -1
-2.6939539909362793 2.480922222137451 0.5970830917358398 2718350 0 -1
-3.432145595550537 1.386999487876892 0.2558927536010742 3257723 0 -1
-2.8662848472595215 2.345536947250366 0.22746022045612335 3257723 0 -1
-2.92246413230896 2.3326120376586914 0.17209161818027496 4456788 0 -1
-2.8311636447906494 2.4318177700042725 0.28681936860084534 4456788 0 -1
-2.81809139251709 2.4205892086029053 0.4589109718799591 4456788 0 -1
-2.977311849594116 2.257089853286743 0.22945548593997955 4456788 0 -1
-2.8311636447906494 2.4318177700042725 0.28681936860084534 4456788 0 -1
-3.3589370250701904 1.5869569778442383 0.4589109718799591 4456788 0 -1
-2.673130512237549 2.5745129585266113 0.4875929057598114 4456788 0 -1
-2.4652349948883057 2.6998419761657715 0.803094208240509 4456788 0 -1
-2.8231263160705566 2.4249141216278076 0.4015471041202545 4456788 0 -1
-2.8123741149902344 2.4156785011291504 0.5162748694419861 4456788 0 -1
-2.8153181076049805 2.4182074069976807 0.4875929057598114 4456788 0 -1
-2.809258460998535 2.4130022525787354 0.5449568033218384 4523353 0 -1
-2.8253891468048096 2.4268577098846436 0.3728651702404022 4590430 0 -1
-2.809258460998535 2.4130022525787354 0.5449568033218384 4657508 0 -1
-3.3415703773498535 1.6513433456420898 0.3441832363605499 4726897 0 -1
-2.684680461883545 2.585636854171753 0.3441832363605499 4726897 0 -1
-2.684680461883545 2.585636854171753 0.3441832363605499 4726897 0 -1
-2.81809139251709 2.4205892086029053 0.4589109718799591 4600703 0 -1
-3.5241477489471436 1.2499027252197266 0.17209161818027496 4017546 0 -1
-2.9828338623046875 2.2612762451171875 -0.028681935742497444 4017546 0 -1
-2.7418015003204346 2.5249857902526855 0.3441832363605499 4017546 0 -1
-2.206887722015381 3.0200283527374268 0.14340968430042267 4017546 0 -1
-2.977311849594116 2.257089853286743 0.22945548593997955 3238030 0 -1
-3.612968921661377 0.9749569892883301 -0.08604580909013748 3107982 0 -1
-2.9542393684387207 2.2986865043640137 0 3107982 0 -1
-2.684680461883545 2.585636854171753 0.3441832363605499 3107982 0 -1
-2.684680461883545 2.585636854171753 0.3441832363605499 3107982 0 -1
-3.0359086990356445 2.180467367172241 0.20077355206012726 2070922 0 -1
-3.433638334274292 1.4679858684539795 0.25813743472099304 3257723 0 -1
-2.92246413230896 2.3326120376586914 0.17209161818027496 3257723 0 -1
-2.582247495651245 2.6545262336730957 0.5449568033218384 3257723 0 -1
-3.236884355545044 1.9361494779586792 -0.17358806729316711 4456788 0 -1
3.5534329414367676 1.260289192199707 -0.20251941680908203 4456788 0 -1
-3.18235445022583 2.0317506790161133 -0.02893134392797947 4456788 0 -1
-2.85206937789917 2.449774742126465 0.34717613458633423 4456788 0 -1
-3.6078083515167236 1.0826574563980103 0.2603820860385895 4456788 0 -1
-3.373572587966919 1.5938715934753418 0.5786268711090088 4456788 0 -1
-2.943971633911133 2.349778652191162 0.2603820860385895 4456788 0 -1
-2.687422275543213 2.588277578353882 0.5786268711090088 4456788 0 -1
-2.4777793884277344 2.7135801315307617 0.8679403066635132 4456788 0 -1
-2.836829423904419 2.4366843700408936 0.520764172077179 4456788 0 -1
-2.836829423904419 2.4366843700408936 0.520764172077179 4456788 0 -1
-2.836829423904419 2.4366843700408936 0.520764172077179 4456788 0 -1
-2.833686590194702 2.4339847564697266 0.5496955513954163 4523353 0 -1
-2.8425965309143066 2.4416377544403076 0.4629015028476715 4590430 0 -1
-2.833686590194702 2.4339847564697266 0.5496955513954163 4657508 0 -1
-2.7983250617980957 2.460991144180298 0.6075582504272461 4600703 0 -1
-3.2098705768585205 1.9848341941833496 -0.11572537571191788 3238030 0 -1
-2.97116756439209 2.3118581771850586 0.2893134355545044 3238030 0 -1
-3.2079834938049316 1.9836673736572266 -0.17358806729316711 13164576 0 -1
-2.85206937789917 2.449774742126465 0.34717613458633423 13164576 0 -1
-2.1302714347839355 3.0946266651153564 0.37610748410224915 13164576 0 -1
3.303507089614868 1.7030216455459595 -0.6654209494590759 13164576 0 -1
-2.89321231842041 2.426173448562622 0.49607279896736145 4456788 0 -1
-2.655097246170044 2.6139602661132812 0.7878803014755249 4456788 0 -1
-3.021941900253296 2.290923833847046 0.35016903281211853 4456788 0 -1
-2.8642802238464355 2.4602630138397217 0.49607279896736145 4456788 0 -1
-2.994922161102295 2.3303415775299072 0.320988267660141 4456788 0 -1
-2.8259339332580566 2.485271692276001 0.5836150646209717 4456788 0 -1
-2.8612849712371826 2.4576902389526367 0.5252535343170166 4523353 0 -1
-2.8581149578094482 2.454967498779297 0.5544342994689941 4590430 0 -1
-2.655097246170044 2.6139602661132812 0.7878803014755249 4590430 0 -1
-3.398458480834961 1.6056292057037354 -0.6127958297729492 4471684 0 -1
-2.0001282691955566 3.211071491241455 0.43771129846572876 4471684 0 -1
-0.7514485716819763 3.696284294128418 0.5252535343170166 4471684 0 -1
2.9033024311065674 2.200983762741089 -1.1088685989379883 4471684 0 -1
3.352616786956787 1.728338599205017 -0.5252535343170166 4471684 0 -1
-3.7080914974212646 1.0006256103515625 0.02943016029894352 4456788 0 -1
-3.4847705364227295 1.569094181060791 0.3825920820236206 4456788 0 -1
-2.7428643703460693 2.641674280166626 0.5003127455711365 4456788 0 -1
-2.529545307159424 2.7702724933624268 0.8240445256233215 4456788 0 -1
-3.354151725769043 1.8692058324813843 -0.08829048275947571 4456788 0 -1
-2.8239681720733643 2.6006548404693604 -0.11772064119577408 4456788 0 -1
-2.461660861968994 2.927039861679077 0.35316193103790283 4456788 0 -1
-2.349985122680664 3.0288937091827393 0.23544128239154816 4456788 0 -1
-2.7158446311950684 2.558103322982788 0.9123349785804749 4523353 0 -1
-2.4510703086853027 2.914447069168091 0.5003127455711365 4590430 0 -1
-3.708203077316284 1.1127846240997314 0.11871827393770218 4456788 0 -1
-3.5464603900909424 1.5162208080291748 0.35615482926368713 4456788 0 -1
-3.305795431137085 1.910111427307129 0.6529505252838135 4456788 0 -1
-2.763216257095337 2.6612753868103027 0.5342322587966919 4456788 0 -1
-2.5552961826324463 2.798473834991455 0.8013483881950378 4456788 0 -1
-2.288342237472534 2.8908891677856445 1.1871827840805054 4456788 0 -1
-3.549196481704712 1.0650687217712402 -1.1278235912322998 4456788 0 -1
-3.5736145973205566 1.5278301239013672 0.38907670974731445 4456788 0 -1
-3.3290395736694336 1.9235420227050781 0.6883664727210999 4456788 0 -1
-2.753739356994629 2.711074113845825 0.5686505436897278 4456788 0 -1
-2.52433443069458 2.8225629329681396 0.9577272534370422 4456788 0 -1
-2.3642733097076416 2.927335500717163 1.0475142002105713 4456788 0 -1
-2.706411600112915 2.54921817779541 -1.1971590518951416 4523353 0 -1
-2.5405242443084717 3.3406307697296143 0.1286945939064026 4456788 0 -1
-2.3997914791107178 3.15557599067688 -1.3834669589996338 4590430 0 -1
-2.5611207485198975 3.3677139282226562 0.06484611332416534 4456788 0 -1
-4.059487819671631 3.158677339553833 1.300912857055664 4456788 0 -1
-3.6848137378692627 3.3934268951416016 1.7481017112731934 4456788 0 -1
-3.2443180084228516 4.016966342926025 1.219605803489685 4456788 0 -1
4.783012866973877 2.259773015975952 0.406535267829895 4456788 0 -1
4.987328052520752 1.6367614269256592 0.7724170088768005 4456788 0 -1
-4.327747821807861 2.9359402656555176 0.894377589225769 4456788 0 -1
-3.988487958908081 3.263857841491699 1.2602593898773193 4456788 0 -1
-3.264878988265991 4.12455940246582 0.6911099553108215 4456788 0 -1
-4.526920795440674 2.7077877521514893 -0.569149374961853 4456788 0 -1
-4.312864780426025 3.011747360229492 0.6911099553108215 4590430 0 -1
-4.1191792488098145 3.2877895832061768 0.6098029017448425 4590430 0 -1
-3.9745607376098633 3.4954333305358887 -0.3658817410469055 4590430 0 -1
-2.0379698276519775 4.800393104553223 0.975684642791748 4590430 0 -1
4.548380374908447 2.720623731613159 -0.243921160697937 4590430 0 -1
4.911995887756348 1.9850369691848755 0.2845746874809265 4590430 0 -1
4.860970973968506 1.9644168615341187 0.81307053565979 4600703 0 -1
-4.3491716384887695 2.8637077808380127 1.0163382291793823 4212104 0 -1
-3.3353750705718994 3.965930700302124 1.138298749923706 4212104 0 -1
-3.001882553100586 4.107943534851074 1.5041805505752563 4212104 0 -1
-4.395621299743652 2.806351900100708 0.975684642791748 3238030 0 -1
-3.9555928707122803 3.236938953399658 1.4228734970092773 3238030 0 -1
5.0595011711120605 1.1971933841705322 1.056991696357727 2912910 0 -1
-4.9267988204956055 1.6168967485427856 1.2679909467697144 4456788 0 -1
-4.1001811027526855 3.190340757369995 1.2270880937576294 4456788 0 -1
4.821442604064941 2.2779295444488525 0.24541760981082916 4456788 0 -1
-4.3542985916137695 2.9539520740509033 0.8998645544052124 4456788 0 -1
-4.53231954574585 2.711016893386841 -0.7771557569503784 4456788 0 -1
-4.335708141326904 2.941340446472168 1.0225733518600464 4724328 0 -1
5.024919033050537 1.3559706211090088 1.1861851215362549 4724328 0 -1
-4.321944713592529 2.9320034980773926 1.1043792963027954 4600703 0 -1
-3.8726909160614014 3.2475390434265137 1.7179232835769653 4600703 0 -1
-4.369047164916992 2.8767948150634766 1.063476324081421 4212104 0 -1
4.9187445640563965 1.8686091899871826 0.8998645544052124 4212104 0 -1
-4.422588348388672 2.823568820953369 0.9816704392433167 3238030 0 -1
-4.107008457183838 3.113509178161621 1.3906997442245483 3238030 0 -1
4.820930480957031 2.170729398727417 0.7362528443336487 3238030 0 -1
-4.405755519866943 2.900965452194214 0.8180587291717529 2912910 0 -1
5.086610794067383 1.3726180791854858 0.8589616417884827 2912910 0 -1
4.8879194259643555 2.200892448425293 0.3292187452316284 4456788 0 -1
-4.7976908683776855 2.370931625366211 -0.45267578959465027 4456788 0 -1
-3.2265102863311768 4.242659568786621 0.6584374904632568 4456788 0 -1
-1.1820123195648193 5.186348915100098 0.7407422065734863 4456788 0 -1
-4.533451080322266 2.8032748699188232 -0.6584374904632568 4456788 0 -1
-3.768880605697632 3.392388343811035 1.7695508003234863 4724328 0 -1
5.064449787139893 1.3666380643844604 1.1522656679153442 4724328 0 -1
-4.237298965454102 3.0433366298675537 1.275722622871399 4600703 0 -1
-3.857341766357422 3.3132495880126953 1.7283984422683716 4600703 0 -1
-4.340957164764404 2.944901466369629 1.1522656679153442 4212104 0 -1
4.995778560638428 1.7718430757522583 0.8641992211341858 4212104 0 -1
-5.135806083679199 1.0214309692382812 1.1934179067611694 4212104 0 -1
-4.015662670135498 3.2051658630371094 1.5637890100479126 3238030 0 -1
4.879948616027832 2.0863280296325684 0.823046863079071 3238030 0 -1
-4.911372184753418 1.611833930015564 1.5732665061950684 4456788 0 -1
-4.469852447509766 2.8537442684173584 1.0350438356399536 4456788 0 -1
4.9352850914001465 2.1099860668182373 0.6210262775421143 4456788 0 -1
-4.799077033996582 2.4740169048309326 0.20700876414775848 4456788 0 -1
-3.841520309448242 3.3784306049346924 1.7388736009597778 4456788 0 -1
3.8499107360839844 3.790261745452881 0.08280350267887115 4456788 0 -1
5.15500020980835 1.3910729885101318 0.8280350565910339 4456788 0 -1
-4.569075584411621 2.825303316116333 -0.5796245336532593 4456788 0 -1
-4.388582706451416 2.977210521697998 1.0350438356399536 4600703 0 -1
-4.117121696472168 3.2035224437713623 1.4076595306396484 4600703 0 -1
4.754347801208496 2.550870656967163 0.28981226682662964 4600703 0 -1
5.1355814933776855 1.215195655822754 1.1592490673065186 4600703 0 -1
-4.923173427581787 1.6157068014144897 1.5318647623062134 3238030 0 -1
-4.117121696472168 3.2035224437713623 1.4076595306396484 3238030 0 -1
-4.230769157409668 3.1229233741760254 1.2420525550842285 2912910 0 -1
-5.097841262817383 1.3756486177444458 1.291185975074768 4456788 0 -1
-4.448968887329102 2.9294190406799316 1.0829302072525024 4456788 0 -1
-3.904097318649292 3.353410243988037 1.749348759651184 4456788 0 -1
4.9555535316467285 2.1186513900756836 0.7080697417259216 4456788 0 -1
-4.509889125823975 2.9695322513580322 0.6247674226760864 4456788 0 -1
5.176351547241211 1.5533572435379028 0.5831162333488464 4456788 0 -1
-4.616623401641846 2.8547046184539795 0.2915581166744232 4456788 0 -1
-4.415019989013672 2.995145320892334 1.0412789583206177 4600703 0 -1
-4.034160614013672 3.3012328147888184 1.541092872619629 4600703 0 -1
5.191736221313477 1.2284832000732422 1.0412789583206177 4600703 0 -1
-4.190952301025391 3.1771464347839355 1.3744882345199585 2912910 0 -1
-4.495676517486572 2.9601738452911377 0.9637130498886108 4456788 0 -1
-4.175508499145508 3.248953104019165 1.3827186822891235 4456788 0 -1
5.021514415740967 2.0292956829071045 0.7542102336883545 4456788 0 -1
-4.589537143707275 2.9301559925079346 0.5028068423271179 4456788 0 -1
5.21893310546875 1.5661355257034302 0.4609062373638153 4456788 0 -1
-4.646045207977295 2.8728976249694824 0.25140342116355896 4456788 0 -1
-4.067763805389404 3.328730583190918 1.508420467376709 4600703 0 -1
-3.108154535293579 4.2533721923828125 1.466519832611084 4600703 0 -1
5.107059955596924 1.6760554313659668 1.0056136846542358 4600703 0 -1
-4.637430191040039 2.7738890647888184 0.8380113840103149 4212104 0 -1
-4.216047763824463 3.196171283721924 1.3827186822891235 4212104 0 -1
-2.32493257522583 4.686363220214844 1.5922216176986694 4212104 0 -1
4.158448219299316 3.4871678352355957 0.670409083366394 4212104 0 -1
5.169068813323975 1.2231194972991943 1.2989176511764526 4212104 0 -1
-4.675212383270264 2.8909332752227783 0.21074987947940826 4456788 0 -1
-3.1123812198638916 4.259156227111816 1.55954909324646 4600703 0 -1
5.121825695037842 1.680901288986206 1.0958993434906006 4600703 0 -1
-4.562662124633789 2.8213374614715576 -1.3567802906036377 4456788 0 -1
-4.646534442901611 3.0595059394836426 0.1705951690673828 4456788 0 -1
-4.399203777313232 4.051324367523193 -0.3212376832962036 4456788 0 -1
-4.404381275177002 4.056092262268066 -0.1376732885837555 4523353 0 -1
-4.515260696411133 3.9709525108337402 -0.3229835331439972 4456788 0 -1
-4.567776203155518 3.9234745502471924 -0.046140506863594055 4456788 0 -1
-4.516988277435303 3.9724719524383545 -0.27684304118156433 4523353 0 -1
-4.331753253936768 4.171945571899414 0.6958487033843994 4456788 0 -1
-3.955018997192383 4.422270774841309 1.206137776374817 4456788 0 -1
-4.589229583740234 3.9419021606445312 0.2319495677947998 4456788 0 -1
-4.360651969909668 4.199778079986572 0 4456788 0 -1
-4.589229583740234 3.9419021606445312 -0.2319495677947998 4456788 0 -1
-4.539667129516602 3.992417097091675 -0.32472941279411316 4456788 0 -1
-4.352451324462891 4.191880226135254 -0.37111932039260864 4456788 0 -1
-4.592061996459961 3.9443349838256836 -0.09277983009815216 4523353 0 -1
-4.67863655090332 3.828619956970215 -0.32472941279411316 4657508 0 -1
-4.870941162109375 3.595463275909424 0 4726897 0 -1
-4.583964824676514 3.937379837036133 0.37111932039260864 4726897 0 -1
-4.342178821563721 4.1819868087768555 0.5566789507865906 4726897 0 -1
-5.468221664428711 2.583505392074585 0.2783394753932953 4471684 0 -1
-4.754396438598633 3.6993842124938965 0.6030688881874084 4212104 0 -1
-5.364065170288086 2.7652790546417236 0.7928684949874878 4456788 0 -1
-3.8274447917938232 4.459227561950684 1.5857369899749756 4456788 0 -1
-5.921628952026367 1.4011924266815186 -0.13991796970367432 4456788 0 -1
-4.941445350646973 3.549072742462158 -0.18655729293823242 4456788 0 -1
-4.300500392913818 4.233870506286621 0.7928684949874878 4456788 0 -1
-3.9762825965881348 4.446046352386475 1.2126224040985107 4456788 0 -1
-4.4243574142456055 4.167382717132568 0.32647526264190674 4456788 0 -1
-4.661741256713867 3.9092161655426025 -0.18655729293823242 4456788 0 -1
-4.427482604980469 4.170326232910156 -0.23319661617279053 4456788 0 -1
-4.6572184562683105 3.905423641204834 -0.32647526264190674 4456788 0 -1
-4.4243574142456055 4.167382717132568 -0.32647526264190674 4456788 0 -1
-4.663384437561035 3.9105944633483887 -0.09327864646911621 4523353 0 -1
-4.430215358734131 4.172900199890137 -0.09327864646911621 4523353 0 -1
-4.3622918128967285 4.201357364654541 0.6063112020492554 4726897 0 -1
-5.54747200012207 2.497870445251465 0.18655729293823242 4471684 0 -1
-4.234074115753174 4.352588653564453 0.41975390911102295 4471684 0 -1
-4.682750701904297 3.7376134395599365 1.0727044343948364 4212104 0 -1
-4.429564952850342 4.172287464141846 0.13991796970367432 2588302 0 -1
-5.637390613555908 2.278183937072754 0.27983593940734863 3257723 0 -1
-5.383253574371338 2.7751710414886475 0.6063112020492554 3257723 0 -1
-3.714965343475342 4.599700450897217 1.4458190202713013 3257723 0 -1
1.6549874544143677 5.766871929168701 1.0260651111602783 3257723 0 -1
-2.9707858562469482 5.172289848327637 1.2126224040985107 10672695 0 -1
-4.6407575607299805 3.986161947250366 -0.1406661868095398 4456788 0 -1
-4.407411098480225 4.244812488555908 -0.04688873142004013 4456788 0 -1
-4.639803409576416 3.985342264175415 -0.18755492568016052 4523353 0 -1
-4.454298496246338 4.195584774017334 -0.04688873142004013 4523353 0 -1
-4.466400146484375 4.89145040512085 1.4006761312484741 4456788 0 -1
-5.3945631980896 4.089600086212158 -0.10375379025936127 4456788 0 -1
-5.395196914672852 4.090080261230469 0 4523353 0 -1
-5.492741107940674 3.616690158843994 1.608183741569519 4590430 0 -1
-3.9071688652038574 5.035945892333984 2.282583236694336 4590430 0 -1
-5.392662048339844 4.088159084320068 -0.20750758051872253 4657508 0 -1
2.498615264892578 6.167956829071045 -1.2450454235076904 4726897 0 -1
-5.044954776763916 3.925466775894165 2.2307064533233643 4212104 0 -1
-5.408229351043701 4.0999603271484375 0.46913671493530273 4456788 0 -1
-5.208803176879883 4.367968559265137 0.2606315016746521 4456788 0 -1
-4.811176300048828 4.736633777618408 0.8340208530426025 4456788 0 -1
-4.4368743896484375 4.961053371429443 1.4074101448059082 4456788 0 -1
-5.419703006744385 4.108658313751221 -0.15637890994548798 4456788 0 -1
-5.419703006744385 4.108658313751221 -0.15637890994548798 4456788 0 -1
-5.420498847961426 4.109261512756348 -0.10425260663032532 4523353 0 -1
-5.478882789611816 3.7168691158294678 1.5637890100479126 4590430 0 -1
-5.418588638305664 4.107813358306885 -0.20850521326065063 4657508 0 -1
-4.867400169372559 4.687831401824951 0.7818945050239563 4726897 0 -1
-5.76918363571167 3.450850009918213 -1.0425260066986084 4212104 0 -1
-5.186241149902344 3.9316718578338623 1.9807994365692139 4212104 0 -1
-5.236186981201172 4.390931606292725 0.15712712705135345 4456788 0 -1
-5.445634365081787 4.128316879272461 -0.15712712705135345 4456788 0 -1
-5.444514751434326 4.127468109130859 -0.20950284600257874 4456788 0 -1
-5.446434020996094 4.128923416137695 -0.10475142300128937 4523353 0 -1
-5.444514751434326 4.127468109130859 -0.20950284600257874 4657508 0 -1
-5.8175177574157715 3.3614017963409424 1.2570170164108276 4726897 0 -1
-4.442763805389404 4.9676384925842285 1.5188956260681152 4726897 0 -1
-6.064156532287598 3.126189708709717 0.41900569200515747 4471684 0 -1
-5.289791584014893 4.328739643096924 0.052375711500644684 4471684 0 -1
-4.6262736320495605 4.961648464202881 0.8380113840103149 4471684 0 -1
-5.707608699798584 3.758169412612915 -0.6841265559196472 4456788 0 -1
-5.517683029174805 4.072853088378906 0.36837583780288696 4456788 0 -1
-5.2618937492370605 4.41248893737793 0.10525023937225342 4456788 0 -1
-0.6326289176940918 6.851060390472412 0.5287452340126038 10016830 4 -1
-0.5811927914619446 6.8708906173706055 0.2643726170063019 10672695 4 -1
-0.5309897661209106 6.909412860870361 0.21249572932720184 2328718 4 -1
-0.5306776165962219 6.905351161956787 0.31874361634254456 2072968 4 -1
-0.5308493375778198 6.907585620880127 0.2656196653842926 2139270 4 -1
-0.5310989618301392 6.910833835601807 0.15937180817127228 2271109 4 -1
-0.5835220813751221 6.898427963256836 0.3718675374984741 4899181 4 -1
-0.6356130242347717 6.883376598358154 0.5312393307685852 7589974 4 -1
-0.6866259574890137 6.858753204345703 0.7437350749969482 8180304 4 -1
-0.6359695196151733 6.887237548828125 0.47811540961265564 10016830 4 -1
-0.6847269535064697 6.839783668518066 0.9031068682670593 11918891 0 -1
-0.6371877193450928 6.900429725646973 0.21249572932720184 13164576 4 -1
-0.48030367493629456 6.9481940269470215 0.10674668103456497 2912910 4 -1
-0.5333415865898132 6.9400153160095215 0.2668667137622833 2718350 4 -1
-0.4803459644317627 6.948805809020996 0.053373340517282486 2588302 4 -1
-0.5334826707839966 6.941851615905762 0.21349336206912994 2328718 4 -1
-0.5329651236534119 6.935116767883301 0.3736133873462677 2139270 4 -1
-0.5862616300582886 6.930814743041992 0.3736133873462677 4899181 4 -1
-0.639802873134613 6.928750514984131 0.3202400505542755 5424489 4 -1
-0.2678302526473999 6.985610485076904 0.32173651456832886 4456788 4 -1
-0.4823780059814453 6.978201866149902 0.21449099481105804 3562893 4 -1
-0.48259058594703674 6.981276988983154 0.05362274870276451 3432845 4 -1
-0.5358338356018066 6.972445487976074 0.26811376214027405 2718350 4 -1
-0.5356605052947998 6.970190048217773 0.32173651456832886 2199437 4 -1
-0.5359755754470825 6.974289894104004 0.21449099481105804 2070922 4 -1
-0.5890011787414551 6.963201999664307 0.37535926699638367 2006409 4 -1
-0.5890011787414551 6.963201999664307 0.37535926699638367 2139270 4 -1
-0.5890011787414551 6.963201999664307 0.37535926699638367 3257723 4 -1
-0.5890011787414551 6.963201999664307 0.37535926699638367 4899181 4 -1
-0.642262876033783 6.9553914070129395 0.4289819896221161 5424489 4 -1
-0.7506964802742004 6.957555294036865 -0.05362274870276451 9360965 4 -1
-0.8034907579421997 6.944414138793945 0.32173651456832886 12640037 4 -1
-0.8567289710044861 6.935352802276611 0.37535926699638367 13164576 4 -1
-0.4848352074623108 7.0137481689453125 -0.053872156888246536 3887499 4 -1
-0.4847925007343292 7.013130187988281 -0.10774431377649307 3757452 4 -1
-0.4844934642314911 7.0088043212890625 0.2693607807159424 3562893 4 -1
-0.4848352074623108 7.0137481689453125 -0.053872156888246536 3432845 4 -1
-0.4848352074623108 7.0137481689453125 0.053872156888246536 2782862 4 -1
-0.5384684801101685 7.006728649139404 0.21548862755298615 2523534 4 -1
-0.5381519198417664 7.002609729766846 0.3232329487800598 2458766 4 -1
-0.5379461050033569 6.999931335449219 0.37710511684417725 2264205 4 -1
-0.5383260846138 7.004875659942627 0.2693607807159424 2199437 4 -1
-0.5383260846138 7.004875659942627 0.2693607807159424 2070922 4 -1
-0.5917407274246216 6.995588779449463 0.37710511684417725 2006409 4 -1
-0.5917407274246216 6.995588779449463 0.37710511684417725 2139270 4 -1
-0.5914793014526367 6.992498874664307 0.4309772551059723 3257723 4 -1
-0.7538558840751648 6.986837387084961 0.21548862755298615 7589974 4 -1
-0.7541216611862183 6.989300727844238 0.10774431377649307 8180304 4 -1
-0.8065627217292786 6.970964431762695 0.4309772551059723 12640037 4 -1
-0.8057066202163696 6.963565826416016 0.5387215614318848 13164576 4 -1
-0.43265464901924133 7.044782638549805 -0.2706078290939331 4456788 4 -1
-0.43285810947418213 7.048095703125 -0.16236470639705658 4456788 4 -1
-0.43295982480049133 7.0497517585754395 -0.05412156507372856 4725613 4 -1
-0.48703691363334656 7.04559850692749 -0.10824313014745712 3887499 4 -1
-0.48707979917526245 7.046219348907471 -0.05412156507372856 3757452 4 -1
-0.5408183336257935 7.0373053550720215 0.2706078290939331 2523534 4 -1
-0.5406433939933777 7.035029411315918 0.32472941279411316 2264205 4 -1
-0.5942176580429077 7.024871349334717 0.4329725205898285 2139270 4 -1
-0.5944802761077881 7.027976036071777 0.3788509666919708 2468738 4 -1
-0.5942176580429077 7.024871349334717 0.4329725205898285 2994813 4 -1
-0.5944802761077881 7.027976036071777 0.3788509666919708 3257723 4 -1
-0.8109650611877441 7.0090131759643555 0.32472941279411316 5949540 4 -1
-0.7028363943099976 7.0206804275512695 0.32472941279411316 6343264 4 -1
-0.7032498121261597 7.024809837341309 0.21648626029491425 6933851 4 -1
-0.7033944725990295 7.026254653930664 0.16236470639705658 7589974 4 -1
-0.7575017213821411 7.020627498626709 0.16236470639705658 8180304 4 -1
-0.8638834953308105 6.993269920349121 0.48709410429000854 11918891 4 -1
-0.8102968335151672 7.003237247467041 0.4329725205898285 12640037 4 -1
-0.4341498017311096 7.069127559661865 -0.4349677860736847 4456788 4 -1
-0.4893244206905365 7.078690052032471 0.05437097325921059 4725613 4 -1
-0.5434542894363403 7.071605682373047 -0.21748389303684235 3757452 4 -1
-0.5414064526557922 7.044958114624023 0.6524516940116882 3302798 4 -1
-0.5385134220123291 7.0073137283325195 0.9786775708198547 2912910 0 -1
-0.7603887915611267 7.047385215759277 0.3262258470058441 2588302 4 -1
-0.5390771627426147 7.014649391174316 0.9243065714836121 2134668 0 -1
-0.8143905997276306 7.038619518280029 0.3805968165397644 3257723 4 -1
-0.7606347799301147 7.049665451049805 0.27185487747192383 5949540 4 -1
-0.7067396640777588 7.059670448303223 0.10874194651842117 6343264 4 -1
-0.7064905762672424 7.057182312011719 0.21748389303684235 6933851 4 -1
-0.7067396640777588 7.059670448303223 0.10874194651842117 7589974 4 -1
-0.43230748176574707 7.039129734039307 -1.0377873182296753 4456788 4 -1
-0.49152570962905884 7.110535144805908 0.10924076288938522 4725613 4 -1
-0.8177649974822998 7.067783355712891 0.4369630515575409 2588302 4 -1
-0.5993938446044922 7.086064338684082 0.4915834367275238 2468738 4 -1
-0.4340672492980957 7.067783355712891 0.8193057179450989 2994813 0 -1
-0.7641239762306213 7.082003116607666 0.27310192584991455 6343264 4 -1
-0.817355215549469 7.064241886138916 0.4915834367275238 10672695 4 -1
-0.9278647899627686 7.062416076660156 0.27310192584991455 11197490 4 -1
-0.7083745002746582 7.076001167297363 0.4915834367275238 11197490 4 -1
-0.817592442035675 7.066291809082031 -0.823046863079071 4664956 4 -1
-0.8735502362251282 7.071523666381836 -0.71330726146698 3692940 4 -1
-0.8195602297782898 7.083299160003662 -0.6584374904632568 3562893 4 -1
-0.8201180696487427 7.088120937347412 -0.6035677194595337 3432845 4 -1
-0.8776846528053284 7.104992389678955 -0.1646093726158142 2199437 4 -1
-0.5450615882873535 7.092520713806152 0.823046863079071 2199437 0 -1
-0.8762656450271606 7.093505382537842 -0.4389583170413971 4899181 4 -1
-0.656094491481781 7.105180740356445 0.6035677194595337 4899181 4 -1
-0.7132863402366638 7.125065326690674 -0.05486978963017464 5424489 4 -1
-0.8214990496635437 7.100056171417236 0.4389583170413971 10672695 4 -1
-0.9310322999954224 7.0865254402160645 0.4389583170413971 13164576 4 -1
-0.2732478380203247 7.126913070678711 0.9370263814926147 4456788 0 -1
-0.16204287111759186 7.047378063201904 1.4330991506576538 4456788 0 -1
-0.8812597393989563 7.133933067321777 0.2755959928035736 4456788 4 -1
-4.459934234619141 5.634286403656006 -0.33071520924568176 4456788 0 -1
-0.8205509781837463 7.091862201690674 -0.8819071650505066 4664956 4 -1
-0.8238459229469299 7.120339870452881 -0.6063112020492554 2912910 4 -1
-0.8802486658096313 7.125748634338379 -0.4409535825252533 4899181 4 -1
-0.5984103083610535 7.074437141418457 1.1575031280517578 4899181 0 -1
-0.7129857540130615 7.122062683105469 0.7165495753288269 11197490 4 -1
-0.9356775283813477 7.121882438659668 0.38583439588546753 13164576 4 -1
-0.6628414988517761 7.178247451782227 0.4983174800872803 4456788 4 -1
-2.044785737991333 6.916470527648926 0.4429488480091095 4456788 0 -1
-0.8743535280227661 7.078026294708252 -1.162740707397461 4456788 4 -1
-4.416466236114502 5.692378997802734 -0.5536860823631287 4456788 0 -1
-0.8234527707099915 7.116941928863525 -0.9412662982940674 4664956 4 -1
-0.8293335437774658 7.167768478393555 -0.3875802457332611 4341894 4 -1
-0.8270107507705688 7.147692680358887 -0.6644232869148254 2912910 4 -1
-0.8857936859130859 7.170636177062988 -0.11073721200227737 4899181 4 -1
-0.66205894947052 7.169773101806641 0.609054684638977 10016830 4 -1
-0.6611186861991882 7.159590721130371 0.7197918891906738 10672695 4 -1
-0.7136590480804443 7.128788471221924 0.9412662982940674 11197490 0 -1
-0.666161060333252 7.214196681976318 0.4449441134929657 4456788 4 -1
-0.6654540300369263 7.206539630889893 0.5561801791191101 4456788 4 -1
-0.6507299542427063 7.047085285186768 -1.6129224300384521 4456788 0 -1
-0.8233988285064697 7.116475582122803 -1.167978286743164 3692940 4 -1
-0.8244155645370483 7.125263214111328 -1.1123603582382202 2912910 4 -1
-0.8342702388763428 7.210434913635254 0 4899181 4 -1
-0.6635648608207703 7.186081409454346 0.7786521911621094 10016830 4 -1
-1.0041660070419312 7.211010932922363 -0.39107197523117065 3692940 4 -1
-0.7815697193145752 7.243692874908447 -0.2793371081352234 13164576 4 -1
-1.174988865852356 7.206952095031738 -0.5611683130264282 4212104 0 -1
-0.9505914449691772 7.23539924621582 -0.6172851324081421 3692940 4 -1
-0.8961808085441589 7.254721641540527 -0.4489346444606781 2782862 4 -1
-1.009628415107727 7.250236511230469 0.22446732223033905 5424489 4 -1
-0.8415300250053406 7.2731804847717285 0.16835050284862518 5424489 4 -1
-0.6714221835136414 7.271172523498535 0.5611683130264282 9360965 4 -1
-1.9037514925003052 7.055094242095947 0.8454936146736145 4212104 0 -1
-0.7876433730125427 7.299983978271484 0.4509299099445343 4212104 4 -1
-0.8950564861297607 7.245620250701904 -0.9018598198890686 3692940 4 -1
-4.116747856140137 5.980363845825195 -1.1836910247802734 5424489 0 -1
-0.7868073582649231 7.292235851287842 0.5636624097824097 5424489 4 -1
-4.41572380065918 5.806401252746582 -1.3647613525390625 5949540 0 -1
-4.435468673706055 5.71687126159668 -1.649086594581604 6343264 0 -1
-1.8605581521987915 7.11893892288208 0.9667059779167175 6343264 0 -1
-1.5830336809158325 7.2066426277160645 0.7961108088493347 6343264 0 -1
-4.4474711418151855 5.848146915435791 -1.2565182447433472 5949540 0 -1
-4.135031223297119 6.006924152374268 -1.5420905351638794 5949540 0 -1
-4.463969707489014 5.8698410987854 -1.085174798965454 6343264 0 -1
-4.463969707489014 5.8698410987854 -1.085174798965454 6343264 0 -1
2.8604540824890137 7.232137203216553 0.17882563173770905 2070155 5 -1
2.992809772491455 7.215606212615967 -0.05985795333981514 2134668 5 -1
2.8731818199157715 7.264316558837891 0 2070155 5 -1
2.8129935264587402 7.286851406097412 -0.11971590667963028 2271109 5 -1
2.8132412433624268 7.2874932289123535 -0.05985795333981514 2468738 5 -1
