VERSION .7
FIELDS x y z rgb label object
SIZE 4 4 4 4 4 4
TYPE F F F I I I
COUNT 1 1 1 1 1 1
WIDTH 683
HEIGHT 1
POINTS 683
VIEWPOINT 0 0 0 1 0 0 0
DATA ascii
-1.3377842903137207 2.0224480628967285 0.6337460875511169 4456788 0 -1
-1.3405086994171143 2.026566743850708 0.6145416498184204 4456788 0 -1
-1.8818128108978271 1.6549630165100098 -0.038408853113651276 4456788 0 -1
-1.5101521015167236 1.9464335441589355 0.4609062373638153 4456788 0 -1
-1.4043407440185547 2.0400736331939697 0.38408854603767395 4456788 0 -1
-1.8800437450408936 1.6534072160720825 -0.11522655934095383 4456788 0 -1
-1.8793246746063232 1.6527748107910156 -0.13443098962306976 4456788 0 -1
-1.8819786310195923 1.6551088094711304 0.019204426556825638 4590430 0 -1
-1.3767777681350708 2.040285110473633 0.6225227117538452 4456788 0 -1
-1.4107261896133423 2.049349546432495 0.5057997107505798 4456788 0 -1
-1.9044599533081055 1.674880027770996 -0.11672300845384598 4456788 0 -1
-1.8201271295547485 1.9520745277404785 0.020451467484235764 4726897 0 -1
-1.7161067724227905 2.0405380725860596 -0.12270880490541458 4726897 0 -1
-1.798407793045044 1.9695554971694946 -0.10225734114646912 4471684 0 -1
-1.7988835573196411 1.970076560974121 -0.08180586993694305 4341894 0 -1
-1.7784417867660522 1.9885493516921997 -0.08180586993694305 4147337 0 -1
-1.779225468635559 1.9894256591796875 -0.020451467484235764 4017546 0 -1
-1.777396321296692 1.9873803853988647 -0.12270880490541458 3887499 0 -1
-1.7779713869094849 1.9880234003067017 -0.10225734114646912 3757452 0 -1
-1.7933249473571777 1.9639887809753418 -0.2249661386013031 3692940 0 -1
-1.7996540069580078 2.012267589569092 -0.10350438207387924 4471684 0 -1
-1.7990719079971313 2.0116167068481445 -0.12420525401830673 4341894 0 -1
-1.8005002737045288 2.013213872909546 -0.062102627009153366 4212104 0 -1
-1.8001301288604736 2.0127999782562256 -0.08280350267887115 4017546 0 -1
-1.8007646799087524 2.013509511947632 -0.04140175133943558 3887499 0 -1
-1.8001301288604736 2.0127999782562256 -0.08280350267887115 3757452 0 -1
-1.7990719079971313 2.0116167068481445 -0.12420525401830673 3692940 0 -1
-1.8009233474731445 2.0136868953704834 -0.02070087566971779 3562893 0 -1
-1.8009233474731445 2.0136868953704834 -0.02070087566971779 3432845 0 -1
-1.7990719079971313 2.0116167068481445 -0.12420525401830673 3302798 0 -1
-1.725756049156189 2.052011728286743 -0.3312140107154846 2588302 0 -1
-1.7240577936172485 2.049992322921753 -0.3519148826599121 2523534 0 -1
-1.7203469276428223 2.0455799102783203 -0.3933166265487671 2458766 0 -1
-1.7183334827423096 2.0431857109069824 -0.41401752829551697 2328718 0 -1
-1.7366453409194946 2.0233070850372314 -0.43471840023994446 3651704 0 -1
-1.738818883895874 1.9847500324249268 -0.5796245336532593 4045940 0 -1
-1.722421407699585 1.9660334587097168 -0.6831288933753967 4505456 0 -1
-1.8218183517456055 2.037050485610962 -0.08380113542079926 4536450 0 -1
-1.822460651397705 2.037768840789795 -0.04190056771039963 4471684 0 -1
-1.8213365077972412 2.0365118980407715 -0.10475142300128937 4341894 0 -1
-1.8221930265426636 2.0374696254730225 -0.06285085529088974 4212104 0 -1
-1.82262122631073 2.0379481315612793 -0.020950283855199814 3887499 0 -1
-1.8221930265426636 2.0374696254730225 -0.06285085529088974 3757452 0 -1
-1.8213365077972412 2.0365118980407715 -0.10475142300128937 3692940 0 -1
-1.8226747512817383 2.038007974624634 0 3562893 0 -1
-1.822460651397705 2.037768840789795 -0.04190056771039963 3432845 0 -1
-1.8221930265426636 2.0374696254730225 -0.06285085529088974 3302798 0 -1
-1.7162141799926758 2.0824666023254395 -0.4399559497833252 2458766 0 -1
-1.739036202430725 2.0678024291992188 -0.41900569200515747 2328718 0 -1
-1.739036202430725 2.0678024291992188 -0.41900569200515747 2264205 0 -1
-1.7575687170028687 2.0476841926574707 -0.4399559497833252 3651704 0 -1
-1.7782460451126099 2.0297536849975586 -0.4399559497833252 4045940 0 -1
-1.7735238075256348 2.0243635177612305 -0.4818565249443054 4505456 0 -1
-1.8231199979782104 2.0809743404388428 -0.02119969204068184 4536450 0 -1
-1.8443191051483154 2.0622096061706543 -0.02119969204068184 4471684 0 -1
-1.843885898590088 2.06172513961792 -0.06359907984733582 4341894 0 -1
-1.843885898590088 2.06172513961792 -0.06359907984733582 4212104 0 -1
-1.8443191051483154 2.0622096061706543 -0.02119969204068184 3887499 0 -1
-1.8443191051483154 2.0622096061706543 0.02119969204068184 3757452 0 -1
-1.843885898590088 2.06172513961792 -0.06359907984733582 3692940 0 -1
-1.8443732261657715 2.062270164489746 0 3562893 0 -1
-1.8443191051483154 2.0622096061706543 -0.02119969204068184 3432845 0 -1
-1.8412624597549438 2.0164883136749268 -0.4451935291290283 2328718 0 -1
-1.740827202796936 2.112332344055176 -0.40279415249824524 2328718 0 -1
-1.7387897968292236 2.1098601818084717 -0.423993855714798 2264205 0 -1
-1.7806882858276367 2.074620246887207 -0.423993855714798 3651704 0 -1
-1.8016376495361328 2.0564537048339844 -0.423993855714798 4045940 0 -1
-1.7994155883789062 2.053917407989502 -0.4451935291290283 4505456 0 -1
-1.815505027770996 2.029991388320923 -0.4875929057598114 4899181 0 -1
-1.8660169839859009 2.08647084236145 -0.021449100226163864 4212104 0 -1
-1.9504350423812866 2.0050289630889893 -0.10724549740552902 3887499 0 -1
-1.8874653577804565 2.0670883655548096 -0.021449100226163864 3887499 0 -1
-1.9732593297958374 1.9853532314300537 -0.021449100226163864 3562893 0 -1
-1.8249692916870117 2.083085298538208 -0.4075329005718231 3651704 0 -1
-1.8228332996368408 2.0806472301483154 -0.4289819896221161 4045940 0 -1
-1.8417547941207886 2.059342384338379 -0.45043110847473145 4505456 0 -1
-1.8461898565292358 2.0643012523651123 -0.4075329005718231 4899181 0 -1
-1.84823739528656 2.1096444129943848 -0.3905731439590454 4045940 0 -1
-2.083544969558716 2.234588384628296 -0.16411055624485016 4456788 0 -1
-1.943081259727478 2.3577487468719482 0.16411055624485016 4456788 0 -1
-2.0156826972961426 2.3007724285125732 0.0703330934047699 4456788 0 -1
-1.992771029472351 2.3217105865478516 0 4456788 0 -1
-2.0110716819763184 2.343031883239746 0.16585642099380493 4456788 0 -1
-2.1071975231170654 2.259955644607544 -0.11846886575222015 4456788 0 -1
-1.9164329767227173 2.4210519790649414 0.16585642099380493 4456788 0 -1
-2.013911724090576 2.3463406562805176 0.02369377389550209 4456788 0 -1
-2.013911724090576 2.3463406562805176 -0.02369377389550209 4456788 0 -1
-2.011841297149658 2.343928575515747 -0.14216263592243195 4456788 0 -1
-2.0130245685577393 2.3453073501586914 -0.09477509558200836 4456788 0 -1
-2.0130245685577393 2.3453073501586914 -0.09477509558200836 4523353 0 -1
-2.0137343406677246 2.3461341857910156 -0.04738754779100418 4590430 0 -1
-2.0091006755828857 2.388922691345215 -0.1436590850353241 4456788 0 -1
-2.0342142581939697 2.369994640350342 -0.09577272832393646 4456788 0 -1
-2.0336761474609375 2.369367837905884 -0.11971590667963028 4456788 0 -1
-2.0342142581939697 2.369994640350342 -0.09577272832393646 4456788 0 -1
-2.0342142581939697 2.369994640350342 -0.09577272832393646 4523353 0 -1
-2.034632682800293 2.3704822063446045 -0.07182954251766205 4657508 0 -1
-1.781347632408142 2.5877482891082764 0.31450366973876953 4456788 0 -1
2.755558490753174 1.4784516096115112 -0.43546661734580994 4456788 0 -1
2.77951979637146 1.4328960180282593 -0.43546661734580994 4456788 0 -1
-2.1508638858795166 2.3067872524261475 -0.14515553414821625 4456788 0 -1
-2.0558266639709473 2.395174741744995 -0.07257776707410812 4456788 0 -1
-2.151559591293335 2.3075337409973145 -0.1209629476070404 4523353 0 -1
-2.0558266639709473 2.395174741744995 -0.07257776707410812 4523353 0 -1
-2.1445722579956055 2.348663091659546 -0.24441997706890106 4456788 0 -1
-2.2710092067718506 2.2849278450012207 -0.07407421618700027 4456788 0 -1
-2.3149383068084717 2.379734992980957 0.025439631193876266 4456788 0 -1
-2.849102735519409 1.6462310552597046 -0.642225980758667 4456788 0 -1
-2.8836236000061035 1.6661776304244995 0.3853355646133423 4456788 0 -1
-2.886110305786133 1.667614459991455 0.3596465289592743 4456788 0 -1
-1.7927725315093994 2.656759262084961 1.0894147157669067 4456788 0 -1
-2.883190870285034 1.7245869636535645 0.41501516103744507 4456788 0 -1
-2.8858535289764404 1.726179599761963 0.38907670974731445 4456788 0 -1
-2.8883421421051025 1.7276681661605835 0.36313825845718384 4456788 0 -1
-2.8858535289764404 1.726179599761963 0.38907670974731445 4523353 0 -1
-2.8773415088653564 1.721088171005249 0.4668920338153839 4590430 0 -1
-2.7356951236724854 1.9103827476501465 0.570645809173584 4724328 0 -1
3.212505340576172 0.8668921589851379 0.6225227117538452 4724328 0 -1
-2.655445098876953 1.9601048231124878 0.7522149682044983 4147337 0 -1
3.187009334564209 0.9563809037208557 0.6225227117538452 4147337 0 -1
-2.650602340698242 1.9565303325653076 0.7781534194946289 3302798 0 -1
-2.4505655765533447 2.1049044132232666 1.0115994215011597 3302798 0 -1
3.182260751724243 0.9549559950828552 0.6484611630439758 3302798 0 -1
-2.4378936290740967 2.094019889831543 1.063476324081421 2782862 0 -1
3.114959716796875 1.1833593845367432 0.5965842604637146 2782862 0 -1
-3.1243114471435547 1.0253491401672363 0.8040918707847595 2199437 0 -1
-2.444317102432251 2.0995371341705322 1.0375378131866455 2072968 0 -1
-2.444317102432251 2.0995371341705322 1.0375378131866455 2072968 0 -1
-2.537165880203247 2.0250799655914307 0.9597225189208984 3651704 0 -1
-2.3687210083007812 2.1320977210998535 1.141291618347168 3651704 0 -1
3.0891330242156982 1.3206993341445923 0.41501516103744507 3651704 0 -1
-3.2118239402770996 0.7599908113479614 0.7522149682044983 3651704 0 -1
-2.7202670574188232 1.9537655115127563 0.6808842420578003 4456788 0 -1
-2.5692713260650635 2.102485179901123 0.8118234872817993 4456788 0 -1
-1.8397858142852783 2.672640800476074 1.073702096939087 4456788 0 -1
-2.913602113723755 1.7427774667739868 0.39281782507896423 4456788 0 -1
-2.913602113723755 1.7427774667739868 0.39281782507896423 4456788 0 -1
-2.913602113723755 1.7427774667739868 0.39281782507896423 4456788 0 -1
-2.901789903640747 1.7357120513916016 0.4975692331790924 4590430 0 -1
-2.7619998455047607 1.928751826286316 0.5761328339576721 4724328 0 -1
-2.492008686065674 2.1405017375946045 0.9427627921104431 4724328 0 -1
3.233525037765503 0.8725643157958984 0.6808842420578003 4724328 0 -1
-2.671024799346924 1.9716049432754517 0.8118234872817993 4147337 0 -1
3.2484097480773926 0.7686478495597839 0.733259916305542 4147337 0 -1
-3.1098742485046387 1.1029731035232544 0.8903870582580566 2199437 0 -1
-2.7459299564361572 1.9175299406051636 0.6808842420578003 2199437 0 -1
3.124408483505249 1.3357806205749512 0.366629958152771 2199437 0 -1
-2.6403958797454834 2.0016751289367676 0.8380113840103149 2072968 0 -1
-2.6403958797454834 2.0016751289367676 0.8380113840103149 2072968 0 -1
3.233525037765503 0.8725643157958984 0.6808842420578003 2072968 0 -1
-2.711271286010742 1.947304368019104 0.733259916305542 3651704 0 -1
-2.429877281188965 2.1369590759277344 1.099889874458313 3651704 0 -1
3.1608784198760986 1.2008036375045776 0.4975692331790924 3651704 0 -1
-2.843125820159912 1.8151726722717285 0.5499449372291565 11918891 0 -1
-2.915088653564453 1.8025548458099365 0.396558940410614 4456788 0 -1
-2.915088653564453 1.8025548458099365 0.396558940410614 4456788 0 -1
-2.9176025390625 1.8041092157363892 0.37012168765068054 4456788 0 -1
-2.9847798347473145 1.9056106805801392 -0.21748389303684235 4456788 0 -1
-2.2038516998291016 2.6741697788238525 0.7611936330795288 4456788 0 -1
-2.935023784637451 1.9325634241104126 0.6858723759651184 4456788 0 -1
-2.231450080871582 2.7076575756073 0.71330726146698 4456788 0 -1
-2.231450080871582 2.7076575756073 0.71330726146698 4456788 0 -1
-2.2240705490112305 2.6987035274505615 0.7681770920753479 4456788 0 -1
-2.246915102005005 2.671696186065674 0.7956119775772095 4456788 0 -1
-2.9618239402770996 1.9502100944519043 0.4938281178474426 4456788 0 -1
-2.2201104164123535 2.639824151992798 0.9602213501930237 4456788 0 -1
-2.278865337371826 2.709686756134033 0.7197918891906738 4456788 0 -1
-2.2517359256744385 2.7322726249694824 0.7197918891906738 4456788 0 -1
-2.248084783554077 2.727842330932617 0.7474762201309204 4456788 0 -1
-2.9918782711029053 1.9699994325637817 -0.4706331491470337 4456788 0 -1
-2.215392827987671 2.5810797214508057 1.218109369277954 4456788 0 -1
-3.1431374549865723 1.8161264657974243 0.335204541683197 4456788 0 -1
-2.3229963779449463 2.7064452171325684 0.7542102336883545 4456788 0 -1
-2.2877681255340576 2.7202725410461426 0.8100776672363281 4456788 0 -1
-2.2835960388183594 2.7153117656707764 0.8380113840103149 4456788 0 -1
-2.3887860774993896 2.6710004806518555 -0.670409083366394 4456788 0 -1
-2.288285493850708 2.7766222953796387 0.5866079330444336 4456788 0 -1
-3.3651537895202637 1.438706636428833 0.36638057231903076 4456788 0 -1
-2.9007301330566406 2.2570509910583496 0.14091560244560242 4456788 0 -1
-2.135619878768921 2.9812867641448975 0.28183120489120483 4456788 0 -1
-3.0147969722747803 2.1052844524383545 0.08454935997724533 4456788 0 -1
-2.6797218322753906 2.467815399169922 0.5072961449623108 4456788 0 -1
-2.7272543907165527 2.45481538772583 -0.2536480724811554 4456788 0 -1
-2.861318826675415 2.2263851165771484 0.6200286149978638 4456788 0 -1
-2.7553703784942627 2.4232144355773926 0.2536480724811554 4456788 0 -1
-2.7553703784942627 2.4232144355773926 0.2536480724811554 4456788 0 -1
-2.752117395401001 2.420353651046753 0.3100143074989319 4456788 0 -1
-2.7156455516815186 2.444366216659546 0.42274680733680725 4590430 0 -1
-2.756751775741577 2.424429178237915 0.22546495497226715 4657508 0 -1
-2.7272543907165527 2.45481538772583 0.2536480724811554 4728182 0 -1
-2.7571709156036377 2.3682620525360107 0.5636624097824097 4729209 0 -1
-2.108391761779785 2.9432766437530518 0.6482117772102356 4729209 0 -1
-2.7861125469207764 2.3931212425231934 0.1972818374633789 4341894 0 -1
-2.4724016189575195 2.651634693145752 0.6200286149978638 4341894 0 -1
-2.781925916671753 2.3895251750946045 0.28183120489120483 2782862 0 -1
-2.9264004230499268 2.277024984359741 0.14216263592243195 4456788 0 -1
-2.6189539432525635 2.5783770084381104 0.5117855072021484 4456788 0 -1
-2.776472568511963 2.441772699356079 0.31275781989097595 4456788 0 -1
-3.0414767265319824 2.123915195465088 -0.0852975845336914 4456788 0 -1
-2.806544780731201 2.4106714725494385 0.2843252718448639 4456788 0 -1
-2.7068800926208496 2.436476230621338 0.7108132243156433 4456788 0 -1
-2.0838987827301025 3.027261734008789 0.5117855072021484 4456788 0 -1
-2.8107683658599854 2.414299249649048 0.19902770221233368 4456788 0 -1
-2.814737558364868 2.4177086353302 0.02843252755701542 4456788 0 -1
-2.7703089714050293 2.436352252960205 0.39805540442466736 4456788 0 -1
-2.7879185676574707 2.3946726322174072 0.5117855072021484 4456788 0 -1
-2.793586254119873 2.399540662765503 0.4549204409122467 4456788 0 -1
-2.796165943145752 2.401756525039673 0.42648792266845703 4456788 0 -1
-2.790837287902832 2.397179365158081 0.48335298895835876 4456788 0 -1
-2.808119058609009 2.4120235443115234 0.2558927536010742 4590430 0 -1
-2.7703089714050293 2.436352252960205 0.39805540442466736 4657508 0 -1
-2.8028957843780518 2.4075372219085693 0.3411903381347656 4728182 0 -1
-2.8048038482666016 2.4091761112213135 0.31275781989097595 4729209 0 -1
-2.8402464389801025 2.3817574977874756 0.1705951690673828 4471684 0 -1
-2.5817060470581055 2.597529172897339 0.5970830917358398 4471684 0 -1
-2.9555935859680176 2.2406256198883057 0.11373011022806168 3302798 0 -1
-2.644181966781616 2.5466325283050537 0.5402180552482605 3302798 0 -1
-2.8107683658599854 2.414299249649048 0.19902770221233368 2782862 0 -1
-2.8008205890655518 2.405754566192627 0.3696228563785553 5949540 0 -1
-2.8008205890655518 2.405754566192627 0.3696228563785553 5949540 0 -1
-3.6082799434661865 0.8538013100624084 0.14216263592243195 5949540 0 -1
-3.5527994632720947 1.1659719944000244 0.17209161818027496 4456788 0 -1
-2.6075685024261475 2.6235501766204834 0.5736387372016907 4456788 0 -1
-2.104379177093506 3.057013511657715 0.4875929057598114 4456788 0 -1
-2.8025660514831543 2.4647207260131836 0.28681936860084534 4456788 0 -1
-2.982133150100708 2.260745048522949 0.08604580909013748 4456788 0 -1
-2.8008275032043457 2.4631917476654053 0.31550130248069763 4456788 0 -1
-2.742332696914673 2.4683873653411865 0.6310026049613953 4456788 0 -1
-2.104379177093506 3.057013511657715 0.4875929057598114 4456788 0 -1
-2.834171772003174 2.434401512145996 0.22945548593997955 4456788 0 -1
-2.7922019958496094 2.455605983734131 0.4302290380001068 4456788 0 -1
-2.3463196754455566 2.9051058292388916 0.25813743472099304 4456788 0 -1
-2.809258460998535 2.4130022525787354 0.5449568033218384 4456788 0 -1
-2.809258460998535 2.4130022525787354 0.5449568033218384 4456788 0 -1
-2.8153181076049805 2.4182074069976807 0.4875929057598114 4456788 0 -1
-2.8123741149902344 2.4156785011291504 0.5162748694419861 4456788 0 -1
-2.7910845279693604 2.3973920345306396 0.6883664727210999 4523353 0 -1
-2.832751750946045 2.4331817626953125 0.25813743472099304 4590430 0 -1
-2.8078575134277344 2.469374418258667 0.17209161818027496 4657508 0 -1
-2.832751750946045 2.4331817626953125 0.25813743472099304 4728182 0 -1
-2.8311636447906494 2.4318177700042725 0.28681936860084534 4729209 0 -1
-2.8311636447906494 2.4318177700042725 0.28681936860084534 4471684 0 -1
-2.9828338623046875 2.2612762451171875 0.028681935742497444 3302798 0 -1
-2.8365092277526855 2.4364092350006104 0.17209161818027496 2782862 0 -1
-2.9544131755828857 2.2397305965423584 0.5162748694419861 2468738 0 -1
-2.8274827003479004 2.4286558628082275 0.3441832363605499 5949540 0 -1
-2.5974366664886475 2.613356113433838 0.6596845388412476 5949540 0 -1
-2.829939842224121 2.4887945652008057 0.23145075142383575 4456788 0 -1
-2.399538516998291 2.9116175174713135 0.1446567177772522 4456788 0 -1
-2.8138833045959473 2.4746737480163574 0.4629015028476715 4456788 0 -1
-2.8303701877593994 2.431136131286621 0.5786268711090088 4456788 0 -1
-2.8268795013427734 2.42813777923584 0.6075582504272461 4456788 0 -1
-2.8303701877593994 2.431136131286621 0.5786268711090088 4456788 0 -1
-2.833686590194702 2.4339847564697266 0.5496955513954163 4456788 0 -1
-2.823213815689087 2.4249892234802246 0.6364895701408386 4523353 0 -1
-2.8557825088500977 2.4529638290405273 0.2893134355545044 4590430 0 -1
-2.8269362449645996 2.4861531257629395 0.2893134355545044 4657508 0 -1
-2.8628575801849365 2.459040880203247 0.11572537571191788 4728182 0 -1
-3.0074462890625 2.279934883117676 -0.11572537571191788 3302798 0 -1
-2.828521728515625 2.4875476360321045 0.2603820860385895 2782862 0 -1
-2.828521728515625 2.4875476360321045 0.2603820860385895 2782862 0 -1
3.492358684539795 1.4113328456878662 -0.2603820860385895 2072968 0 -1
-3.0016965866088867 2.275576114654541 0.2603820860385895 5949540 0 -1
-2.82326078414917 2.4829206466674805 0.34717613458633423 5949540 0 -1
-2.5068912506103516 2.861455202102661 0.17508451640605927 4456788 0 -1
-2.5037052631378174 2.741973400115967 0.84624183177948 4456788 0 -1
-2.9221444129943848 2.3912479877471924 0.49607279896736145 4456788 0 -1
-2.814953565597534 2.4756147861480713 0.6711573004722595 4456788 0 -1
-2.839625358581543 2.4390857219696045 0.7003380656242371 4456788 0 -1
-2.8595800399780273 2.397970199584961 0.7586995959281921 4456788 0 -1
-2.7692949771881104 2.4926562309265137 0.7878803014755249 4456788 0 -1
-2.8547699451446533 2.452094316482544 0.5836150646209717 4456788 0 -1
-2.659409284591675 2.6182055473327637 0.7586995959281921 4456788 0 -1
-2.998461961746216 2.3330960273742676 0.2626267671585083 4523353 0 -1
-2.998461961746216 2.3330960273742676 0.2626267671585083 4523353 0 -1
-2.6878738403320312 2.6462290287017822 0.5252535343170166 4590430 0 -1
-2.2807180881500244 2.9990017414093018 0.5544342994689941 4590430 0 -1
-2.7378323078155518 2.6368279457092285 0.23344601690769196 4657508 0 -1
-2.501563549041748 2.914487838745117 0 4456788 0 -1
-2.354412794113159 3.0346004962921143 0 4456788 0 -1
-2.3749101161956787 2.76692795753479 1.2066365480422974 4456788 0 -1
-2.962758779525757 2.364773750305176 0.6180333495140076 4456788 0 -1
-3.005478858947754 2.3385558128356934 -0.5003127455711365 4456788 0 -1
-2.8916068077087402 2.4837350845336914 -0.4708825647830963 4456788 0 -1
-2.633291006088257 2.5361433029174805 1.1772063970565796 4456788 0 -1
-2.7370049953460693 2.694598913192749 0 4456788 0 -1
-2.972097158432007 2.4321253299713135 -0.05886032059788704 4456788 0 -1
-2.823221206665039 2.5999670028686523 -0.14715079963207245 4456788 0 -1
-2.970263957977295 2.4306252002716064 -0.14715079963207245 4456788 0 -1
-2.970263957977295 2.4306252002716064 -0.14715079963207245 4523353 0 -1
-2.6871497631073 2.7036190032958984 0.4708825647830963 4590430 0 -1
-2.265855073928833 3.100722551345825 0.5045526623725891 4456788 0 -1
-2.9213218688964844 2.50925874710083 -0.4155139625072479 4456788 0 -1
-2.9213218688964844 2.50925874710083 -0.4155139625072479 4456788 0 -1
-2.9648187160491943 2.486220598220825 -0.17807741463184357 4456788 0 -1
-2.8221311569213867 2.3094050884246826 -1.305901050567627 4657508 0 -1
-2.6901400089263916 2.477409839630127 -1.276221513748169 4657508 0 -1
-3.2913174629211426 2.1013174057006836 0.08978693187236786 4456788 0 -1
-3.1311309337615967 2.2488584518432617 0.6285085082054138 4456788 0 -1
-2.901789903640747 2.55198335647583 -0.5686505436897278 4456788 0 -1
-2.8087680339813232 2.528186082839966 -0.9876562356948853 4590430 0 -1
-3.289057731628418 2.1656768321990967 0.06035676971077919 4456788 0 -1
-3.052651882171631 2.2533011436462402 -1.0562435388565063 4456788 0 -1
-2.956092357635498 2.5997395515441895 0.12071353942155838 4456788 0 -1
-3.0089662075042725 2.5232417583465576 -0.30178385972976685 4456788 0 -1
-2.617692470550537 2.8668084144592285 0.6639244556427002 4590430 0 -1
-3.1708168983459473 2.340524196624756 -0.4868446886539459 4456788 0 -1
-3.0091662406921387 2.584712505340576 -0.18256676197052002 4456788 0 -1
-3.126601457595825 2.4328010082244873 -0.27385014295578003 4590430 0 -1
2.8287243843078613 3.29565167427063 0.40104830265045166 3302798 5 -1
2.851774215698242 3.3225064277648926 0.37037110328674316 3432845 5 -1
2.849834442138672 3.3202462196350098 0.40404120087623596 3302798 5 -1
2.849834442138672 3.3202462196350098 0.40404120087623596 2977934 5 -1
2.849834442138672 3.3202462196350098 0.40404120087623596 2912910 5 -1
2.8901829719543457 3.2989583015441895 0.2693607807159424 2718350 5 -1
2.888734817504883 3.2973053455352783 0.3030308783054352 2588302 5 -1
2.872898578643799 3.3471174240112305 0.37311458587646484 3432845 5 -1
2.827744960784912 3.362332344055176 0.5427120923995972 3302798 5 -1
2.8303563594818115 3.3654375076293945 0.5087926387786865 3238030 5 -1
2.868818521499634 3.3423640727996826 0.4409535825252533 2977934 5 -1
2.908501625061035 3.3198678493499756 0.3391950726509094 2718350 5 -1
2.908501625061035 3.3198678493499756 0.3391950726509094 2588302 5 -1
2.9066972732543945 3.3178083896636963 0.37311458587646484 2523534 5 -1
2.9676921367645264 3.2501161098480225 0.4748730957508087 2328718 5 -1
2.9793033599853516 3.2628321647644043 0.2713560461997986 2264205 5 -1
2.8219146728515625 3.4241318702697754 0.4441958963871002 3562893 5 -1
2.861750602722168 3.4027669429779053 0.3416891396045685 3302798 5 -1
2.8958191871643066 3.373821496963501 0.3416891396045685 3238030 5 -1
2.8920540809631348 3.3694350719451904 0.41002699732780457 2782862 5 -1
2.928070068359375 3.3422040939331055 0.3758580684661865 2718350 5 -1
3.036655902862549 3.25679349899292 0.23918241262435913 2264205 5 -1
3.0707757472991943 3.224642753601074 0.23918241262435913 2199437 5 -1
2.9997060298919678 3.2851767539978027 0.3075202405452728 2134668 5 -1
2.886977434158325 3.432762861251831 0.2409282624721527 3757452 5 -1
2.88425612449646 3.4295272827148438 0.30976492166519165 3692940 5 -1
2.885702133178711 3.431246519088745 0.275346577167511 3562893 5 -1
2.9213461875915527 3.403562307357788 0.2409282624721527 3302798 5 -1
2.913163900375366 3.394029378890991 0.41301989555358887 2782862 5 -1
3.0574700832366943 3.279116630554199 0.275346577167511 2264205 5 -1
3.058821201324463 3.2805657386779785 0.2409282624721527 2199437 5 -1
2.786675453186035 3.1808111667633057 1.5144062042236328 2070155 0 -1
2.854623556137085 3.4638209342956543 -0.17209161818027496 2666112 5 -1
3.063140869140625 3.285198450088501 0.03441832214593887 2666112 5 -1
2.886977434158325 3.432762861251831 0.2409282624721527 4899181 5 -1
2.854623556137085 3.4638209342956543 -0.17209161818027496 6933851 5 -1
-2.712576150894165 3.566868305206299 0.6240191459655762 4456788 0 -1
-2.738750696182251 3.6012864112854004 0 4456788 0 -1
-2.7380270957946777 3.600334644317627 -0.10400319844484329 4456788 0 -1
2.772115468978882 3.572977066040039 0.1386709213256836 4724328 5 -1
2.7726857662200928 3.57371187210083 0.10400319844484329 4725613 5 -1
2.8720104694366455 3.4849183559417725 0.2773418426513672 4017546 5 -1
2.8631105422973633 3.474119186401367 0.45068052411079407 3887499 5 -1
3.0463688373565674 3.336280107498169 0.24267412722110748 2718350 5 -1
3.010420560836792 3.3660759925842285 0.2773418426513672 2588302 5 -1
3.0417912006378174 3.3312668800354004 0.346677303314209 2264205 5 -1
3.070082426071167 3.2926433086395264 0.45068052411079407 2134668 5 -1
3.1109228134155273 3.266801595687866 0.346677303314209 2070155 5 -1
3.0117509365081787 3.367563486099243 0.24267412722110748 4899181 5 -1
-3.2100183963775635 3.2296924591064453 -0.17458570003509521 4456788 0 -1
-2.966562509536743 3.456242322921753 0.1396685540676117 4456788 0 -1
-2.779478073120117 3.5824666023254395 -0.4539228081703186 4456788 0 -1
-2.967956781387329 3.457866907119751 0 4456788 0 -1
-2.723217010498047 3.6530566215515137 0.06983427703380585 4456788 0 -1
2.7920589447021484 3.598681926727295 0.1396685540676117 4724328 5 -1
2.7920589447021484 3.598681926727295 0.1396685540676117 4725613 5 -1
2.827540874481201 3.5720653533935547 0.10475142300128937 4726897 5 -1
2.896760940551758 3.514950752258301 0.1396685540676117 4341894 5 -1
2.896760940551758 3.514950752258301 0.1396685540676117 4212104 5 -1
2.8950581550598145 3.5128846168518066 0.20950284600257874 4147337 5 -1
2.8939507007598877 3.5115408897399902 0.24441997706890106 4017546 5 -1
2.8939507007598877 3.5115408897399902 0.24441997706890106 3887499 5 -1
2.860177993774414 3.541341781616211 0.20950284600257874 3692940 5 -1
2.9996988773345947 3.4239635467529297 0.20950284600257874 3692940 5 -1
3.032078266143799 3.3902924060821533 0.2793371081352234 2718350 5 -1
3.0694591999053955 3.361567974090576 0.20950284600257874 2588302 5 -1
3.061774253845215 3.353151559829712 0.38408854603767395 2264205 5 -1
3.0653932094573975 3.357114791870117 0.3142542541027069 2199437 5 -1
3.135061025619507 3.292149305343628 0.3142542541027069 2134668 5 -1
3.135061025619507 3.292149305343628 0.3142542541027069 2070155 5 -1
3.135061025619507 3.292149305343628 0.3142542541027069 2006409 5 -1
3.0334181785583496 3.3917906284332275 0.24441997706890106 2666112 5 -1
2.811258316040039 3.6234281063079834 0.17583273351192474 4724328 5 -1
2.812002182006836 3.624386787414551 0.1406661868095398 4725613 5 -1
2.9539031982421875 3.512341260910034 0.03516654670238495 4600703 5 -1
2.9539031982421875 3.512341260910034 0.03516654670238495 4536450 5 -1
2.9166805744171143 3.539121389389038 0.17583273351192474 4341894 5 -1
2.9526021480560303 3.510794162750244 0.1406661868095398 4212104 5 -1
2.9526021480560303 3.510794162750244 0.1406661868095398 4147337 5 -1
2.9518213272094727 3.5098655223846436 0.17583273351192474 4017546 5 -1
2.9526021480560303 3.510794162750244 0.1406661868095398 3887499 5 -1
2.9518213272094727 3.5098655223846436 0.17583273351192474 3692940 5 -1
2.9859957695007324 3.4788835048675537 0.2109992951154709 3302798 5 -1
2.950866460800171 3.508730173110962 0.2109992951154709 3238030 5 -1
3.0855579376220703 3.3791987895965576 0.3516654670238495 2328718 5 -1
3.0855579376220703 3.3791987895965576 0.3516654670238495 2264205 5 -1
3.1223716735839844 3.3487231731414795 0.31649893522262573 2199437 5 -1
3.157454490661621 3.315664768218994 0.31649893522262573 2134668 5 -1
3.0792646408081055 3.3723065853118896 0.4571651220321655 2070155 5 -1
3.157454490661621 3.315664768218994 0.31649893522262573 2070922 5 -1
3.094656229019165 3.38916277885437 0 2006409 5 -1
2.8325278759002686 3.6508424282073975 0.10624786466360092 4725613 5 -1
2.8325278759002686 3.6508424282073975 0.10624786466360092 4725613 5 -1
2.9010376930236816 3.5919322967529297 0.21249572932720184 4536450 5 -1
2.9027440547943115 3.5940451622009277 0.1416638195514679 4471684 5 -1
2.938143253326416 3.56516432762146 0.1416638195514679 4341894 5 -1
2.9735426902770996 3.535693407058716 0.1416638195514679 4147337 5 -1
2.9727561473846436 3.5347580909729004 0.17707978188991547 4017546 5 -1
2.9735426902770996 3.535693407058716 0.1416638195514679 3887499 5 -1
2.9727561473846436 3.5347580909729004 0.17707978188991547 3692940 5 -1
3.008146047592163 3.504689931869507 0.17707978188991547 3238030 5 -1
3.0425517559051514 3.472877264022827 0.21249572932720184 2977934 5 -1
3.1445159912109375 3.3724727630615234 0.31874361634254456 2328718 5 -1
3.109184503555298 3.405073642730713 0.31874361634254456 2264205 5 -1
3.1445159912109375 3.3724727630615234 0.31874361634254456 2199437 5 -1
3.140803813934326 3.3684914112091064 0.3895755112171173 2134668 5 -1
3.138667106628418 3.3661999702453613 0.4249914586544037 2070155 5 -1
3.182847738265991 3.3423304557800293 0.24791169166564941 2070922 5 -1
3.1074414253234863 3.403164863586426 0.35415956377983093 2006409 5 -1
2.9515223503112793 3.5813984870910645 -0.35665363073349 4456788 5 -1
2.9594430923461914 3.5910096168518066 0.106996089220047 4536450 5 -1
2.9594430923461914 3.5910096168518066 0.106996089220047 4471684 5 -1
2.9598774909973145 3.5915369987487793 0.071330726146698 4341894 5 -1
2.9559640884399414 3.5867881774902344 0.2496575564146042 4017546 5 -1
2.99448299407959 3.5605926513671875 0.142661452293396 3887499 5 -1
2.99448299407959 3.5605926513671875 0.142661452293396 3692940 5 -1
3.029330253601074 3.5293707847595215 0.178326815366745 3238030 5 -1
3.0628061294555664 3.4959964752197266 0.2496575564146042 2977934 5 -1
3.0519661903381348 3.483623504638672 -0.4636497497558594 2912910 5 -1
3.0996057987213135 3.4657976627349854 0.213992178440094 2782862 5 -1
3.0311999320983887 3.5315492153167725 -0.071330726146698 2718350 5 -1
3.1326496601104736 3.430772066116333 0.285322904586792 2264205 5 -1
3.131080150604248 3.4290530681610107 0.320988267660141 2199437 5 -1
3.196284770965576 3.356440782546997 0.427984356880188 2134668 5 -1
3.1733787059783936 3.403427839279175 0.106996089220047 2070155 5 -1
3.1733787059783936 3.403427839279175 0.106996089220047 2006409 5 -1
2.958051919937134 3.5893216133117676 -0.178326815366745 3257723 5 -1
2.8056278228759766 3.689225196838379 -0.427984356880188 12640037 5 -1
3.016486644744873 3.5867559909820557 0.07182954251766205 4456788 5 -1
3.0160436630249023 3.5862293243408203 -0.10774431377649307 4456788 5 -1
3.015423536300659 3.585491895675659 -0.1436590850353241 4456788 5 -1
2.836517333984375 3.7298431396484375 -0.10774431377649307 4456788 5 -1
-4.016664028167725 2.402576446533203 0.25140342116355896 4456788 0 -1
2.9911365509033203 3.5566134452819824 -0.610551118850708 4456788 5 -1
2.970318555831909 3.604206085205078 -0.39506250619888306 4456788 5 -1
3.012498140335083 3.5820133686065674 -0.25140342116355896 4523353 5 -1
2.9808385372161865 3.616971254348755 -0.035914771258831024 4657508 5 -1
2.9428491592407227 3.6437015533447266 0.17957386374473572 4600703 5 -1
2.9805760383605957 3.616652488708496 0.07182954251766205 4017546 5 -1
2.9446654319763184 3.6459503173828125 0.07182954251766205 3757452 5 -1
3.051321506500244 3.5549919605255127 0.1436590850353241 3238030 5 -1
3.088670492172241 3.5255188941955566 0 2912910 5 -1
3.160407304763794 3.4611711502075195 0.035914771258831024 2782862 5 -1
3.0160436630249023 3.5862293243408203 -0.10774431377649307 2718350 5 -1
2.989198923110962 3.3423471450805664 -1.3647613525390625 2588302 0 -1
3.147111177444458 3.4466097354888916 0.4309772551059723 2264205 5 -1
2.970318555831909 3.604206085205078 -0.39506250619888306 2006409 5 -1
3.2276766300201416 3.3894054889678955 0.25140342116355896 2006409 5 -1
2.820894479751587 3.7093002796173096 -0.5028068423271179 2994813 5 -1
3.124493360519409 3.4936256408691406 0.035914771258831024 2994813 5 -1
2.9787375926971436 3.614421844482422 -0.17957386374473572 4899181 5 -1
2.8252475261688232 3.715023994445801 -0.4309772551059723 12640037 5 -1
2.8876936435699463 3.7219455242156982 -0.2893134355545044 4456788 5 -1
3.0363640785217285 3.610391139984131 -0.1446567177772522 4456788 5 -1
-2.9271481037139893 3.6979000568389893 0.18082089722156525 4456788 0 -1
3.0249221324920654 3.5967862606048584 -0.4339701533317566 4456788 5 -1
2.8485708236694336 3.745692729949951 -0.3616417944431305 4456788 5 -1
3.0269813537597656 3.5992345809936523 -0.39780598878860474 4456788 5 -1
3.0269813537597656 3.5992345809936523 -0.39780598878860474 4456788 5 -1
3.034579038619995 3.6082687377929688 -0.2169850766658783 4456788 5 -1
2.9889111518859863 3.6267664432525635 -0.4339701533317566 4456788 5 -1
2.9973061084747314 3.6369528770446777 -0.25314927101135254 4523353 5 -1
2.9994232654571533 3.639521837234497 -0.18082089722156525 4657508 5 -1
2.9206864833831787 3.689737319946289 0.3616417944431305 4600703 5 -1
2.8846287727355957 3.7179951667785645 0.3616417944431305 4536450 5 -1
2.890075206756592 3.725015163421631 -0.2169850766658783 3757452 5 -1
3.0019078254699707 3.5694210529327393 -0.723283588886261 3757452 5 -1
3.105642557144165 3.544891595840454 0.25314927101135254 2912910 5 -1
3.028860092163086 3.601468801498413 0.3616417944431305 2264205 5 -1
3.108339786529541 3.404148578643799 -1.0125970840454102 2264205 0 -1
2.992802381515503 3.631488084793091 -0.3616417944431305 2006409 5 -1
3.2513346672058105 3.4142489433288574 0.2169850766658783 2006409 5 -1
3.1454522609710693 3.5170605182647705 0.10849253833293915 2666112 5 -1
3.145914316177368 3.5175769329071045 0.0723283588886261 2994813 5 -1
3.0015387535095215 3.6420888900756836 0.03616417944431305 4899181 5 -1
2.1314306259155273 4.205386638641357 -0.2169850766658783 8705099 0 -1
2.349567413330078 4.09071683883667 0.1446567177772522 8705099 0 -1
3.1100282669067383 3.5498974323272705 -0.03616417944431305 8705099 5 -1
3.346541166305542 3.294691324234009 0.47013434767723083 8705099 5 -1
4.114963531494141 2.293191909790039 0.2893134355545044 8705099 0 -1
2.3142356872558594 4.1127166748046875 0.0723283588886261 9360965 0 -1
3.0015387535095215 3.6420888900756836 0.03616417944431305 9360965 5 -1
3.1462836265563965 3.5179901123046875 0 9360965 5 -1
3.4128289222717285 3.2146055698394775 0.5424627065658569 9360965 5 -1
3.3057477474212646 3.398277759552002 0.32772231101989746 4456788 5 -1
-2.9788057804107666 3.6882212162017822 0.32772231101989746 4456788 0 -1
2.8600735664367676 3.7608182430267334 -0.5097902417182922 4456788 5 -1
3.0222392082214355 3.6672067642211914 -0.036413587629795074 4456788 5 -1
3.007296085357666 3.6490747928619385 -0.47337666153907776 4456788 5 -1
3.017977237701416 3.6620354652404785 -0.2548951208591461 4523353 5 -1
3.017977237701416 3.6620354652404785 -0.2548951208591461 4657508 5 -1
2.942478895187378 3.7172675132751465 0.32772231101989746 4600703 5 -1
2.940829277038574 3.715183734893799 0.36413589119911194 4536450 5 -1
2.9463818073272705 3.722198486328125 0.21848152577877045 4212104 5 -1
2.939005136489868 3.712879180908203 0.4005494713783264 4147337 5 -1
3.12042498588562 3.56176495552063 0.4005494713783264 2912910 5 -1
3.1469874382019043 3.5187771320343018 0.5462038516998291 2458766 5 -1
3.1342291831970215 3.504511594772339 0.691858172416687 2134668 5 -1
2.892207384109497 3.803072214126587 -0.2566409707069397 4456788 5 -1
2.8596298694610596 3.836047410964966 -0.0366629958152771 4456788 5 -1
3.0254688262939453 3.671125888824463 -0.5132819414138794 4456788 5 -1
2.9683074951171875 3.7498972415924072 -0.1466519832611084 4523353 5 -1
2.8771820068359375 3.7833147048950195 0.5499449372291565 4726897 5 -1
2.88948130607605 3.799487590789795 0.3299669623374939 4728182 5 -1
2.9275238513946533 3.773282766342163 0.2933039665222168 4600703 5 -1
2.887861490249634 3.7973575592041016 0.366629958152771 4471684 5 -1
2.918452024459839 3.761590003967285 0.4766189455986023 4147337 5 -1
3.1154041290283203 3.483462333679199 -1.0265638828277588 2264205 0 -1
3.139660596847534 3.5837209224700928 -0.4399559497833252 6933851 5 -1
3.139660596847534 3.5837209224700928 -0.4399559497833252 7589974 5 -1
3.1348233222961426 3.5781993865966797 -0.5132819414138794 10016830 5 -1
3.151536464691162 3.597276449203491 -0.1466519832611084 10672695 5 -1
2.8108696937561035 3.622927188873291 -1.4764962196350098 4456788 0 -1
2.8850109577178955 3.793609142303467 0.7013356685638428 4726897 5 -1
2.9529056549072266 3.805997371673584 0.036912404000759125 4728182 5 -1
2.9498698711395264 3.802084445953369 0.22147442400455475 4600703 5 -1
2.9516050815582275 3.804320812225342 0.1476496160030365 4536450 5 -1
2.9498698711395264 3.802084445953369 0.22147442400455475 4471684 5 -1
2.933422565460205 3.7808854579925537 0.5536860823631287 3887499 5 -1
2.994568347930908 3.707737684249878 -0.7013356685638428 3692940 5 -1
3.1553220748901367 3.455601930618286 -1.1442846059799194 2264205 0 -1
3.1219494342803955 3.6372783184051514 -0.4798612594604492 2072968 5 -1
3.1610188484191895 3.608099937438965 -0.4429488480091095 2666112 5 -1
3.163170576095581 3.610556125640869 -0.40603646636009216 2994813 5 -1
3.1610188484191895 3.608099937438965 -0.4429488480091095 6343264 5 -1
3.1651339530944824 3.612797260284424 -0.36912405490875244 6933851 5 -1
3.163170576095581 3.610556125640869 -0.40603646636009216 7589974 5 -1
3.1610188484191895 3.608099937438965 -0.4429488480091095 8180304 5 -1
3.1610188484191895 3.608099937438965 -0.4429488480091095 10016830 5 -1
3.1954071521759033 3.5729169845581055 -0.4798612594604492 10672695 5 -1
3.1586782932281494 3.605428457260132 -0.4798612594604492 11197490 5 -1
3.1474194526672363 3.5925772190093994 -0.6275109052658081 11918891 5 -1
2.8972597122192383 3.886525869369507 0.1486472487449646 4456788 5 -1
2.969801425933838 3.8277742862701416 -0.2229708731174469 4726897 5 -1
2.9725959300994873 3.831376075744629 -0.0743236243724823 4728182 5 -1
2.9707624912261963 3.829012632369995 0.18580906093120575 4729209 5 -1
2.9287939071655273 3.8511812686920166 0.33445632457733154 4600703 5 -1
2.9707624912261963 3.829012632369995 0.18580906093120575 4536450 5 -1
3.001831531524658 3.642444133758545 1.114854335784912 3692940 0 -1
3.0379981994628906 3.6123342514038086 -1.114854335784912 2782862 0 -1
3.1494674682617188 3.6693387031555176 -0.3716181218624115 2666112 5 -1
3.112414836883545 3.700819492340088 -0.3716181218624115 5424489 5 -1
3.1453726291656494 3.6645679473876953 -0.4459417462348938 5949540 5 -1
3.1512341499328613 3.6713969707489014 -0.33445632457733154 6933851 5 -1
3.1823770999908447 3.632479190826416 -0.4459417462348938 7589974 5 -1
3.180020809173584 3.629789352416992 -0.48310357332229614 11918891 5 -1
3.0299530029296875 3.8277747631073 -0.07482244074344635 4456788 5 -1
2.955139398574829 3.8858237266540527 0.07482244074344635 4726897 5 -1
2.9897329807281494 3.853463888168335 0.22446732223033905 4729209 5 -1
2.9057133197784424 3.8978662490844727 0.4489346444606781 4600703 5 -1
2.9057133197784424 3.8978662490844727 0.4489346444606781 4600703 5 -1
2.9484503269195557 3.877027988433838 0.33670100569725037 4536450 5 -1
2.9855687618255615 3.6965949535369873 1.1223366260528564 3107982 0 -1
3.134445905685425 3.6518375873565674 -0.823046863079071 2782862 5 -1
3.2113144397735596 3.6655092239379883 -0.2992897629737854 2199437 5 -1
3.216987133026123 3.6719844341278076 -0.07482244074344635 2134668 5 -1
3.173973560333252 3.697890043258667 -0.2992897629737854 3257723 5 -1
3.168637990951538 3.691673755645752 -0.4115234315395355 6933851 5 -1
3.196043014526367 3.648077964782715 -0.5611683130264282 7589974 5 -1
3.205916166305542 3.6593475341796875 -0.4115234315395355 11918891 5 -1
3.2013630867004395 3.6541504859924316 -0.48634588718414307 12640037 5 -1
2.8875837326049805 3.951530933380127 0.4519275426864624 4341894 5 -1
3.047285318374634 3.849670886993408 0.2259637713432312 4341894 5 -1
3.1996495723724365 3.727804183959961 -0.1506425142288208 2977934 5 -1
3.260178804397583 3.645341157913208 -0.4895881712436676 2199437 5 -1
3.198803186416626 3.726818084716797 -0.188303142786026 2070155 5 -1
3.191742181777954 3.7185916900634766 -0.376606285572052 3257723 5 -1
3.1875925064086914 3.713756799697876 -0.4519275426864624 3651704 5 -1
3.1826813220977783 3.7080349922180176 -0.5272487998008728 6933851 5 -1
3.2295854091644287 3.611133337020874 -0.8285338282585144 7589974 5 -1
3.1935324668884277 3.720677375793457 -0.3389456570148468 11918891 5 -1
3.2201244831085205 3.675565481185913 -0.5272487998008728 12640037 5 -1
2.902228355407715 3.971571207046509 0.53074049949646 4341894 5 -1
3.2700717449188232 3.656402826309204 -0.6444706320762634 2199437 5 -1
3.220839262008667 3.7524917125701904 -0.1516401469707489 2070155 5 -1
3.2136058807373047 3.6681249141693115 0.8340208530426025 2271109 5 -1
3.157310724258423 3.7542030811309814 -0.6444706320762634 8705099 5 -1
3.198044776916504 3.7259345054626465 -0.6065605878829956 11918891 5 -1
3.1948978900909424 3.7222681045532227 -0.6444706320762634 12640037 5 -1
3.1668620109558105 3.842693328857422 -0.0763188898563385 4147337 5 -1
3.0506372451782227 3.853905200958252 0.8013483881950378 3238030 5 -1
3.075709104537964 3.8082025051116943 0.915826678276062 2718350 5 -1
3.2257437705993652 3.681979179382324 0.915826678276062 2199437 5 -1
3.2467474937438965 3.70595383644104 0.725029468536377 2271109 5 -1
3.1489574909210205 3.82096791267395 -0.5342322587966919 4045940 5 -1
3.186896800994873 3.789382219314575 -0.5342322587966919 8705099 5 -1
3.2052390575408936 3.734316349029541 -0.763188898563385 12640037 5 -1
3.0743677616119385 3.8838841915130615 0.7681770920753479 3302798 5 -1
3.218031167984009 3.7492198944091797 0.8449947834014893 3302798 5 -1
3.2222094535827637 3.7540879249572754 0.8065859079360962 2977934 5 -1
3.2261881828308105 3.758723497390747 0.7681770920753479 2199437 5 -1
3.263218641281128 3.8018665313720703 -0.1536354124546051 2139270 5 -1
3.090514659881592 3.904283046722412 0.8118234872817993 3302798 5 -1
3.2471375465393066 3.7831308841705322 0.773165225982666 3302798 5 -1
3.2679102420806885 3.730109691619873 0.9277982711791992 2199437 5 -1
3.2670085430145264 3.652977466583252 1.1984061002731323 2134668 0 -1
3.040957450866699 3.998669147491455 0.7392457127571106 3757452 5 -1
3.194929838180542 3.876751184463501 0.7392457127571106 3757452 5 -1
3.2789740562438965 3.8202223777770996 0.6614304184913635 2718350 5 -1
3.1872549057006836 3.8674380779266357 0.8170610666275024 2523534 5 -1
3.352616786956787 3.74869966506958 0.7003380656242371 2523534 5 -1
3.344982862472534 3.740164041519165 0.7781534194946289 2199437 5 -1
3.1414108276367188 3.968580484390259 0.7048274278640747 2718350 5 -1
3.296542167663574 3.8406903743743896 0.7048274278640747 2718350 5 -1
3.13039231300354 3.9546608924865723 0.8222986459732056 2523534 5 -1
3.296542167663574 3.8406903743743896 0.7048274278640747 2523534 5 -1
3.3717281818389893 3.6161563396453857 1.2921836376190186 2070922 0 -1
3.305903196334839 3.8515965938568115 0.8275362253189087 2264205 5 -1
-4.542096138000488 2.716864824295044 -0.6953498721122742 4456788 0 -1
-4.533451080322266 2.8032748699188232 -0.6584374904632568 4456788 0 -1
-4.5792412757873535 2.8315892219543457 -0.45541927218437195 4456788 0 -1
-4.795281887054443 1.8217062950134277 1.6974718570709229 4523353 0 -1
-4.618390083312988 2.855797052383423 0.24990695714950562 4456788 0 -1
-4.924324035644531 1.7465004920959473 1.4994417428970337 4590430 0 -1
-3.8555469512939453 3.4703969955444336 1.6243952512741089 4590430 0 -1
5.1508564949035645 1.389954686164856 1.0412789583206177 4590430 0 -1
-4.647548198699951 2.8738272190093994 0.20950284600257874 4456788 0 -1
-4.675212383270264 2.8909332752227783 0.21074987947940826 4456788 0 -1
-4.692495346069336 2.9016201496124268 0.423993855714798 4456788 0 -1
-4.6626996994018555 2.9768662452697754 -0.12719815969467163 4523353 0 -1
-4.334192276000977 3.372424364089966 0.6783901453018188 4590430 0 -1
-4.713961124420166 2.914893865585327 -0.5117855072021484 4456788 0 -1
-4.642026424407959 3.0565378665924072 0.2985415458679199 4456788 0 -1
-4.856821537017822 2.7066152095794678 0.2558927536010742 4523353 0 -1
-4.674673080444336 2.9845104217529297 -0.46913671493530273 4523353 0 -1
-3.9976086616516113 3.4337313175201416 1.7912492752075195 4523353 0 -1
-4.790036201477051 3.1539947986602783 1.026813268661499 4456788 0 -1
-4.624026775360107 3.5979440212249756 0 4456788 0 -1
-4.604032516479492 3.6747829914093018 0.09028574824333191 4456788 0 -1
-4.427114009857178 3.9848673343658447 -0.045641690492630005 4456788 0 -1
-4.44672966003418 4.002523422241211 -0.275346577167511 4456788 0 -1
-4.542018413543701 3.9013500213623047 -0.1376732885837555 4456788 0 -1
-4.4481682777404785 4.003818511962891 -0.22945548593997955 4523353 0 -1
-4.516988277435303 3.9724719524383545 -0.27684304118156433 4456788 0 -1
-4.518449783325195 3.973757266998291 -0.23070253431797028 4456788 0 -1
-4.566702842712402 3.922553062438965 -0.13842152059078217 4456788 0 -1
-4.518449783325195 3.973757266998291 -0.23070253431797028 4523353 0 -1
-4.515260696411133 3.9709525108337402 -0.3229835331439972 4590430 0 -1
-4.314191818237305 4.155032157897949 -0.8814083933830261 4456788 0 -1
-4.309142589569092 4.1501688957214355 0.9277982711791992 4456788 0 -1
-4.668708801269531 3.82049560546875 0.5102890729904175 4456788 0 -1
-4.668708801269531 3.82049560546875 0.5102890729904175 4456788 0 -1
-4.277503490447998 4.21122932434082 -0.7886285185813904 4456788 0 -1
-3.985314130783081 4.548980236053467 -0.2783394753932953 4456788 0 -1
-4.542873859405518 3.995237112045288 -0.2319495677947998 4456788 0 -1
-4.590444087982178 3.9429450035095215 -0.18555966019630432 4456788 0 -1
-4.541404724121094 3.9939448833465576 -0.2783394753932953 4523353 0 -1
-4.352451324462891 4.191880226135254 -0.37111932039260864 4523353 0 -1
-4.345134735107422 4.184833526611328 -0.5102890729904175 4728182 0 -1
-4.360139846801758 4.19928503036499 -0.09277983009815216 4729209 0 -1
-4.345134735107422 4.184833526611328 0.5102890729904175 3432845 0 -1
-3.9611804485321045 4.429159641265869 1.159747838973999 3432845 0 -1
-4.507476329803467 3.964106798171997 0.7886285185813904 3302798 0 -1
-4.345134735107422 4.184833526611328 0.5102890729904175 3302798 0 -1
-4.397311687469482 4.141907691955566 -0.7462291717529297 4456788 0 -1
-4.367327690124512 4.113665580749512 1.0260651111602783 4456788 0 -1
-3.63786244392395 4.68883752822876 1.352540373802185 4456788 0 -1
-4.6572184562683105 3.905423641204834 0.32647526264190674 4456788 0 -1
-4.6626996994018555 3.910020112991333 -0.13991796970367432 4456788 0 -1
-4.426050662994385 4.1689772605896 -0.27983593940734863 4456788 0 -1
-4.6106462478637695 3.9602978229522705 -0.32647526264190674 4456788 0 -1
-4.428654193878174 4.171429634094238 -0.18655729293823242 4456788 0 -1
-4.6626996994018555 3.910020112991333 -0.13991796970367432 4523353 0 -1
-4.426050662994385 4.1689772605896 -0.27983593940734863 4523353 0 -1
-4.414968967437744 4.158539295196533 -0.5130325555801392 4728182 0 -1
-4.429564952850342 4.172287464141846 -0.13991796970367432 4729209 0 -1
-4.405168056488037 4.149307727813721 0.6529505252838135 3432845 0 -1
-4.405168056488037 4.149307727813721 0.6529505252838135 3302798 0 -1
-4.575629234313965 4.024044036865234 -0.5626647472381592 4456788 0 -1
-3.8907363414764404 4.721047401428223 0.1406661868095398 4456788 0 -1
-4.633254528045654 3.979717254638672 -0.37510985136032104 4456788 0 -1
-4.637075901031494 3.982999563217163 -0.2813323736190796 4456788 0 -1
-4.45233678817749 4.193736553192139 -0.18755492568016052 4456788 0 -1
-4.639803409576416 3.985342264175415 -0.18755492568016052 4523353 0 -1
