VERSION .7
FIELDS x y z rgb label object
SIZE 4 4 4 4 4 4
TYPE F F F I I I
COUNT 1 1 1 1 1 1
WIDTH 675
HEIGHT 1
POINTS 675
VIEWPOINT 0 0 0 1 0 0 0
DATA ascii
-0.5807927250862122 0.20598863065242767 0.05212630331516266 4456788 0 -1
0.3762405514717102 0.5252249836921692 -0.07981060445308685 4456788 0 -1
0.5175338983535767 0.39234068989753723 -0.04489346593618393 4456788 0 -1
0.5641604661941528 0.2908356189727783 -0.1446567177772522 4456788 0 -1
0.38793283700942993 0.5203920602798462 -0.04988162964582443 4456788 0 -1
0.5435660481452942 0.35791054368019104 0.014964488334953785 4456788 0 -1
0.5421112775802612 0.35695263743400574 0.04988162964582443 4456788 0 -1
0.5787508487701416 0.2605952322483063 0.1446567177772522 4456788 0 -1
-0.5531005859375 0.34201163053512573 -0.02992897666990757 4456788 0 -1
-0.5180221796035767 0.3927108347415924 0.034917138516902924 4456788 0 -1
0.4756901264190674 0.43807360529899597 -0.07482244074344635 4456788 0 -1
0.5563172698020935 0.32144394516944885 -0.10475142300128937 4456788 0 -1
0.5910767316818237 0.2661452293395996 -0.05985795333981514 4456788 0 -1
0.6233555674552917 0.18706108629703522 -0.014964488334953785 4456788 0 -1
0.4653501808643341 0.4481824040412903 -0.07981060445308685 4456788 0 -1
0.5236186981201172 0.3865067958831787 -0.014964488334953785 4456788 0 -1
-0.6104925274848938 0.2165221869945526 0.06484611332416534 4456788 0 -1
-0.5971544981002808 0.25530189275741577 0.04489346593618393 4523353 0 -1
0.41800814867019653 0.49703294038772583 0.04489346593618393 4523353 0 -1
0.48871079087257385 0.4297974109649658 -0.014964488334953785 4523353 0 -1
0.5329651236534119 0.37217867374420166 0.034917138516902924 4523353 0 -1
-0.6384661197662354 0.12698087096214294 -0.004988162778317928 4523353 0 -1
-0.6182416081428528 0.20289701223373413 0.019952651113271713 4657508 0 -1
0.4737616181373596 0.43629759550094604 -0.09477509558200836 4657508 0 -1
0.5182203650474548 0.39286112785339355 -0.02992897666990757 4657508 0 -1
-0.5809330940246582 0.27446651458740234 0.10475142300128937 4724328 0 -1
0.518753707408905 0.39326542615890503 0.004988162778317928 4724328 0 -1
0.5467454195022583 0.34906554222106934 0.05486978963017464 4724328 0 -1
-0.5573441982269287 0.3333766758441925 -0.04489346593618393 4725613 0 -1
0.5261766314506531 0.35695773363113403 -0.1396685540676117 4725613 0 -1
0.5910767316818237 0.2661452293395996 -0.05985795333981514 4725613 0 -1
-0.5137656927108765 0.39975982904434204 0.004988162778317928 4341894 0 -1
-0.6594494581222534 0.17795193195343018 0.026187855750322342 4456788 0 -1
-0.6374624371528625 0.24216914176940918 0.047138139605522156 4456788 0 -1
-0.6010850667953491 0.3098709285259247 0.09951385110616684 4456788 0 -1
0.6423272490501404 0.2278129607439041 -0.052375711500644684 4456788 0 -1
-0.6432938575744629 0.22815579175949097 0.0366629958152771 4456788 0 -1
-0.6023816466331482 0.3105393648147583 0.08903870731592178 4456788 0 -1
0.5757098197937012 0.36755767464637756 0.026187855750322342 4456788 0 -1
0.6049844622612 0.3118811547756195 0.06285085529088974 4456788 0 -1
-0.5808849930763245 0.3356393575668335 0.1309392750263214 4456788 0 -1
0.565242350101471 0.3834599256515503 0.026187855750322342 4456788 0 -1
0.6099797487258911 0.2881898581981659 0.1099889874458313 4456788 0 -1
-0.6487720608711243 0.21291662752628326 0.03142542764544487 4456788 0 -1
0.6542156934738159 0.19632181525230408 -0.026187855750322342 4456788 0 -1
0.6651715040206909 0.15739475190639496 0 4456788 0 -1
-0.6527715921401978 0.1958884447813034 0.052375711500644684 4456788 0 -1
0.6442212462425232 0.22848469018936157 0 4456788 0 -1
-0.6410171389579773 0.22734829783439636 0.06808841973543167 4456788 0 -1
-0.6186710596084595 0.2645009160041809 0.12046413123607635 4523353 0 -1
0.5080294609069824 0.45727986097335815 0.0052375709637999535 4523353 0 -1
0.5619089603424072 0.381198525428772 0.07856356352567673 4523353 0 -1
-0.631339430809021 0.17036646604537964 0.19902770221233368 4590430 0 -1
0.493329793214798 0.46467629075050354 0.08903870731592178 4590430 0 -1
0.5410675406455994 0.3778367340564728 0.17807741463184357 4590430 0 -1
0.5410675406455994 0.3778367340564728 0.17807741463184357 4590430 0 -1
0.5394064784049988 0.41971084475517273 -0.010475141927599907 4724328 0 -1
0.5789075493812561 0.35796940326690674 0.06285085529088974 4724328 0 -1
0.6023816466331482 0.3105393648147583 -0.08903870731592178 4725613 0 -1
-0.6493825316429138 0.21311697363853455 0.010475141927599907 4726897 0 -1
0.5547749400138855 0.39845356345176697 -0.026187855750322342 4726897 0 -1
0.6594494581222534 0.17795193195343018 -0.026187855750322342 4726897 0 -1
-0.6069392561912537 0.2999383211135864 0.09427627921104431 4341894 0 -1
-0.5339812636375427 0.4262057840824127 0.020950283855199814 4341894 0 -1
0.5042118430137634 0.4538436233997345 -0.08380113542079926 4341894 0 -1
0.5444514751434326 0.4127468168735504 -0.020950283855199814 4341894 0 -1
0.6426875591278076 0.22794073820114136 -0.047138139605522156 4341894 0 -1
-0.654677152633667 0.1964602917432785 0.0052375709637999535 3432845 0 -1
0.658362865447998 0.17765872180461884 -0.047138139605522156 3432845 0 -1
-0.6760569214820862 0.20287609100341797 0.12071353942155838 4456788 0 -1
-0.5301724076271057 0.4338504672050476 -0.20850521326065063 4456788 0 -1
-0.6744029521942139 0.23918917775154114 0.02743489481508732 4456788 0 -1
-0.6377220749855042 0.315150648355484 0.0823046863079071 4456788 0 -1
0.6031245589256287 0.3850604295730591 0.02743489481508732 4456788 0 -1
0.6337932348251343 0.3267326354980469 0.06584374606609344 4456788 0 -1
-0.5831279754638672 0.3839600384235382 0.15912239253520966 4456788 0 -1
0.6405652165412903 0.3026401996612549 0.10425260663032532 4456788 0 -1
-0.6739268898963928 0.23902034759521484 0.038408853113651276 4456788 0 -1
0.5473916530609131 0.45902854204177856 -0.04938281327486038 4456788 0 -1
0.5816197991371155 0.4177342355251312 0 4456788 0 -1
-0.65407395362854 0.2796367108821869 0.0823046863079071 4456788 0 -1
0.5364437699317932 0.4717762768268585 -0.04938281327486038 4456788 0 -1
-0.7021477222442627 0.13964614272117615 0.01646093651652336 4456788 0 -1
-0.6888992190361023 0.18589892983436584 0.06035676971077919 4456788 0 -1
-0.6888992190361023 0.18589892983436584 0.06035676971077919 4456788 0 -1
0.5757098197937012 0.42495763301849365 0.02743489481508732 4456788 0 -1
-0.6715417504310608 0.2381744086742401 0.071330726146698 4456788 0 -1
0.6057470440864563 0.3623289167881012 0.12071353942155838 4523353 0 -1
-0.6886149644851685 0.16294200718402863 0.10973957926034927 4523353 0 -1
0.5680274963378906 0.3966633081436157 0.18107031285762787 4590430 0 -1
-0.6727827191352844 0.15919572114944458 0.18655729293823242 4590430 0 -1
-0.6858522295951843 0.20581553876399994 -0.005486979149281979 4657508 0 -1
0.5594089031219482 0.4465012848377228 -0.021947916597127914 4724328 0 -1
0.6253503561019897 0.3484959900379181 0.01646093651652336 4600703 0 -1
-0.03441428020596504 0.7477591037750244 0.011472774669528008 4456788 0 -1
0.5420737266540527 0.4992077052593231 0.1319369077682495 4456788 0 -1
-0.6812105178833008 0.24160362780094147 -0.19503717124462128 4456788 0 -1
0.5670560598373413 0.4185698926448822 -0.25240105390548706 4456788 0 -1
-0.6842828392982483 0.2053445726633072 -0.22371910512447357 4456788 0 -1
-0.6375986337661743 0.3553217351436615 0.16635523736476898 4456788 0 -1
0.596146285533905 0.4519364535808563 0.028681935742497444 4456788 0 -1
0.6370012760162354 0.38102373480796814 0.09751858562231064 4456788 0 -1
-0.6249720454216003 0.39900875091552734 0.10325497388839722 4456788 0 -1
0.6695594787597656 0.3308841288089752 0.05162748694419861 4456788 0 -1
-0.6981731653213501 0.2652328610420227 0.05162748694419861 4456788 0 -1
-0.6153929233551025 0.3555782735347748 0.23519188165664673 4523353 0 -1
-0.5228117108345032 0.48146891593933105 0.23519188165664673 4523353 0 -1
0.7115564346313477 0.16837048530578613 0.1606188416481018 4523353 0 -1
0.5742756724357605 0.4583674371242523 0.14340968430042267 4590430 0 -1
0.5962260365486145 0.41635483503341675 0.17782799899578094 4590430 0 -1
-0.6431915760040283 0.34509435296058655 0.16635523736476898 4724328 0 -1
-0.16915664076805115 0.7161645889282227 0.1376732885837555 4725613 0 -1
0.6163181066513062 0.4058140516281128 0.12620052695274353 4725613 0 -1
-0.6480640769004822 0.27706730365753174 0.25240105390548706 4664956 0 -1
0.6115540862083435 0.3658024072647095 0.22945548593997955 4664956 0 -1
0.5839337110519409 0.4310280382633209 0.18356439471244812 4600703 0 -1
0.059406403452157974 0.7730156183242798 -0.09577272832393646 4523353 0 -1
0.5612404346466064 0.5286425352096558 0.12570171058177948 4523353 0 -1
0.5988909602165222 0.4659956097602844 0.18555966019630432 4523353 0 -1
0.6968989372253418 0.31379398703575134 0.1616164743900299 4523353 0 -1
-0.6706054210662842 0.3019547462463379 0.2633749842643738 4590430 0 -1
0.6001383662223816 0.47901013493537903 0.1436590850353241 4590430 0 -1
0.6254575848579407 0.4243098795413971 0.19753125309944153 4590430 0 -1
-0.08592654019594193 0.7963786721229553 -0.14340968430042267 4590430 0 -1
0.06793174147605896 0.8030925393104553 -0.11223366111516953 4590430 0 -1
0.11207210272550583 0.8048003315925598 -0.043646425008773804 4590430 0 -1
0.1434054672718048 0.800977349281311 -0.006235203705728054 4590430 0 -1
0.18626368045806885 1.609840750694275 -0.1496448814868927 4523353 0 -1
-0.11148987710475922 1.6128406524658203 -0.18705610930919647 4590430 0 -1
0.11103788018226624 1.6063019037246704 -0.2369377315044403 4590430 0 -1
0.03611932694911957 1.570859432220459 -0.423993855714798 4657508 0 -1
0.1360057145357132 1.6078665256500244 -0.211996927857399 4657508 0 -1
0.21177275478839874 1.6119022369384766 -0.07482244074344635 4657508 0 -1
0.5646384358406067 1.4626542329788208 -0.43646425008773804 4724328 0 -1
0.13899071514606476 1.6431553363800049 -0.19079722464084625 4523353 0 -1
-1.5321142673492432 0.5028154253959656 0.3943142592906952 4590430 0 -1
-0.2108306735754013 1.604731559753418 -0.3688746392726898 4590430 0 -1
0.11284004896879196 1.6323726177215576 -0.27983593940734863 4590430 0 -1
-0.23382268846035004 1.5889666080474854 -0.41975390911102295 4657508 0 -1
0.03632289171218872 1.5797126293182373 -0.5087926387786865 4657508 0 -1
0.5069820880889893 1.5745073556900024 -0.13991796970367432 4657508 0 -1
0.674149751663208 1.4832675457000732 -0.3179953694343567 4724328 0 -1
-1.1391453742980957 1.2475534677505493 0.10375379025936127 4456788 0 -1
-1.041556477546692 1.3158103227615356 0.22047679126262665 4456788 0 -1
-0.3818713128566742 1.6167422533035278 0.3242305815219879 4456788 0 -1
-0.06247063726186752 1.629373550415039 0.4539228081703186 4456788 0 -1
0.05039212107658386 1.6433582305908203 0.40204593539237976 4456788 0 -1
-0.1646737903356552 1.6449376344680786 -0.36313825845718384 4523353 0 -1
-0.26350298523902893 1.616230845451355 -0.427984356880188 4590430 0 -1
-0.17872720956802368 1.6564676761627197 -0.2982921302318573 4590430 0 -1
-0.10276219993829727 1.6732451915740967 -0.23344601690769196 4590430 0 -1
0.05106491595506668 1.6652990579605103 -0.2982921302318573 4590430 0 -1
0.1283104419708252 1.6696175336837769 -0.24641524255275726 4590430 0 -1
0.27196162939071655 1.6681132316589355 -0.09078456461429596 4590430 0 -1
-1.2312716245651245 1.0575963258743286 0.4798612594604492 4657508 0 -1
-1.4268367290496826 0.7655468583106995 0.4928304851055145 4725613 0 -1
-1.0619454383850098 1.3148523569107056 -0.09078456461429596 4725613 0 -1
-0.7570139765739441 1.402176856994629 -0.570645809173584 4725613 0 -1
-0.11193379014730453 1.619262456893921 0.4798612594604492 4725613 0 -1
-0.06203637644648552 1.6180471181869507 0.4928304851055145 4725613 0 -1
0.19592057168483734 1.5860071182250977 0.5576766133308411 4725613 0 -1
0.2991848886013031 1.5991581678390503 0.4668920338153839 4725613 0 -1
1.089358925819397 1.21805739402771 -0.4409535825252533 4725613 0 -1
-0.2566208839416504 1.6547603607177734 0.24641524255275726 4726897 0 -1
0.0506688617169857 1.6523830890655518 0.36313825845718384 4726897 0 -1
0.14651882648468018 1.5867269039154053 0.570645809173584 4726897 0 -1
0.3806571662425995 1.5566633939743042 0.5447073578834534 4726897 0 -1
1.0671459436416626 1.3754433393478394 -0.24242471158504486 4456788 0 -1
-0.7148706912994385 1.572861909866333 -0.3232329487800598 4456788 0 -1
0.21047064661979675 1.7037923336029053 -0.37710511684417725 4456788 0 -1
0.361828476190567 1.7110931873321533 -0.17508451640605927 4456788 0 -1
-1.48319411277771 0.7646151781082153 0.5521896481513977 4523353 0 -1
0.29705506563186646 1.6591721773147583 0.4983174800872803 4726897 0 -1
0.19635941088199615 1.6970962285995483 -0.5349804759025574 4456788 0 -1
0.03874295949935913 1.684963345527649 0.6035677194595337 4456788 0 -1
0.06731705367565155 1.7557790279388428 -0.3429361879825592 4590430 0 -1
-0.06457160413265228 1.6841713190078735 -0.6035677194595337 4657508 0 -1
0.013243753463029861 1.728351354598999 -0.46639323234558105 4657508 0 -1
0.0806548222899437 1.7524809837341309 -0.35665363073349 4657508 0 -1
0.23441286385059357 1.6833407878875732 -0.562415361404419 4657508 0 -1
0.3046063482761383 1.701349139213562 -0.46639323234558105 4657508 0 -1
0.4356469511985779 1.7224799394607544 -0.21947915852069855 4657508 0 -1
-0.07873848080635071 1.7108423709869385 -0.5212630033493042 4724328 0 -1
1.0947833061218262 1.4110651016235352 -0.12345702946186066 4724328 0 -1
-0.18541255593299866 1.718428373336792 0.46639323234558105 4725613 0 -1
-0.20891597867012024 1.6912070512771606 0.5486978888511658 4726897 0 -1
0.18326878547668457 1.6985597610473633 0.5349804759025574 4726897 0 -1
-1.0734254121780396 1.468935251235962 0.11173484474420547 4456788 0 -1
-0.06664319336414337 1.7382031679153442 -0.5447073578834534 4456788 0 -1
0.32739877700805664 1.7499630451202393 -0.39107197523117065 4456788 0 -1
-0.06593480706214905 1.719726800918579 -0.600574791431427 4657508 0 -1
0.3087741434574127 1.72462797164917 -0.5028068423271179 4657508 0 -1
-0.1314912587404251 1.7110073566436768 -0.6145416498184204 4724328 0 -1
1.3357009887695312 1.286424160003662 0.05686505511403084 4523353 0 -1
-1.9265450239181519 1.774198055267334 -0.3030308783054352 4456788 0 -1
-1.6569644212722778 2.010572671890259 -0.40404120087623596 4456788 0 -1
-1.5140420198440552 2.156074285507202 -0.10101030021905899 4456788 0 -1
-1.5064113140106201 2.145207643508911 -0.28282883763313293 4456788 0 -1
-1.5352879762649536 2.1009738445281982 -0.4242432415485382 4456788 0 -1
-1.3913207054138184 2.2336716651916504 -0.1616164743900299 4456788 0 -1
-0.28215551376342773 2.6150550842285156 0.18181852996349335 4456788 0 -1
-1.4077832698822021 2.1712327003479004 -0.5050514936447144 4456788 0 -1
-0.28215551376342773 2.6150550842285156 0.18181852996349335 4456788 0 -1
-1.4043195247650146 2.123035192489624 -0.6868700385093689 4523353 0 -1
-1.2991431951522827 2.2618746757507324 -0.38383913040161133 4523353 0 -1
-1.2816044092178345 2.186262845993042 -0.7272741198539734 4590430 0 -1
-1.518998146057129 2.1204938888549805 -0.38383913040161133 4657508 0 -1
-2.0386555194854736 1.6271858215332031 -0.38383913040161133 4728182 0 -1
-1.527720332145691 2.132669687271118 -0.2626267671585083 4728182 0 -1
-1.3329836130142212 2.273909330368042 -0.060606177896261215 4728182 0 -1
-0.9492458701133728 2.458951234817505 -0.060606177896261215 4728182 0 -1
-1.858404517173767 1.910422444343567 -0.14316026866436005 4456788 0 -1
-1.1819641590118408 2.38248348236084 0.2249661386013031 4456788 0 -1
-1.4876445531845093 2.2045814990997314 -0.2249661386013031 4456788 0 -1
-1.3293063640594482 2.314390182495117 0.020451467484235764 4456788 0 -1
-1.4876445531845093 2.2045814990997314 -0.2249661386013031 4456788 0 -1
-1.3497968912124634 2.302590847015381 0 4456788 0 -1
-1.5613455772399902 2.1366324424743652 -0.3476749360561371 4456788 0 -1
-1.5632370710372925 2.0970027446746826 -0.5317381620407104 4456788 0 -1
-1.5455995798110962 2.1150848865509033 -0.5112866759300232 4456788 0 -1
-1.5513885021209717 2.165710210800171 -0.1636117398738861 4726897 0 -1
-1.5613455772399902 2.1366324424743652 -0.3476749360561371 4728182 0 -1
-1.610508918762207 2.0757832527160645 -0.47038376331329346 4729209 0 -1
-1.4709486961364746 2.223764419555664 -0.12270880490541458 4729209 0 -1
-1.550611138343811 2.1646251678466797 -0.18406321108341217 4212104 0 -1
-1.5763713121414185 2.114621639251709 -0.40902936458587646 4147337 0 -1
-1.5479059219360352 2.1182408332824707 -0.4908352196216583 2523534 0 -1
-1.566782832145691 2.144073009490967 -0.49682101607322693 4456788 0 -1
-1.5909698009490967 2.1771719455718994 -0.1656070053577423 4456788 0 -1
-1.503648042678833 2.228297710418701 -0.26911139488220215 4456788 0 -1
-1.5787336826324463 2.1604273319244385 -0.3726157546043396 4456788 0 -1
-1.6634445190429688 2.059601068496704 -0.5382227897644043 4456788 0 -1
-1.5823009014129639 2.1225759983062744 -0.5382227897644043 4456788 0 -1
-1.566782832145691 2.144073009490967 -0.49682101607322693 4456788 0 -1
-1.5620150566101074 2.1375484466552734 -0.5382227897644043 4523353 0 -1
-1.5922819375991821 2.1789674758911133 -0.12420525401830673 4726897 0 -1
-1.5787336826324463 2.1604273319244385 -0.3726157546043396 4728182 0 -1
-1.6660360097885132 2.062809705734253 -0.5175219178199768 4729209 0 -1
-1.586039662361145 2.1704251766204834 -0.26911139488220215 4212104 0 -1
-1.5936274528503418 2.137769937515259 -0.43471840023994446 4147337 0 -1
-1.5742995738983154 2.111842393875122 -0.6003254055976868 3238030 0 -1
-1.589395523071289 2.1320929527282715 -0.47612014412879944 2523534 0 -1
-1.692307710647583 2.0534584522247314 -0.6285085082054138 4456788 0 -1
-1.5808345079421997 2.163302183151245 -0.5447073578834534 4456788 0 -1
-1.5921504497528076 2.1787877082824707 -0.4399559497833252 4456788 0 -1
-1.5959844589233398 2.1840341091156006 -0.39805540442466736 4456788 0 -1
-1.750157117843628 1.9976919889450073 -0.6494588255882263 4456788 0 -1
-1.58792245388031 2.173001766204834 -0.4818565249443054 4456788 0 -1
-1.58792245388031 2.173001766204834 -0.4818565249443054 4456788 0 -1
-1.5832971334457397 2.1666722297668457 -0.5237571001052856 4523353 0 -1
-1.6063380241394043 2.198202610015869 -0.25140342116355896 4726897 0 -1
-1.5977545976638794 2.1864564418792725 -0.37710511684417725 4728182 0 -1
-1.7467234134674072 1.9937726259231567 -0.670409083366394 4729209 0 -1
-1.6024811267852783 2.192924737930298 -0.3142542541027069 4212104 0 -1
-1.7272332906723022 2.0537681579589844 -0.5237571001052856 4147337 0 -1
-1.58792245388031 2.173001766204834 -0.4818565249443054 4147337 0 -1
-1.8231735229492188 2.081035614013672 0 4456788 0 -1
-1.9947229623794556 1.8788657188415527 -0.3815944492816925 4456788 0 -1
-1.821834921836853 2.07950758934021 -0.1059984639286995 4456788 0 -1
-1.8231199979782104 2.0809743404388428 0.02119969204068184 4456788 0 -1
-1.8424229621887207 2.060089349746704 -0.12719815969467163 4456788 0 -1
-1.8231735229492188 2.081035614013672 0 4456788 0 -1
-1.8212456703186035 2.0788350105285645 -0.12719815969467163 4456788 0 -1
-1.9070758819580078 2.002633571624756 -0.08479876816272736 4456788 0 -1
-1.8231199979782104 2.0809743404388428 0.02119969204068184 4456788 0 -1
-1.5836983919143677 2.2108142375946045 -0.5087926387786865 4456788 0 -1
-1.821834921836853 2.07950758934021 -0.1059984639286995 4523353 0 -1
-1.8441566228866577 2.062027931213379 -0.04239938408136368 4724328 0 -1
-1.839982271194458 2.0573604106903076 -0.19079722464084625 4725613 0 -1
-1.8223170042037964 2.0800578594207764 -0.08479876816272736 4471684 0 -1
-1.9271321296691895 1.9810737371444702 -0.12719815969467163 4341894 0 -1
-1.6831814050674438 2.1694509983062744 0.3391950726509094 4341894 0 -1
-2.048872470855713 1.8868521451950073 -0.27883830666542053 4456788 0 -1
-1.9504350423812866 2.0050289630889893 -0.10724549740552902 4456788 0 -1
-1.8432682752609253 2.1039724349975586 -0.10724549740552902 4456788 0 -1
-1.8658525943756104 2.086287021636963 -0.04289820045232773 4456788 0 -1
-1.8432682752609253 2.1039724349975586 -0.10724549740552902 4456788 0 -1
-1.9498041868209839 2.004380464553833 -0.1286945939064026 4456788 0 -1
-1.8432682752609253 2.1039724349975586 -0.10724549740552902 4456788 0 -1
-1.8339781761169434 2.0933682918548584 -0.3002873957157135 4456788 0 -1
-1.844406008720398 2.105271100997925 -0.04289820045232773 4456788 0 -1
-1.8437559604644775 2.1045291423797607 -0.08579640090465546 4523353 0 -1
-1.8658525943756104 2.086287021636963 -0.04289820045232773 4724328 0 -1
-1.8437559604644775 2.1045291423797607 -0.08579640090465546 4725613 0 -1
-1.844406008720398 2.105271100997925 -0.04289820045232773 4471684 0 -1
-1.971721887588501 2.026911497116089 -0.15188956260681152 4456788 0 -1
-1.8640985488891602 2.127748727798462 -0.13019104301929474 4456788 0 -1
-1.9508007764816284 2.0485494136810303 -0.13019104301929474 4456788 0 -1
-1.8616291284561157 2.1249301433563232 -0.1952865719795227 4456788 0 -1
-1.8658525943756104 2.129750967025757 -0.04339701682329178 4456788 0 -1
-1.8658525943756104 2.129750967025757 -0.04339701682329178 4523353 0 -1
-2.1077358722686768 2.4556522369384766 -0.34917140007019043 4456788 0 -1
-1.927696704864502 2.5348007678985596 0.6734020113945007 4456788 0 -1
-1.955268383026123 2.520143508911133 0.6484611630439758 4456788 0 -1
-2.0391340255737305 2.5247628688812256 -0.24940814077854156 4726897 0 -1
-2.0421011447906494 2.477900505065918 0.7053261995315552 4456788 0 -1
-2.059314250946045 2.448629379272461 0.7557066679000854 4456788 0 -1
-2.083829879760742 2.427800178527832 0.7557066679000854 4456788 0 -1
-2.013955593109131 2.4935879707336426 0.7305164337158203 4456788 0 -1
-2.0064785480499268 2.484330177307129 0.7808969020843506 4456788 0 -1
-1.9682903289794922 2.5369274616241455 0.7053261995315552 4456788 0 -1
-1.9501358270645142 2.5643067359924316 0.6549457907676697 4523353 0 -1
-1.9682903289794922 2.5369274616241455 0.7053261995315552 4590430 0 -1
-1.9566887617111206 2.471907615661621 0.9320382475852966 4726897 0 -1
-1.8816365003585815 2.626730442047119 0.763188898563385 4456788 0 -1
-2.0263447761535645 2.508927583694458 0.7886285185813904 4456788 0 -1
-2.0234265327453613 2.60799241065979 -0.35615482926368713 4456788 0 -1
-2.0199999809265137 2.451082468032837 0.9667059779167175 4456788 0 -1
-1.958433747291565 2.62713885307312 -0.5342322587966919 4456788 0 -1
-1.977230191230774 2.652353286743164 0.27983593940734863 4456788 0 -1
-1.8739757537841797 2.564453125 0.9667059779167175 4523353 0 -1
-1.9274985790252686 2.5856409072875977 0.7886285185813904 4657508 0 -1
-1.7533948421478271 2.5984044075012207 1.0939041376113892 4725613 0 -1
-1.989452600479126 2.513298511505127 0.8649474382400513 4726897 0 -1
-1.7919293642044067 2.6031200885772705 1.017585277557373 4726897 0 -1
-2.143944501876831 2.497837781906128 -0.43247371912002563 4728182 0 -1
-1.977230191230774 2.652353286743164 -0.27983593940734863 4728182 0 -1
-1.8356578350067139 2.775128126144409 -0.41102463006973267 4456788 0 -1
-1.8404115438461304 2.7823145389556885 -0.3339574933052063 4456788 0 -1
-1.8593217134475708 2.755380392074585 -0.43671366572380066 4456788 0 -1
-1.864478349685669 2.7630221843719482 -0.3596465289592743 4456788 0 -1
-1.8461323976516724 2.7909634113311768 -0.20551231503486633 4456788 0 -1
-1.865972876548767 2.7652368545532227 -0.3339574933052063 4456788 0 -1
-1.865972876548767 2.7652368545532227 -0.3339574933052063 4456788 0 -1
-1.8697865009307861 2.770888328552246 -0.2568903863430023 4456788 0 -1
-1.867355465888977 2.7672858238220215 -0.3082684576511383 4523353 0 -1
-1.993779182434082 2.6745529174804688 -0.3339574933052063 4600703 0 -1
-1.993779182434082 2.6745529174804688 -0.3339574933052063 4147337 0 -1
-1.7724915742874146 2.845615863800049 0.02568903937935829 4147337 0 -1
-1.921013593673706 2.7356226444244385 -0.2568903863430023 3887499 0 -1
-1.8840891122817993 2.792083740234375 -0.3371998071670532 4456788 0 -1
-1.8792226314544678 2.784872055053711 -0.41501516103744507 4456788 0 -1
-1.8825801610946655 2.7898476123809814 -0.36313825845718384 4456788 0 -1
-1.8792226314544678 2.784872055053711 -0.41501516103744507 4456788 0 -1
-1.8825801610946655 2.7898476123809814 -0.36313825845718384 4456788 0 -1
-1.8889987468719482 2.7993595600128174 -0.23344601690769196 4456788 0 -1
-1.8792226314544678 2.784872055053711 -0.41501516103744507 4456788 0 -1
-1.8840891122817993 2.792083740234375 -0.3371998071670532 4456788 0 -1
-1.8840891122817993 2.792083740234375 -0.3371998071670532 4456788 0 -1
-1.8825801610946655 2.7898476123809814 -0.36313825845718384 4456788 0 -1
-1.8773733377456665 2.7821316719055176 -0.4409535825252533 4456788 0 -1
-1.8879398107528687 2.797790288925171 -0.2593844532966614 4456788 0 -1
-1.8854851722717285 2.7941527366638184 -0.3112613558769226 4523353 0 -1
-1.880958080291748 2.7874438762664795 -0.38907670974731445 4726897 0 -1
-2.0183823108673096 2.70755672454834 -0.23344601690769196 3887499 0 -1
-1.885027289390564 2.849764108657837 -0.07856356352567673 4456788 0 -1
-1.7744373083114624 2.906724214553833 -0.28806641697883606 4456788 0 -1
-1.9006818532943726 2.8166730403900146 -0.366629958152771 4456788 0 -1
-1.9022053480148315 2.8189306259155273 -0.34044212102890015 4456788 0 -1
-1.899044156074524 2.81424617767334 -0.39281782507896423 4456788 0 -1
-1.9022053480148315 2.8189306259155273 -0.34044212102890015 4456788 0 -1
-1.9060930013656616 2.8246920108795166 -0.2618785500526428 4456788 0 -1
-1.899044156074524 2.81424617767334 -0.39281782507896423 4456788 0 -1
-1.9022053480148315 2.8189306259155273 -0.34044212102890015 4456788 0 -1
-1.9022053480148315 2.8189306259155273 -0.34044212102890015 4456788 0 -1
-1.9006818532943726 2.8166730403900146 -0.366629958152771 4456788 0 -1
-1.899044156074524 2.81424617767334 -0.39281782507896423 4456788 0 -1
-1.8934428691864014 2.80594539642334 -0.47138139605522156 4456788 0 -1
-1.9060930013656616 2.8246920108795166 -0.2618785500526428 4456788 0 -1
-1.90361487865448 2.821019411087036 -0.3142542541027069 4523353 0 -1
-1.90361487865448 2.821019411087036 -0.3142542541027069 4657508 0 -1
-1.899044156074524 2.81424617767334 -0.39281782507896423 4726897 0 -1
-1.8954250812530518 2.80888295173645 -0.4451935291290283 4728182 0 -1
-2.036647319793701 2.732058525085449 -0.2618785500526428 4600703 0 -1
-2.009289264678955 2.7496237754821777 -0.28806641697883606 4147337 0 -1
-2.037789821624756 2.733590841293335 -0.23569069802761078 3887499 0 -1
-1.9242463111877441 2.8515939712524414 -0.2643726170063019 4456788 0 -1
-1.921744465827942 2.847886323928833 -0.3172471523284912 4456788 0 -1
-1.9187835454940796 2.843498468399048 -0.37012168765068054 4456788 0 -1
-2.7760989665985107 1.8279197216033936 -0.9253042340278625 4456788 0 -1
-1.9187835454940796 2.843498468399048 -0.37012168765068054 4456788 0 -1
-2.8762423992156982 1.8938590288162231 0.21149811148643494 4456788 0 -1
-2.0796961784362793 2.734670400619507 -0.3172471523284912 4456788 0 -1
-1.9153615236282349 2.8384273052215576 -0.4229962229728699 4456788 0 -1
-1.9271420240402222 2.8558852672576904 -0.18506084382534027 4456788 0 -1
-2.8957793712615967 1.848788857460022 0.3172471523284912 4523353 0 -1
-1.925325632095337 2.8531932830810547 -0.2379353642463684 4523353 0 -1
-1.9271420240402222 2.8558852672576904 -0.18506084382534027 4590430 0 -1
-1.925325632095337 2.8531932830810547 -0.2379353642463684 4657508 0 -1
-1.9230526685714722 2.849824905395508 -0.29080989956855774 4725613 0 -1
-1.9171303510665894 2.8410484790802 -0.396558940410614 4726897 0 -1
-1.907123327255249 2.826218843460083 -0.5287452340126038 4728182 0 -1
-2.0855374336242676 2.7423512935638428 -0.18506084382534027 4600703 0 -1
-2.0775134563446045 2.572282552719116 1.0941535234451294 4456788 0 -1
-2.0070228576660156 2.7465219497680664 0.7472267746925354 4456788 0 -1
-1.9960887432098389 2.62473201751709 1.1208401918411255 4456788 0 -1
-2.9641637802124023 1.7127141952514648 -0.640480101108551 4456788 0 -1
-2.1042823791503906 2.7669997215270996 0.21349336206912994 4456788 0 -1
-2.1052122116088867 2.7682225704193115 0.18680669367313385 4523353 0 -1
-2.1455414295196533 2.6565115451812744 0.8350184559822083 4456788 0 -1
-2.076814889907837 2.623664140701294 1.0774431228637695 4456788 0 -1
-3.0146870613098145 1.741907000541687 -0.4848494231700897 4456788 0 -1
-2.916288375854492 1.5646886825561523 -1.1851874589920044 4523353 0 -1
-3.090034246444702 1.7220180034637451 -0.27185487747192383 4456788 0 -1
-2.261756420135498 2.6893434524536133 -0.48933878540992737 4456788 0 -1
-2.899094820022583 2.4901669025421143 0.3825920820236206 4456788 0 -1
-2.853174924850464 2.392599105834961 -0.9417651295661926 4456788 0 -1
-2.8694369792938232 2.406236171722412 -0.8534746766090393 4456788 0 -1
-2.8220081329345703 2.5988497734069824 0.5342322587966919 4456788 0 -1
-2.9975483417510986 2.4529526233673096 0.029679568484425545 4456788 0 -1
-2.9455676078796387 2.4700772762298584 -0.4748730957508087 4456788 0 -1
-2.982727527618408 2.440824270248413 0.38583439588546753 4456788 0 -1
-3.020108938217163 2.410548686981201 0.26711612939834595 4523353 0 -1
-2.986969470977783 2.444295644760132 0.32647526264190674 4590430 0 -1
-3.0258936882019043 2.415166139602661 0.11871827393770218 4657508 0 -1
-2.896144390106201 2.3116044998168945 1.1278235912322998 4724328 0 -1
-3.0122594833374023 2.4042835235595703 0.38583439588546753 3562893 0 -1
-2.991556406021118 2.387759208679199 0.5935913920402527 5949540 0 -1
-3.022826671600342 2.4736382961273193 0 4456788 0 -1
-3.0206074714660645 2.4718222618103027 0.1496448814868927 4456788 0 -1
-3.1421735286712646 2.3193812370300293 0.05985795333981514 4456788 0 -1
-3.022737979888916 2.4735655784606934 0.02992897666990757 4456788 0 -1
-3.002794027328491 2.457245111465454 -0.4489346444606781 4456788 0 -1
-2.8199727535247803 2.596975564956665 -0.7482244372367859 4456788 0 -1
-2.936310052871704 2.4028401374816895 -0.9277982711791992 4456788 0 -1
-3.0077922344207764 2.4613354206085205 0.38907670974731445 4456788 0 -1
-3.0418925285339355 2.427935838699341 0.3292187452316284 4523353 0 -1
-3.043780565261841 2.429442882537842 0.2992897629737854 4590430 0 -1
-3.051321506500244 2.4354615211486816 0.11971590667963028 4657508 0 -1
-2.898195266723633 2.313241481781006 1.2270880937576294 4724328 0 -1
-3.052665948867798 2.436534881591797 0.02992897666990757 4725613 0 -1
-3.049527645111084 2.4340298175811768 0.17957386374473572 4471684 0 -1
-3.0519490242004395 2.435962438583374 0.08978693187236786 3562893 0 -1
-3.171633243560791 2.2779481410980225 0.08978693187236786 11197490 0 -1
-3.0472114086151123 2.4935927391052246 0.09053515642881393 4456788 0 -1
-3.0089662075042725 2.5232417583465576 0.30178385972976685 4456788 0 -1
-3.0465848445892334 2.4930801391601562 0.12071353942155838 4456788 0 -1
-3.0436291694641113 2.490661382675171 0.21124869585037231 4456788 0 -1
-3.690521717071533 1.3089101314544678 0.42249739170074463 4456788 0 -1
-3.198063611984253 2.296931028366089 0.09053515642881393 4456788 0 -1
-2.9728007316589355 2.553476333618164 0.392318993806839 4456788 0 -1
-2.6822826862335205 2.75736141204834 0.8449947834014893 4456788 0 -1
-3.0278172492980957 2.47772216796875 0.45267578959465027 4456788 0 -1
-3.0328571796417236 2.481846570968628 0.392318993806839 4456788 0 -1
-3.067241668701172 2.4481685161590576 0.3319622278213501 4523353 0 -1
-3.0708670616149902 2.4510622024536133 0.2716054618358612 4590430 0 -1
-3.0759353637695312 2.4551074504852295 0.15089192986488342 4657508 0 -1
-3.0773818492889404 2.4562621116638184 0.09053515642881393 4724328 0 -1
-3.198063611984253 2.296931028366089 0.09053515642881393 4725613 0 -1
-3.0089662075042725 2.5232417583465576 0.30178385972976685 4725613 0 -1
-3.228234052658081 2.254331111907959 -0.09053515642881393 3562893 0 -1
-3.077833890914917 2.456622838973999 -0.06035676971077919 3562893 0 -1
-2.967092752456665 2.6094141006469727 0.3955613076686859 4456788 0 -1
-2.9621620178222656 2.6050777435302734 0.45641690492630005 4456788 0 -1
-2.818370819091797 2.654674530029297 -0.8824059963226318 4456788 0 -1
-2.273963689804077 3.2382421493530273 -0.33470574021339417 4456788 0 -1
-2.9866855144500732 2.5654025077819824 0.5172724723815918 4456788 0 -1
-3.0857253074645996 2.462921619415283 0.4259890913963318 4456788 0 -1
-3.0857253074645996 2.462921619415283 0.4259890913963318 4456788 0 -1
-3.090487003326416 2.466722249984741 0.36513352394104004 4456788 0 -1
-3.094510316848755 2.46993350982666 0.3042779266834259 4523353 0 -1
-2.594853401184082 2.8417956829071045 1.1043792963027954 4456788 0 -1
-1.902901291847229 3.3130483627319336 1.196410894393921 4456788 0 -1
-2.3180136680603027 3.2359049320220947 -0.42948082089424133 4456788 0 -1
-2.2602949142456055 3.1553306579589844 0.9816704392433167 4456788 0 -1
-2.2917048931121826 3.1991782188415527 0.7362528443336487 4456788 0 -1
-2.3326914310455322 3.256394863128662 -0.4948257505893707 4456788 0 -1
-2.3501462936401367 3.280761480331421 0.06185321882367134 4456788 0 -1
-2.291658878326416 3.1991140842437744 -0.8968716859817505 4728182 0 -1
-3.20776104927063 2.431792736053467 0.592344343662262 4456788 0 -1
-2.472555160522461 2.9399938583374023 1.3405687808990479 4456788 0 -1
-2.36930775642395 3.3075106143951416 -0.031176017597317696 4456788 0 -1
-1.567818522453308 4.0613179206848145 0.2673655152320862 12640037 4 -1
-1.567818522453308 4.0613179206848145 0.2673655152320862 13164576 4 -1
-1.6138383150100708 4.080296039581299 0.23569069802761078 10016830 4 -1
-1.5787272453308105 4.089576244354248 0.3030308783054352 11918891 4 -1
-1.5787272453308105 4.089576244354248 0.3030308783054352 13164576 4 -1
-1.661275029182434 4.100940704345703 0.1356780230998993 4045940 4 -1
-1.590421438217163 4.119869232177734 0.305275559425354 11197490 4 -1
-1.6223427057266235 4.101798057556152 0.37311458587646484 11918891 4 -1
-1.7826074361801147 4.0112199783325195 -0.7858850359916687 4456788 4 -1
-1.9393774271011353 3.9944818019866943 -0.41002699732780457 4729209 4 -1
-1.8019455671310425 4.054734706878662 -0.4441958963871002 4729209 4 -1
-1.8294004201889038 4.025055885314941 -0.58087158203125 4536450 4 -1
-1.7578530311584473 4.046439170837402 -0.6492093801498413 4017546 4 -1
-1.6738344430923462 4.131944179534912 0.10250674933195114 3302798 4 -1
-1.8548011779785156 3.991244077682495 -0.7175472378730774 3238030 4 -1
-1.5339406728744507 4.175841331481934 -0.3075202405452728 3238030 4 -1
-1.194190502166748 4.289742469787598 0.23918241262435913 3238030 0 -1
-1.7767314910888672 4.089896202087402 0.03416891396045685 2523534 4 -1
-1.809037685394287 4.070693492889404 0.20501349866390228 2458766 4 -1
-1.737491488456726 4.092623233795166 0.3416891396045685 2199437 4 -1
-1.776574969291687 4.089535713195801 -0.0683378279209137 2072968 4 -1
-1.706639289855957 4.114674091339111 0.20501349866390228 2994813 4 -1
-1.7043784856796265 4.109223365783691 0.3075202405452728 5424489 4 -1
-1.705986499786377 4.113100051879883 0.23918241262435913 5949540 4 -1
-1.6693545579910278 4.120885372161865 0.3416891396045685 7589974 4 -1
-1.5695075988769531 4.167088985443115 0.23918241262435913 10672695 4 -1
-1.6342717409133911 4.1319580078125 0.3758580684661865 11197490 4 -1
-1.6683189868927002 4.118329048156738 0.3758580684661865 11918891 4 -1
-1.8004002571105957 4.051257610321045 -0.7227848172187805 4456788 4 -1
-1.8728388547897339 4.03005838394165 -0.6539481282234192 4523353 4 -1
-1.846272349357605 4.0621771812438965 -0.5162748694419861 4726897 4 -1
-1.846272349357605 4.0621771812438965 -0.5162748694419861 4536450 4 -1
-1.8998429775238037 3.999223232269287 -0.7572031021118164 4017546 4 -1
-1.783384084701538 4.105209827423096 -0.3786015510559082 4017546 4 -1
-1.822242259979248 4.100406169891357 -0.20650994777679443 3562893 4 -1
-1.8233140707015991 4.102818012237549 -0.1376732885837555 3432845 4 -1
-1.7892799377441406 4.118781566619873 -0.10325497388839722 3302798 4 -1
-1.7548706531524658 4.133559226989746 -0.10325497388839722 3238030 4 -1
-1.7889119386672974 4.117934703826904 -0.1376732885837555 3107982 4 -1
-1.8241175413131714 4.104626178741455 -0.03441832214593887 2523534 4 -1
-1.7534784078598022 4.130280017852783 0.20650994777679443 2264205 4 -1
-1.7466042041778564 4.11408805847168 0.44743821024894714 2199437 4 -1
-1.8478645086288452 4.065680503845215 0.4818565249443054 2468738 4 -1
-1.7158567905426025 4.136897087097168 0.3441832363605499 2994813 4 -1
-1.7821708917617798 4.102417469024658 0.41301989555358887 3257723 4 -1
-1.6824828386306763 4.153293132781982 0.30976492166519165 3651704 4 -1
-1.716819167137146 4.139217853546143 0.30976492166519165 5949540 4 -1
-1.7136259078979492 4.131518840789795 0.41301989555358887 11197490 4 -1
-3.2870306968688965 2.8907840251922607 1.1440351009368896 4456788 0 -1
-1.8156859874725342 4.085653305053711 -0.693354606628418 4456788 4 -1
-1.8864102363586426 4.059261798858643 -0.6586868762969971 4523353 4 -1
-1.8596510887145996 4.091613292694092 -0.5200159549713135 4726897 4 -1
-1.9160945415496826 4.033433437347412 -0.7280223369598389 4728182 4 -1
-1.8612548112869263 4.095141887664795 -0.48534825444221497 4536450 4 -1
-1.8940891027450562 4.0757856369018555 -0.5200159549713135 4147337 4 -1
-1.8360408544540405 4.131455898284912 -0.1733386516571045 3562893 4 -1
-1.8369042873382568 4.133398532867432 -0.10400319844484329 3432845 4 -1
-1.8022457361221313 4.148627758026123 -0.10400319844484329 3302798 4 -1
-1.8026691675186157 4.14960241317749 -0.0346677303314209 3238030 4 -1
-1.8022457361221313 4.148627758026123 -0.10400319844484329 3107982 4 -1
-1.764729380607605 4.156781196594238 -0.2773418426513672 2977934 4 -1
-1.8371740579605103 4.134005546569824 -0.0693354606628418 2523534 4 -1
-1.8715628385543823 4.11782169342041 0.10400319844484329 2458766 4 -1
-1.7680023908615112 4.164490699768066 0.0346677303314209 2458766 4 -1
-1.6937246322631836 4.181044101715088 0.346677303314209 2994813 4 -1
-1.797422170639038 4.137524127960205 0.346677303314209 3651704 4 -1
-1.6926740407943726 4.178450584411621 0.38134506344795227 8180304 4 -1
-1.797422170639038 4.137524127960205 0.346677303314209 9360965 4 -1
-1.622480869293213 4.202916622161865 0.41601279377937317 9360965 4 -1
-1.7282904386520386 4.166874885559082 0.346677303314209 10016830 4 -1
-1.6581296920776367 4.192278861999512 0.38134506344795227 10672695 4 -1
-1.7282904386520386 4.166874885559082 0.346677303314209 11197490 4 -1
-1.8999814987182617 4.088465213775635 -0.6634256839752197 4523353 4 -1
-1.9345265626907349 4.072233200073242 -0.6634256839752197 4657508 4 -1
-1.8366479873657227 4.132822036743164 -0.5586742162704468 4726897 4 -1
-1.9322625398635864 4.067467212677002 -0.6983428001403809 4728182 4 -1
-1.94240140914917 4.088809967041016 -0.5237571001052856 4147337 4 -1
-1.8079994916915894 4.161872386932373 -0.41900569200515747 4147337 4 -1
-1.8479444980621338 4.158241271972656 -0.24441997706890106 3562893 4 -1
-1.8501193523406982 4.163135528564453 -0.10475142300128937 3432845 4 -1
-1.8154780864715576 4.1790876388549805 -0.06983427703380585 3302798 4 -1
-1.8156912326812744 4.1795783042907715 0 3238030 4 -1
-1.815211534500122 4.178473949432373 -0.10475142300128937 3107982 4 -1
-1.85055410861969 4.164113521575928 0.034917138516902924 2523534 4 -1
-1.7805650234222412 4.194081783294678 0.06983427703380585 2458766 4 -1
-1.813771367073059 4.175158977508545 0.20950284600257874 2328718 4 -1
-1.8156379461288452 4.179455757141113 -0.034917138516902924 2070155 4 -1
-1.7805650234222412 4.194081783294678 0.06983427703380585 2070922 4 -1
-1.8130775690078735 4.173562049865723 0.24441997706890106 3257723 4 -1
-1.7788912057876587 4.190139293670654 0.20950284600257874 4505456 4 -1
-1.779937505722046 4.192603588104248 0.1396685540676117 4899181 4 -1
-1.8440231084823608 4.149417400360107 -0.38408854603767395 5424489 4 -1
-1.6710952520370483 4.225059986114502 0.34917140007019043 5424489 4 -1
-1.7024303674697876 4.2025346755981445 0.4539228081703186 8180304 4 -1
-1.6633793115615845 4.205551624298096 0.5586742162704468 9360965 4 -1
-1.7396444082260132 4.194249153137207 0.38408854603767395 10016830 4 -1
-1.703691840171814 4.205648422241211 0.41900569200515747 10672695 4 -1
-1.7719172239303589 4.173712253570557 0.4539228081703186 11197490 4 -1
-1.9460643529891968 4.09652042388916 -0.703330934047699 4728182 4 -1
-1.921342134475708 4.134429931640625 -0.5274982452392578 4471684 4 -1
-1.9341601133346558 4.162012100219727 0 3432845 4 -1
-1.9693267345428467 4.145488262176514 0 3302798 4 -1
-1.7575013637542725 4.237301349639893 0.1406661868095398 3302798 4 -1
-1.7934939861297607 4.2245354652404785 0 3107982 4 -1
-1.8633345365524292 4.192872047424316 -0.10549964755773544 2588302 4 -1
-1.8989936113357544 4.17817497253418 0 2523534 4 -1
-1.7578628063201904 4.238173007965088 -0.10549964755773544 2523534 4 -1
-1.7921772003173828 4.221434116363525 0.17583273351192474 2458766 4 -1
-1.8252215385437012 4.201516628265381 0.2813323736190796 2328718 4 -1
-1.8273179531097412 4.2063422203063965 0.17583273351192474 2070155 4 -1
-1.7926512956619263 4.222550868988037 0.1406661868095398 2070922 4 -1
-1.7921772003173828 4.221434116363525 0.17583273351192474 2468738 4 -1
-1.7871118783950806 4.209502696990967 0.38683202862739563 2666112 4 -1
-1.8637722730636597 4.193857192993164 0.03516654670238495 2994813 4 -1
-1.7495821714401245 4.2182087898254395 0.4571651220321655 10016830 4 -1
-1.5360013246536255 4.289146423339844 0.7791510224342346 4456788 4 -1
-1.5560588836669922 4.345155239105225 -0.24791169166564941 4456788 4 -1
-1.6337789297103882 4.033064842224121 1.5583020448684692 4456788 0 -1
-1.86288583278656 4.1918625831604 -0.5666552782058716 4147337 4 -1
-1.9110575914382935 4.204718112945557 -0.17707978188991547 4017546 4 -1
-1.8407645225524902 4.237295150756836 0.1416638195514679 3107982 4 -1
-1.770589828491211 4.268857955932617 0.07083190977573395 2523534 4 -1
-1.9043599367141724 4.189981937408447 0.4249914586544037 2264205 4 -1
-1.767467737197876 4.2613301277160645 0.2833276391029358 2264205 4 -1
-1.8690940141677856 4.205832004547119 0.4249914586544037 2070155 4 -1
-1.8036136627197266 4.248372554779053 0.24791169166564941 2070922 4 -1
-1.8396823406219482 4.234804153442383 0.21249572932720184 2994813 4 -1
-1.8060016632080078 4.253997325897217 0.07083190977573395 3257723 4 -1
-1.7605794668197632 4.244722843170166 0.49582338333129883 6343264 4 -1
-1.877737283706665 4.225281238555908 -0.5349804759025574 4147337 4 -1
-2.032388687133789 4.186054229736328 0.106996089220047 4017546 4 -1
-1.8893762826919556 4.251471042633057 -0.142661452293396 4017546 4 -1
-1.9532850980758667 4.203166484832764 0.427984356880188 2264205 4 -1
-1.7807011604309082 4.293235778808594 0.2496575564146042 2264205 4 -1
-1.877737283706665 4.225281238555908 0.5349804759025574 2070155 4 -1
-1.8135859966278076 4.271862030029297 0.35665363073349 2994813 4 -1
-1.8170102834701538 4.279927730560303 0.213992178440094 3257723 4 -1
-1.7729778289794922 4.274615287780762 0.4993151128292084 6343264 4 -1
-1.7662252187728882 4.258334636688232 0.641976535320282 7589974 4 -1
-1.663626790046692 4.309502124786377 0.570645809173584 11197490 4 -1
-2.0471420288085938 4.216441631317139 0 3757452 4 -1
-2.0471420288085938 4.216441631317139 0 3757452 4 -1
-1.8832024335861206 4.237578868865967 -0.6823806762695312 2264205 4 -1
-1.749668836593628 4.319145202636719 0.5028068423271179 2264205 4 -1
-1.8872647285461426 4.246719837188721 0.610551118850708 2070155 4 -1
-1.8891236782073975 4.2509026527404785 0.5746363401412964 2006409 4 -1
-1.859656572341919 4.280783176422119 0.4309772551059723 2994813 4 -1
-1.9007428884506226 4.277048110961914 0.25140342116355896 4045940 4 -1
-1.7838380336761475 4.3007988929748535 0.5387215614318848 7589974 4 -1
-1.7465482950210571 4.311441898345947 0.5746363401412964 8180304 4 -1
-1.7124844789505005 4.329704761505127 0.5387215614318848 11197490 4 -1
-1.749668836593628 4.319145202636719 0.5028068423271179 11918891 4 -1
-1.7166061401367188 4.340125560760498 0.4309772551059723 12640037 4 -1
-2.0608136653900146 4.244600296020508 -0.10849253833293915 3757452 4 -1
-1.8800405263900757 4.327705383300781 -0.10849253833293915 3757452 4 -1
-1.9528083801269531 4.296578407287598 0.03616417944431305 3692940 4 -1
-2.0583908557891846 4.23961067199707 0.25314927101135254 2977934 4 -1
-1.9130970239639282 4.304847717285156 0.2893134355545044 2977934 4 -1
-1.986926794052124 4.275557994842529 0.2169850766658783 2782862 4 -1
-1.944592833518982 4.278502464294434 0.4339701533317566 2458766 4 -1
-1.8005489110946655 4.34108829498291 0.4339701533317566 2458766 4 -1
-1.936226725578308 4.260095596313477 0.6147910952568054 2006409 4 -1
-1.9039993286132812 4.2843756675720215 0.5424627065658569 2271109 4 -1
-1.9139424562454224 4.3067498207092285 0.25314927101135254 4045940 4 -1
-1.8378100395202637 4.328921318054199 0.39780598878860474 7589974 4 -1
-1.7227857112884521 4.355749607086182 0.5786268711090088 11197490 4 -1
-2.074599504470825 4.272994518280029 -0.1456543505191803 4536450 4 -1
-2.074599504470825 4.272994518280029 -0.1456543505191803 4536450 4 -1
-2.0430877208709717 4.208090782165527 -0.8375125527381897 4341894 4 -1
-2.0430877208709717 4.208090782165527 -0.8375125527381897 4341894 4 -1
-2.103041172027588 4.2390971183776855 0.4369630515575409 4212104 4 -1
-1.9998644590377808 4.3033976554870605 0.2548951208591461 4212104 4 -1
-2.0018064975738525 4.307576656341553 0.1456543505191803 2782862 4 -1
-1.9580038785934448 4.308009624481201 0.4369630515575409 2458766 4 -1
-1.9580038785934448 4.308009624481201 0.4369630515575409 2458766 4 -1
-1.9271420240402222 4.336451530456543 -0.2548951208591461 2328718 4 -1
-1.8879398107528687 4.345889091491699 0.36413589119911194 2072968 4 -1
-1.9290134906768799 4.340662956237793 0.1456543505191803 4045940 4 -1
-2.115877628326416 4.264971733093262 0.4766189455986023 4341894 4 -1
-2.115877628326416 4.264971733093262 0.4766189455986023 4341894 4 -1
-2.0143325328826904 4.334531307220459 0.2199779748916626 4212104 4 -1
-2.0126726627349854 4.330959320068359 0.2933039665222168 4147337 4 -1
-1.9091893434524536 4.108279228210449 -1.5398458242416382 2912910 0 -1
-2.084815740585327 4.294036865234375 0.3299669623374939 2328718 4 -1
-2.0164055824279785 4.338991641998291 -0.0366629958152771 2199437 4 -1
-1.8996917009353638 4.372941017150879 0.4032929539680481 2072968 4 -1
-1.8557075262069702 4.3710784912109375 0.5866079330444336 2139270 4 -1
-1.8136186599731445 4.3725996017456055 0.6965969204902649 2271109 4 -1
-1.859023094177246 4.378888130187988 0.5132819414138794 2666112 4 -1
-1.9426254034042358 4.3712921142578125 -0.1099889874458313 4045940 4 -1
-1.7773463726043701 4.387468338012695 0.6965969204902649 12640037 4 -1
-2.5649185180664062 3.8010237216949463 -1.4764962196350098 4456788 0 -1
-1.8442652225494385 4.4464874267578125 0.18456202745437622 4456788 4 -1
-2.086080312728882 4.2966413497924805 0.6275109052658081 4147337 4 -1
-2.0299439430236816 4.368124008178711 0.07382480800151825 3562893 4 -1
-2.0935425758361816 4.312011241912842 0.4798612594604492 2199437 4 -1
-1.9885244369506836 4.375161170959473 0.3322116434574127 2006409 4 -1
-1.855591893196106 4.3708062171936035 0.8120729327201843 2139270 4 -1
-1.85306715965271 4.364859104156494 0.8489853143692017 2271109 4 -1
-1.8683314323425293 4.400813579559326 0.590598464012146 2666112 4 -1
-1.913801908493042 4.405421733856201 0.36912405490875244 3651704 4 -1
-1.842963457107544 4.443349361419678 0.2583868205547333 6933851 4 -1
-1.8745577335357666 4.41547966003418 0.4429488480091095 11918891 4 -1
-4.012402057647705 2.5616884231567383 -0.7382481098175049 12640037 0 -1
-1.8333890438079834 4.420265197753906 0.5536860823631287 12640037 4 -1
-1.7105779647827148 4.324884414672852 1.3749871253967285 4456788 0 -1
-1.959780216217041 4.409893989562988 -0.48310357332229614 4725613 4 -1
-2.968665599822998 3.826310157775879 0.26013270020484924 2070155 0 -1
-2.0052645206451416 4.411993026733398 0.18580906093120575 2070155 4 -1
-2.0303544998168945 4.369007587432861 0.557427167892456 2070922 4 -1
-2.930262327194214 3.853111982345581 -0.2972944974899292 2006409 0 -1
-1.99675714969635 4.393274784088135 0.48310357332229614 2006409 4 -1
-1.8015278577804565 4.447161674499512 0.7060744762420654 2006409 4 -1
