VERSION .7
FIELDS x y z rgb label object
SIZE 4 4 4 4 4 4
TYPE F F F I I I
COUNT 1 1 1 1 1 1
WIDTH 687
HEIGHT 1
POINTS 687
VIEWPOINT 0 0 0 1 0 0 0
DATA ascii
-3.0272271633148193 2.4162302017211914 -0.029679568484425545 4456788 0 -1
-2.931565046310425 2.281043529510498 1.0981440544128418 4456788 0 -1
-2.8408620357513428 2.616212844848633 0.29679569602012634 4456788 0 -1
-2.8595921993255615 2.4562363624572754 0.8903870582580566 4456788 0 -1
-2.982727527618408 2.440824270248413 0.38583439588546753 4456788 0 -1
-2.903127908706665 2.5531599521636963 0.23743654787540436 4523353 0 -1
-2.9340476989746094 2.5201895236968994 0.20775698125362396 4590430 0 -1
-2.960026979446411 2.2439863681793213 1.0981440544128418 4729209 0 -1
-2.966916561126709 2.249209403991699 1.0684645175933838 4664956 0 -1
-2.982727527618408 2.440824270248413 0.38583439588546753 2782862 0 -1
-2.960891008377075 2.482927083969116 0.26711612939834595 2070922 0 -1
-2.6547787189483643 2.7290875911712646 0.7123096585273743 2070922 0 -1
-2.9919991493225098 2.448411464691162 0.23743654787540436 2006409 0 -1
-3.5564215183258057 1.520479440689087 0.20775698125362396 2994813 0 -1
-2.9109137058258057 2.560007333755493 0.4788636267185211 4456788 0 -1
-2.9504168033599854 2.534249782562256 0.35914772748947144 4456788 0 -1
-3.112248182296753 2.359384775161743 0.05985795333981514 4456788 0 -1
-3.315868854522705 2.0503787994384766 -0.23943181335926056 4456788 0 -1
-3.082594156265259 2.3985588550567627 -0.02992897666990757 4456788 0 -1
-2.9542577266693115 2.537548780441284 0.2992897629737854 4456788 0 -1
-3.0648961067199707 2.3847880363464355 0.41900569200515747 4456788 0 -1
-3.10813307762146 2.356265068054199 0.20950284600257874 4456788 0 -1
-2.9205660820007324 2.5086095333099365 0.6584374904632568 4456788 0 -1
-3.0053834915161133 2.459364175796509 0.41900569200515747 4456788 0 -1
-2.9542577266693115 2.537548780441284 0.2992897629737854 4523353 0 -1
-2.97774600982666 2.2574191093444824 1.1373010873794556 4728182 0 -1
-3.8009800910949707 0.8993985652923584 0 2070922 0 -1
-2.9885895252227783 2.5061542987823486 0.20950284600257874 2070922 0 -1
-2.684560775756836 2.7597031593322754 0.6584374904632568 2070922 0 -1
-3.0196304321289062 2.471022605895996 0.17957386374473572 2006409 0 -1
-3.6187474727630615 1.4624091386795044 0.1496448814868927 2994813 0 -1
-3.198908805847168 2.2975382804870605 0 4456788 0 -1
-3.3719325065612793 2.0169289112091064 -0.2716054618358612 4456788 0 -1
3.7350823879241943 1.2257944345474243 -0.24142707884311676 4456788 0 -1
-3.703104257583618 1.3133728504180908 0.2716054618358612 4456788 0 -1
-3.1293249130249023 2.3723304271698 0.30178385972976685 4456788 0 -1
-3.131080150604248 2.3736612796783447 0.2716054618358612 4456788 0 -1
-3.444333791732788 1.8480032682418823 0.4828541576862335 4456788 0 -1
-3.060084342956543 2.3198394775390625 0.8751731514930725 4456788 0 -1
-3.1229422092437744 2.3674919605255127 0.392318993806839 4456788 0 -1
-2.9651222229003906 2.5468809604644775 0.4828541576862335 4456788 0 -1
-3.030428409576416 2.479858875274658 0.42249739170074463 4456788 0 -1
-3.0849251747131348 2.4003727436065674 0.4828541576862335 4523353 0 -1
-2.9728007316589355 2.553476333618164 0.392318993806839 4523353 0 -1
-3.1273837089538574 2.370858907699585 0.3319622278213501 4590430 0 -1
-2.946957588195801 2.5917062759399414 0.3319622278213501 4590430 0 -1
-3.4252898693084717 1.8377854824066162 0.6337460875511169 4729209 0 -1
-2.3451716899871826 3.0226895809173584 0.9355299472808838 4341894 0 -1
-3.1384599208831787 2.379255771636963 0.030178384855389595 4212104 0 -1
-2.9230895042419434 2.6310875415802 0.21124869585037231 4212104 0 -1
-3.802030086517334 1.025974988937378 0.06035676971077919 2070922 0 -1
-3.573366403579712 1.6089863777160645 0.392318993806839 2070922 0 -1
-3.137077569961548 2.3782079219818115 0.12071353942155838 2070922 0 -1
-2.914902448654175 2.62371826171875 0.36214062571525574 2070922 0 -1
-3.0134942531585693 2.527038812637329 0.21124869585037231 2006409 0 -1
-3.3875579833984375 1.957354187965393 0.45267578959465027 2994813 0 -1
-3.74250864982605 1.3273483514785767 0.03042779304087162 4456788 0 -1
-3.134247064590454 2.3760619163513184 0.5477002859115601 4456788 0 -1
-3.0802221298217773 2.458528995513916 0.4868446886539459 4456788 0 -1
-3.13752818107605 2.378549337387085 0.5172724723815918 4523353 0 -1
-2.773059368133545 2.7300946712493896 0.7911226153373718 4523353 0 -1
-3.105886697769165 2.3545620441436768 -0.7606948614120483 4590430 0 -1
-2.9200494289398193 2.6283512115478516 0.5781280994415283 4590430 0 -1
-3.8328888416290283 1.0343022346496582 0.09128338098526001 4729209 0 -1
-2.2510128021240234 3.2055587768554688 0.8282844424247742 4456788 0 -1
-2.2410097122192383 3.128408908843994 1.1043792963027954 4456788 0 -1
-3.1895859241485596 2.4180142879486084 0.09203160554170609 4523353 0 -1
-2.6609601974487305 2.914193630218506 0.6748984456062317 4664956 0 -1
-2.3326914310455322 3.256394863128662 -0.4948257505893707 4456788 0 -1
-2.3807196617126465 3.2579097747802734 -0.09277983009815216 4456788 0 -1
-2.3435122966766357 3.2715003490448 -0.3092660903930664 4456788 0 -1
-2.3498013019561768 3.2802798748016357 0.09277983009815216 4456788 0 -1
-3.105562925338745 2.5413429737091064 -0.4329725205898285 4523353 0 -1
-2.3986012935638428 3.091554880142212 0.9896515011787415 4590430 0 -1
-2.248579978942871 3.13897705078125 1.1752111911773682 4729209 0 -1
-2.344132900238037 3.272367238998413 -0.592344343662262 4456788 0 -1
-2.331327199935913 3.3199303150177 -0.31176018714904785 4456788 0 -1
-2.368751287460327 3.3067338466644287 0.09352805465459824 4456788 0 -1
-3.137573003768921 2.567537307739258 -0.3429361879825592 4523353 0 -1
-3.3621256351470947 2.347830057144165 -0.06285085529088974 4456788 0 -1
-3.456695318222046 2.2069015502929688 -0.03142542764544487 4523353 0 -1
-3.1780824661254883 2.536638021469116 -0.5342322587966919 4523353 0 -1
-3.3512182235717773 2.406930685043335 -0.25339868664741516 4456788 0 -1
-3.3499958515167236 4.0649094581604 -0.24242471158504486 4456788 0 -1
-4.521938800811768 2.704807758331299 0.20202060043811798 4456788 0 -1
-4.593713760375977 2.6542794704437256 0.0406535267829895 4456788 0 -1
-4.295591354370117 2.914125442504883 1.0976452827453613 4728182 0 -1
-3.8795859813690186 3.2533211708068848 1.5854876041412354 4728182 0 -1
5.003062725067139 1.3500727415084839 1.138298749923706 4728182 0 -1
-3.0277445316314697 4.311664581298828 0.8589616417884827 4456788 0 -1
-3.2475500106811523 4.185764312744141 0.6544469594955444 4456788 0 -1
-3.206955671310425 4.216946601867676 0.6544469594955444 4456788 0 -1
-3.392451047897339 4.116424560546875 -0.20451468229293823 4456788 0 -1
-3.429385185241699 4.077713489532471 -0.3272234797477722 4456788 0 -1
-4.6220316886901855 2.6706416606903076 0 4456788 0 -1
-3.3948440551757812 4.119328022003174 -0.04090293496847153 4523353 0 -1
-3.579833507537842 4.00275993347168 -0.0823046863079071 4456788 0 -1
-3.579833507537842 4.00275993347168 -0.0823046863079071 4456788 0 -1
-3.3720147609710693 4.175074577331543 -0.20576171576976776 4456788 0 -1
-3.4107277393341064 4.138601779937744 -0.28806641697883606 4456788 0 -1
-4.648985862731934 2.686216115951538 0.12345702946186066 4456788 0 -1
-3.3709239959716797 4.173724174499512 0.2469140589237213 4456788 0 -1
-3.374095916748047 4.177651405334473 -0.0823046863079071 4523353 0 -1
-3.5764682292938232 3.998997211456299 -0.2469140589237213 4724328 0 -1
-3.5538547039031982 4.056497097015381 -0.3312140107154846 4456788 0 -1
-4.057371616363525 3.5682613849639893 0 4456788 0 -1
-4.676199913024902 2.7019405364990234 0.1656070053577423 4456788 0 -1
-3.8917646408081055 3.7481892108917236 0 4456788 0 -1
-3.5184922218322754 4.016132831573486 0.8280350565910339 4456788 0 -1
-3.8913075923919678 3.747749090194702 0.08280350267887115 4523353 0 -1
-4.081693649291992 3.589651584625244 -0.0416511595249176 4456788 0 -1
-3.5366051197052 4.12037992477417 -0.24990695714950562 4456788 0 -1
-4.5266289710998535 2.9805545806884766 0.416511595249176 4456788 0 -1
-3.9150941371917725 3.770658016204834 0.0416511595249176 4523353 0 -1
-4.063877582550049 3.657916784286499 -0.08380113542079926 4456788 0 -1
-4.543102741241455 2.900510311126709 0.9218124747276306 4456788 0 -1
-4.553356170654297 2.8155832290649414 -1.264499306678772 4456788 0 -1
-4.213883876800537 3.5336546897888184 0.12644992768764496 4456788 0 -1
-4.0346808433532715 3.465574264526367 1.52637779712677 4456788 0 -1
4.577559947967529 2.92250919342041 -1.059984564781189 4456788 0 -1
-4.706193447113037 2.910090446472168 0.04239938408136368 4456788 0 -1
-4.338194847106934 3.3755388259887695 -0.6359907388687134 4456788 0 -1
-3.6001367568969727 4.194398403167725 0.25439631938934326 4456788 0 -1
-2.0074996948242188 5.3299713134765625 -0.08729285001754761 4456788 4 -1
-1.964031457901001 5.346675872802734 0.043646425008773804 4456788 4 -1
-2.007205009460449 5.329188346862793 -0.1309392750263214 4456788 4 -1
-2.507298707962036 5.053958415985107 -0.7856356501579285 3651704 0 -1
-2.0621349811553955 5.341807842254639 0.17558333277702332 4456788 4 -1
-2.017073154449463 5.35538911819458 -0.2633749842643738 4456788 4 -1
-2.0163016319274902 5.3533406257629395 -0.3072708249092102 4456788 4 -1
-2.062861919403076 5.343691349029541 -0.08779166638851166 4456788 4 -1
-2.0189712047576904 5.3604278564453125 -0.08779166638851166 4456788 4 -1
-2.556105613708496 5.043285369873047 -0.9218124747276306 2994813 0 -1
-2.531266927719116 5.10227108001709 -0.6145416498184204 8180304 0 -1
-1.9850773811340332 5.4039692878723145 -0.22072620689868927 4456788 4 -1
-2.028533935546875 5.385817050933838 -0.2648714482784271 4456788 4 -1
-2.118971586227417 5.357433319091797 0 4456788 4 -1
-1.9533495903015137 5.060007572174072 -1.9423905611038208 4456788 0 -1
-2.153855323791504 5.07335901260376 -1.6775192022323608 4456788 0 -1
-2.2497544288635254 5.2992472648620605 0.22072620689868927 4456788 4 -1
-2.2497544288635254 5.2992472648620605 -0.22072620689868927 4456788 4 -1
-2.2027134895324707 4.956542015075684 -1.9423905611038208 11918891 0 -1
-2.222069025039673 5.234035015106201 -0.9270500540733337 12640037 0 -1
-2.0420939922332764 5.421819686889648 -0.04439464956521988 4456788 4 -1
-2.263063430786133 5.330595970153809 0.17757859826087952 4456788 4 -1
-2.1747629642486572 5.368511199951172 0.13318394124507904 4456788 4 -1
-2.174315929412842 5.367407321929932 0.17757859826087952 4456788 4 -1
-2.2194716930389404 5.35110330581665 -0.08878929913043976 4456788 4 -1
-2.2640607357025146 5.332945346832275 -0.04439464956521988 4456788 4 -1
-2.1796162128448486 5.017305374145508 -1.9089698791503906 4456788 0 -1
-2.263528823852539 5.331692695617676 0.13318394124507904 4456788 4 -1
-2.2034952640533447 5.190284729003906 -1.3318394422531128 11918891 0 -1
-2.2322027683258057 5.381797790527344 0 4456788 4 -1
-2.007507562637329 5.465030670166016 -0.22322028875350952 4456788 4 -1
-2.321218252182007 5.343262195587158 0.08928811550140381 4456788 4 -1
-2.142348527908325 5.416537761688232 -0.1339321732521057 4456788 4 -1
-2.186980724334717 5.398671627044678 0.1339321732521057 4456788 4 -1
-2.231154203414917 5.379269123077393 0.17857623100280762 4456788 4 -1
-2.1865310668945312 5.397561550140381 0.17857623100280762 4456788 4 -1
-2.2316129207611084 5.380375862121582 0.1339321732521057 4456788 4 -1
-2.14266300201416 5.417333126068115 -0.08928811550140381 4456788 4 -1
-2.321218252182007 5.343262195587158 0.08928811550140381 4456788 4 -1
-2.232137441635132 5.3816399574279785 -0.044644057750701904 4456788 4 -1
-2.3661351203918457 5.324273109436035 0 4456788 4 -1
-2.321491003036499 5.3438897132873535 0 4456788 4 -1
-2.2768468856811523 5.363062858581543 0 4456788 4 -1
-2.2768468856811523 5.363062858581543 0 4456788 4 -1
-2.273569345474243 5.355342864990234 -0.31250840425491333 4456788 4 -1
-2.2751753330230713 5.35912561416626 -0.22322028875350952 4456788 4 -1
-2.2892978191375732 5.392390727996826 0.08978693187236786 4456788 4 -1
-2.1097450256347656 5.4651384353637695 -0.08978693187236786 4456788 4 -1
-2.1991984844207764 5.428831577301025 -0.1346803903579712 4456788 4 -1
-2.2444095611572266 5.411228179931641 -0.08978693187236786 4456788 4 -1
-2.198164701461792 5.4262800216674805 0.22446732223033905 4456788 4 -1
-2.0199687480926514 5.498953819274902 0.08978693187236786 4456788 4 -1
-2.242299795150757 5.40614128112793 0.2693607807159424 4456788 4 -1
-2.242299795150757 5.40614128112793 0.2693607807159424 4456788 4 -1
-2.2436187267303467 5.409321308135986 0.17957386374473572 4456788 4 -1
-2.1526076793670654 5.442476749420166 0.2693607807159424 4456788 4 -1
-2.287885904312134 5.389064788818359 0.22446732223033905 4456788 4 -1
-2.287885904312134 5.389064788818359 0.22446732223033905 4456788 4 -1
-2.244607448577881 5.411705017089844 -0.04489346593618393 4456788 4 -1
-2.3343915939331055 5.373586177825928 -0.04489346593618393 4456788 4 -1
-2.2892978191375732 5.392390727996826 -0.08978693187236786 4456788 4 -1
-2.289499521255493 5.392866134643555 -0.04489346593618393 4456788 4 -1
-2.333843231201172 5.372323989868164 -0.1346803903579712 4456788 4 -1
-2.2862708568573 5.385261058807373 -0.3142542541027069 4456788 4 -1
-2.3333635330200195 5.371219158172607 -0.17957386374473572 4456788 4 -1
-2.385538339614868 5.367933750152588 0.45142874121665955 4456788 4 -1
-2.344050407409668 5.395819187164307 0.3160001039505005 4456788 4 -1
-2.075596570968628 5.510770320892334 -0.18057149648666382 4456788 4 -1
-2.2109615802764893 5.457869529724121 -0.18057149648666382 4456788 4 -1
-2.165266990661621 5.474483013153076 -0.22571437060832977 4456788 4 -1
-2.297956943511963 5.412786960601807 0.36114299297332764 4456788 4 -1
-2.245917558670044 5.414863586425781 0.5868573784828186 4456788 4 -1
-2.2968053817749023 5.4100751876831055 0.4062858521938324 4456788 4 -1
-2.252898931503296 5.431695461273193 0.36114299297332764 4456788 4 -1
-2.2547569274902344 5.436175346374512 0.2708572447299957 4456788 4 -1
-2.211416244506836 5.458992004394531 0.13542862236499786 4456788 4 -1
-2.256878614425659 5.441290378570557 -0.09028574824333191 4456788 4 -1
-2.256878614425659 5.441290378570557 0.09028574824333191 4456788 4 -1
-2.2401633262634277 5.156680107116699 -1.760572075843811 4456788 0 -1
-2.1333746910095215 5.526349067687988 0.04539228230714798 4456788 4 -1
-2.4057202339172363 5.4133477210998535 0.04539228230714798 4456788 4 -1
-2.1283581256866455 5.513354301452637 -0.4085305333137512 4456788 4 -1
-2.309494972229004 5.439964771270752 0.4085305333137512 4456788 4 -1
-2.2642107009887695 5.458968162536621 0.4085305333137512 4456788 4 -1
-2.204655408859253 5.315381050109863 1.407160758972168 4456788 0 -1
-2.121126174926758 5.4946208000183105 0.6354919672012329 4456788 4 -1
-2.2642107009887695 5.458968162536621 0.4085305333137512 4456788 4 -1
-2.0819060802459717 5.527522563934326 0.4539228081703186 4456788 4 -1
-2.265345811843872 5.461705207824707 0.36313825845718384 4456788 4 -1
-2.0791993141174316 5.520335674285889 0.5447073578834534 4456788 4 -1
-2.31473445892334 5.452306270599365 0.09078456461429596 4456788 4 -1
-2.2236340045928955 5.489151954650879 0.13617683947086334 4456788 4 -1
-2.1778059005737305 5.506185531616211 -0.18156912922859192 4456788 4 -1
-2.268547773361206 5.469424724578857 -0.18156912922859192 4456788 4 -1
-2.2285964488983154 5.130053520202637 -1.9518681764602661 4456788 0 -1
-2.256517171859741 5.4404191970825195 -0.6354919672012329 4456788 4 -1
-2.348659038543701 5.406428337097168 -0.5900996923446655 4456788 4 -1
-2.335249900817871 5.375561714172363 -0.8624533414840698 4523353 4 -1
-2.1602652072906494 5.461837291717529 -0.7716687917709351 4523353 4 -1
-2.3323495388031006 5.248249053955078 -1.4525530338287354 4590430 0 -1
-2.2131593227386475 5.463294982910156 -0.5900996923446655 4657508 4 -1
-2.417233467102051 5.4392547607421875 0.22820845246315002 4456788 4 -1
-2.190736770629883 5.538878917694092 -0.045641690492630005 4456788 4 -1
-2.228484630584717 5.501125812530518 0.5020585656166077 4456788 4 -1
-2.0342469215393066 5.53782320022583 0.8215504288673401 4456788 4 -1
-2.3252649307250977 5.477110385894775 0.27385014295578003 4456788 4 -1
-2.2348008155822754 5.516717910766602 -0.22820845246315002 4456788 4 -1
-2.207923173904419 5.323260307312012 1.5061757564544678 4456788 0 -1
-2.1468846797943115 5.428006649017334 1.1866838932037354 4456788 0 -1
-2.2777929306030273 5.4917144775390625 0.36513352394104004 4456788 4 -1
-2.0933451652526855 5.5578932762146 0.45641690492630005 4456788 4 -1
-2.140052556991577 5.543647766113281 0.41077521443367004 4456788 4 -1
-2.095569372177124 5.563798427581787 0.36513352394104004 4456788 4 -1
-2.3243753910064697 5.475015163421631 0.31949183344841003 4456788 4 -1
-2.1449074745178223 5.556224346160889 0.09128338098526001 4456788 4 -1
-2.4187254905700684 5.4426116943359375 -0.09128338098526001 4456788 4 -1
-2.236180067062378 5.520122528076172 0.09128338098526001 4456788 4 -1
-2.4587836265563965 5.409827709197998 -0.41077521443367004 4456788 4 -1
-2.278799533843994 5.494141101837158 -0.31949183344841003 4456788 4 -1
-3.6055877208709717 4.741122722625732 0.045641690492630005 4456788 0 -1
-3.5583791732788086 4.773384094238281 -0.18256676197052002 4523353 0 -1
-2.3843913078308105 5.365353107452393 -1.0041171312332153 4523353 4 -1
-2.2322371006011963 5.5103888511657715 -0.36513352394104004 4523353 4 -1
-3.529719114303589 4.734938144683838 -0.7759087085723877 4590430 0 -1
-2.2470128536224365 5.546864032745361 0.22945548593997955 4456788 4 -1
-2.202772617340088 5.569309234619141 0 4456788 4 -1
-2.2025139331817627 5.568655490875244 -0.09178219735622406 4456788 4 -1
-2.1558682918548584 5.5846171379089355 -0.18356439471244812 4456788 4 -1
-2.3838138580322266 5.487351894378662 0.275346577167511 4456788 4 -1
-2.5203771591186523 5.423460006713867 0.3212376832962036 4456788 4 -1
-2.3335652351379395 5.49666166305542 -0.4589109718799591 4456788 4 -1
-2.247607469558716 5.548331260681152 0.18356439471244812 4456788 4 -1
-2.1537768840789795 5.579199314117432 0.3212376832962036 4456788 4 -1
-2.245426893234253 5.5429487228393555 0.3212376832962036 4456788 4 -1
-2.0563509464263916 5.597997188568115 0.550693154335022 4456788 4 -1
-2.1517467498779297 5.573940753936768 0.41301989555358887 4456788 4 -1
-1.9696062803268433 5.64404821395874 0.36712878942489624 4456788 4 -1
-2.1461541652679443 5.55945348739624 0.5965842604637146 4456788 4 -1
-2.475498914718628 5.4466047286987305 -0.275346577167511 4456788 4 -1
-3.5778238773345947 4.799468040466309 -0.18356439471244812 4456788 0 -1
-3.5689821243286133 4.787607192993164 -0.4589109718799591 4456788 0 -1
-3.5768775939941406 4.798198699951172 -0.22945548593997955 4456788 0 -1
-3.801798105239868 4.613129138946533 0.36712878942489624 4523353 0 -1
-3.579505681991577 4.801723957061768 0 4523353 0 -1
-3.57098388671875 4.790292739868164 -0.41301989555358887 4590430 0 -1
-3.4961514472961426 4.689908504486084 -1.2849507331848145 4724328 0 -1
-3.558850049972534 4.7740159034729 0.6424753665924072 4725613 0 -1
-2.3967692852020264 5.517174243927002 0.27684304118156433 4456788 4 -1
-2.21467924118042 5.59941291809082 0.046140506863594055 4456788 4 -1
-2.3026866912841797 5.551733016967773 0.36912405490875244 4456788 4 -1
-2.303704261779785 5.5541863441467285 0.3229835331439972 4456788 4 -1
-2.3922524452209473 5.506776809692383 0.46140506863594055 4456788 4 -1
-2.21467924118042 5.59941291809082 0.046140506863594055 4456788 4 -1
-2.1162233352661133 5.618635177612305 0.46140506863594055 4456788 4 -1
-2.2496399879455566 5.553349018096924 0.5998265743255615 4456788 4 -1
-2.0675268173217773 5.628420829772949 0.5536860823631287 4456788 4 -1
-2.070218563079834 5.635748386383057 0.46140506863594055 4456788 4 -1
-2.1654820442199707 5.609521389007568 0.3229835331439972 4456788 4 -1
-2.1622281074523926 5.601092338562012 0.46140506863594055 4456788 4 -1
-3.598536968231201 4.827253341674805 -0.09228101372718811 4456788 0 -1
-3.544360876083374 4.850301265716553 -0.4152645468711853 4456788 0 -1
-3.597268581390381 4.825551986694336 0.18456202745437622 4523353 0 -1
-3.7834105491638184 4.684446334838867 0.046140506863594055 4590430 0 -1
-3.598853826522827 4.827678680419922 -0.046140506863594055 4590430 0 -1
-2.456860303878784 5.528422832489014 0.2319495677947998 4456788 4 -1
-2.3177928924560547 5.58815336227417 0.2319495677947998 4456788 4 -1
-2.4065325260162354 5.53964900970459 0.4175092279911041 4456788 4 -1
-2.2580416202545166 5.5740885734558105 0.6958487033843994 4456788 4 -1
-2.082576274871826 5.6693902015686035 0.4175092279911041 4456788 4 -1
-2.078702688217163 5.658844947814941 0.5566789507865906 4456788 4 -1
-2.078702688217163 5.658844947814941 0.5566789507865906 4456788 4 -1
-2.033892869949341 5.679463863372803 0.5102890729904175 4456788 4 -1
-2.1762256622314453 5.6373515129089355 0.37111932039260864 4456788 4 -1
-1.9426482915878296 5.715272426605225 0.4638991355895996 4456788 4 -1
-2.5111191272735596 5.5249762535095215 0.46639323234558105 4456788 4 -1
-2.3760902881622314 5.596828460693359 0.27983593940734863 4456788 4 -1
-2.5111191272735596 5.5249762535095215 0.46639323234558105 4456788 4 -1
-2.3286092281341553 5.614231586456299 0.32647526264190674 4456788 4 -1
-2.4646167755126953 5.545876502990723 0.46639323234558105 4456788 4 -1
-2.364879608154297 5.570422172546387 0.6529505252838135 4456788 4 -1
-2.3751814365386963 5.5946879386901855 0.32647526264190674 4456788 4 -1
-2.223851442337036 5.622602939605713 0.6995898485183716 4456788 4 -1
-2.1811459064483643 5.650096893310547 0.6063112020492554 4456788 4 -1
-2.2756454944610596 5.617544651031494 0.5596718788146973 4456788 4 -1
-2.2363202571868896 5.654128551483154 0.27983593940734863 4456788 4 -1
-2.050623655319214 5.726182460784912 0.23319661617279053 4456788 4 -1
-2.1363203525543213 5.671993255615234 0.5596718788146973 4456788 4 -1
-2.089878559112549 5.689269065856934 0.5596718788146973 4456788 4 -1
-2.0937728881835938 5.699870586395264 0.41975390911102295 4456788 4 -1
-1.9541881084442139 5.749222755432129 0.41975390911102295 4456788 4 -1
-1.9518810510635376 5.742435455322266 0.5130325555801392 4456788 4 -1
-2.385632276535034 5.619304180145264 0.4219985902309418 4456788 4 -1
-2.2951183319091797 5.665614604949951 0.2813323736190796 4456788 4 -1
-2.27558970451355 5.617407321929932 0.8439971804618835 4456788 4 -1
-2.27558970451355 5.617407321929932 0.8439971804618835 4456788 4 -1
-2.0978171825408936 5.710880279541016 0.6564422249794006 4456788 4 -1
-2.1461541652679443 5.6981024742126465 0.6095535159111023 4456788 4 -1
-2.1049695014953613 5.730351448059082 0.4219985902309418 4456788 4 -1
-3.3755922317504883 5.103184223175049 -0.09377746284008026 4456788 0 -1
-2.0960097312927246 5.705959796905518 0.703330934047699 4456788 4 -1
-2.0528430938720703 5.732380390167236 0.6095535159111023 4456788 4 -1
-1.964638352394104 5.779967308044434 0.4219985902309418 4456788 4 -1
-2.418553352355957 5.442224502563477 -1.406661868095398 4147337 0 -1
-2.3920884132385254 5.634511470794678 0.6127958297729492 4456788 4 -1
-2.287693977355957 5.647287368774414 0.8484864830970764 4456788 4 -1
-2.1052143573760986 5.731017589569092 0.7542102336883545 4456788 4 -1
-2.024022102355957 5.799981117248535 0.3299669623374939 4456788 4 -1
-3.439467430114746 5.097042083740234 -0.18855255842208862 4456788 0 -1
-2.1519970893859863 5.713615417480469 0.7542102336883545 4456788 4 -1
-2.0679802894592285 5.7746500968933105 0.47138139605522156 4456788 4 -1
-2.1273629665374756 5.7913126945495605 0.42648792266845703 4456788 4 -1
-2.1253983974456787 5.785964488983154 -0.8098282217979431 4456788 0 -1
-2.0759940147399902 5.797027111053467 -0.8574652075767517 4456788 0 -1
-2.1294565200805664 5.7970123291015625 -0.7145543098449707 4456788 0 -1
-2.1386306285858154 5.821986198425293 -0.7661818265914917 4456788 0 -1
-2.1497693061828613 5.852309226989746 -0.7701723575592041 4456788 0 -1
-5.546846866607666 2.859506607055664 -1.4740021228790283 4456788 0 -1
-5.502659320831299 2.8367269039154053 -1.670535683631897 4456788 0 -1
-5.324111461639404 3.184628963470459 -1.621402382850647 4456788 0 -1
-5.7277913093566895 2.706141233444214 -1.1851874589920044 4456788 0 -1
-5.7277913093566895 2.706141233444214 -1.1851874589920044 4456788 0 -1
-5.499582767486572 3.2895874977111816 -0.9430121779441833 4456788 0 -1
-4.459566116333008 4.78285551071167 -0.20052415132522583 4456788 0 -1
-2.954603672027588 5.829535961151123 0.30078622698783875 4456788 0 -1
-2.589538097381592 5.960913181304932 0.7519655227661133 4456788 0 -1
-5.836159706115723 2.8841238021850586 -0.6517034769058228 4456788 0 -1
-3.4080097675323486 5.582696437835693 -0.15039311349391937 4456788 0 -1
-4.356788635253906 4.8715057373046875 -0.30078622698783875 4456788 0 -1
-3.930476188659668 5.168330669403076 0.8020966053009033 4456788 0 -1
-3.940654754638672 5.18171501159668 0.6517034769058228 4523353 0 -1
-5.865195274353027 2.898472785949707 -0.6549457907676697 4456788 0 -1
-4.527712821960449 4.754582405090332 -0.3526630997657776 4456788 0 -1
-5.860497951507568 2.896151542663574 -0.7053261995315552 4456788 0 -1
-3.942017078399658 5.183506488800049 0.9068480134010315 4456788 0 -1
-3.946143865585327 5.1889328956604 0.8564675450325012 4456788 0 -1
-3.9570882320404053 5.203323841094971 0.7053261995315552 4523353 0 -1
-3.9570882320404053 5.203323841094971 0.7053261995315552 4725613 0 -1
-3.95003080368042 5.19404411315918 0.8060871362686157 4729209 0 -1
-3.969585418701172 5.219757080078125 0.8100776672363281 4456788 0 -1
-3.99975848197937 5.259432315826416 0 4456788 0 -1
-3.9615321159362793 5.20916748046875 0.9113373756408691 4456788 0 -1
-4.1203293800354 5.1016035079956055 0.8100776672363281 4456788 0 -1
-3.8320109844207764 5.2439374923706055 1.2151165008544922 4456788 0 -1
-3.979865074157715 5.233273983001709 0.6581881046295166 4523353 0 -1
-3.982814311981201 5.237152099609375 0.6075582504272461 4590430 0 -1
-3.9732513427734375 5.2245774269104 0.7594478130340576 4724328 0 -1
-3.976677656173706 5.229083061218262 0.7088179588317871 4725613 0 -1
-4.013675689697266 5.277732849121094 0.35615482926368713 4456788 0 -1
-3.9488441944122314 5.297173023223877 0.6614304184913635 4456788 0 -1
-4.018989562988281 5.284720420837402 0.10175852477550507 4456788 0 -1
-3.764070510864258 5.468032360076904 -0.152637779712677 4456788 0 -1
-4.002433776855469 5.262950897216797 0.610551118850708 4523353 0 -1
-4.005158424377441 5.266533374786377 0.5596718788146973 4590430 0 -1
-3.772397994995117 5.480129718780518 -0.5112866759300232 4456788 0 -1
-4.012396812438965 5.276051044464111 0.7669300436973572 4456788 0 -1
-3.7835214138031006 5.496288776397705 0 4456788 0 -1
-3.83284854888916 5.458174705505371 -0.20451468229293823 4456788 0 -1
-3.833636999130249 5.459297180175781 -0.15338601171970367 4456788 0 -1
-3.7835214138031006 5.496288776397705 0 4523353 0 -1
-3.7825217247009277 5.494836330413818 -0.15338601171970367 4590430 0 -1
-3.8001914024353027 5.520504951477051 -0.20551231503486633 4456788 0 -1
-3.7965047359466553 5.5151495933532715 -0.3596465289592743 4456788 0 -1
-3.8001914024353027 5.520504951477051 -0.20551231503486633 4523353 0 -1
-3.7991864681243896 5.519044876098633 -0.2568903863430023 4590430 0 -1
-3.814934492111206 5.541922092437744 -0.36139240860939026 4456788 0 -1
-6.336582183837891 2.993769407272339 -2.0112273693084717 4456788 0 -1
-6.3781232833862305 3.0133957862854004 -1.8436249494552612 4456788 0 -1
-6.544038772583008 2.946596622467041 -1.4590376615524292 4456788 0 -1
-6.054846286773682 3.6217198371887207 -1.9640891551971436 4456788 0 -1
-6.3109307289123535 3.1187472343444824 -2.0202059745788574 4456788 0 -1
-4.489214897155762 5.786144733428955 0.05611683055758476 4456788 0 -1
-6.22106409072876 3.594573736190796 -1.5782546997070312 4456788 0 -1
-6.22106409072876 3.594573736190796 -1.5782546997070312 4456788 0 -1
-6.3260016441345215 3.2611758708953857 -1.8600859642028809 4456788 0 -1
-4.508107662200928 5.810495376586914 0.16909871995449066 4456788 0 -1
-5.011291027069092 5.374576568603516 -0.3381974399089813 4523353 0 -1
-4.790989875793457 5.581820964813232 -0.05636623874306679 4724328 0 -1
-4.527123928070068 5.835005760192871 0.22646258771419525 4456788 0 -1
-5.0858259201049805 5.34066104888916 -0.4529251754283905 4523353 0 -1
-6.696651458740234 2.8630242347717285 -1.2455443143844604 4724328 0 -1
-4.8666582107543945 5.554977893829346 -0.22646258771419525 4724328 0 -1
-5.269631385803223 5.187985897064209 -0.6255156397819519 4456788 0 -1
-4.9449357986450195 5.529137134552002 -0.22746022045612335 4456788 0 -1
-3.960756301879883 6.232287883758545 -0.7392457127571106 4456788 0 -1
-4.548670291900635 5.862776756286621 0.11373011022806168 4456788 0 -1
-4.833387851715088 5.631217956542969 0.05686505511403084 4523353 0 -1
-5.209422588348389 5.2413506507873535 -0.6823806762695312 4724328 0 -1
-3.4103004932403564 6.587381839752197 0.22746022045612335 4724328 0 -1
-5.2390828132629395 5.27119255065918 -0.5711446404457092 4456788 0 -1
-4.909536361694336 5.6039204597473145 -0.22845785319805145 4456788 0 -1
-3.5406808853149414 6.558215618133545 0.11422892659902573 4456788 0 -1
-2.7687911987304688 6.83489990234375 1.085174798965454 4456788 0 -1
-4.511512756347656 5.9323577880859375 0.11422892659902573 4456788 0 -1
-4.474381923675537 6.002155303955078 0 4456788 0 -1
-3.2369375228881836 6.965386867523193 -0.11772064119577408 4456788 0 -1
-3.191831588745117 7.022683620452881 -0.059109728783369064 4456788 0 -1
-4.4513397216796875 6.729487419128418 0.24741287529468536 4456788 0 -1
-4.469288349151611 6.756622791290283 0.24841050803661346 4456788 0 -1
-4.5699052810668945 6.772269248962402 0 4456788 0 -1
-4.5247297286987305 6.840438365936279 -0.12570171058177948 4456788 0 -1
-4.478013515472412 6.906467914581299 -0.25240105390548706 4456788 0 -1
5.969130039215088 5.622431755065918 -0.7572031021118164 3887499 6 -1
5.98589563369751 5.638223648071289 -0.44170182943344116 3692940 6 -1
5.972818851470947 5.625906467437744 -1.0135947465896606 4725613 6 -1
5.983490467071533 5.635958194732666 -0.8868953585624695 4536450 6 -1
5.98828649520874 5.640475273132324 -0.8235456943511963 4471684 6 -1
6.000524997711182 5.652003288269043 -0.6334967017173767 3887499 6 -1
5.983490467071533 5.635958194732666 -0.8868953585624695 3107982 6 -1
6.05580472946167 5.576925277709961 -0.7601960301399231 2977934 6 -1
5.870554447174072 5.779598712921143 -0.6968463659286499 2912910 6 -1
5.870554447174072 5.779598712921143 -0.6968463659286499 2912910 6 -1
5.883038520812988 5.791889190673828 -0.44344767928123474 2134668 6 -1
5.877493381500244 5.7864298820495605 -0.5701470375061035 2006409 6 -1
5.889962196350098 5.798705577850342 -0.19004900753498077 8180304 6 -1
6.013800144195557 5.6645073890686035 -0.31674835085868835 8705099 6 -1
5.891519069671631 5.800238609313965 0 11197490 6 -1
6.011862277984619 5.662682056427002 -0.8267880082130432 4725613 6 -1
6.059453010559082 5.58028507232666 -1.017585277557373 4726897 6 -1
5.952987194061279 5.733368873596191 -0.763188898563385 4536450 6 -1
6.007047176361084 5.658146858215332 -0.8903870582580566 4471684 6 -1
5.957039833068848 5.737271785736084 -0.6995898485183716 4212104 6 -1
5.970543384552002 5.623763084411621 -1.2719814777374268 4017546 6 -1
6.070279598236084 5.590255260467529 -0.8903870582580566 2977934 6 -1
5.964080810546875 5.744052886962891 -0.5723916888237 2912910 6 -1
6.030550003051758 5.68028450012207 -0.5087926387786865 2458766 6 -1
5.973924160003662 5.753533363342285 -0.3179953694343567 2328718 6 -1
5.971991539001465 5.751672267913818 -0.3815944492816925 2134668 6 -1
5.9084601402282715 5.8169169425964355 -0.3815944492816925 5949540 6 -1
5.975504398345947 5.7550554275512695 -0.25439631938934326 8180304 6 -1
6.035523414611816 5.684968948364258 -0.3815944492816925 8705099 6 -1
6.033215045928955 5.682794570922852 -0.4451935291290283 9360965 6 -1
5.913151264190674 5.821535110473633 -0.19079722464084625 11197490 6 -1
6.147157669067383 5.533087730407715 -0.6995898485183716 11197490 6 -1
6.064148902893066 5.584609031677246 -1.2131211757659912 4726897 6 -1
5.903644561767578 5.812175750732422 -0.8938787579536438 4536450 6 -1
5.860075950622559 5.895992279052734 -0.5746363401412964 4471684 6 -1
6.064148902893066 5.584609031677246 -1.2131211757659912 4471684 6 -1
5.898557662963867 5.807168006896973 -0.9577272534370422 4017546 6 -1
5.980400562286377 5.75977087020874 -0.7023333311080933 2912910 6 -1
5.995411396026611 5.774227619171143 -0.38309091329574585 2458766 6 -1
5.998937606811523 5.777624130249023 -0.255393922328949 2328718 6 -1
5.995411396026611 5.774227619171143 -0.38309091329574585 2134668 6 -1
6.111433982849121 5.62815523147583 -0.6384848356246948 3651704 6 -1
5.990470886230469 5.769469738006592 -0.510787844657898 5949540 6 -1
6.059192180633545 5.707262992858887 -0.38309091329574585 8180304 6 -1
5.997351169586182 5.776095867156982 -0.3192424178123474 8705099 6 -1
5.9996771812438965 5.778336524963379 -0.7691746950149536 2912910 6 -1
6.127330303192139 5.642794132232666 -0.7691746950149536 2523534 6 -1
6.016528606414795 5.7945661544799805 -0.44868525862693787 2458766 6 -1
5.959528923034668 5.867194652557373 -0.1922936737537384 2328718 6 -1
6.1126179695129395 5.629245758056641 -0.9614683985710144 3651704 6 -1
6.044205665588379 5.821221828460693 -0.32173651456832886 2458766 6 -1
6.5646772384643555 5.638705730438232 -0.7991036772727966 4456788 0 -1
-4.455239772796631 7.447288513183594 -0.46614381670951843 4456788 0 -1
-4.498341083526611 8.875383377075195 -1.8615823984146118 4456788 0 -1
-4.2775797843933105 8.810412406921387 -2.559675693511963 4456788 0 -1
-5.287639617919922 7.993797302246094 -3.2577691078186035 4725613 0 -1
-4.9822587966918945 8.499133110046387 -2.3269779682159424 4725613 0 -1
-4.669865131378174 8.83244514465332 -1.6288845539093018 4725613 0 -1
-2.9777228832244873 9.509124755859375 -1.784016489982605 4726897 0 -1
-4.749037265777588 8.79638957977295 -1.7897528409957886 4725613 0 -1
-2.3300700187683105 9.864901542663574 -0.6225227117538452 4725613 0 -1
-4.4413299560546875 9.349124908447266 -0.0793117880821228 4456788 0 -1
-5.311268329620361 8.357331275939941 -3.013848066329956 4725613 0 -1
-3.1038355827331543 9.63941764831543 -2.141418218612671 4725613 0 -1
-5.3761138916015625 8.127552032470703 -3.4897186756134033 4726897 0 -1
-3.7178878784179688 9.1777925491333 -3.013848066329956 4726897 0 -1
-3.336623430252075 9.561334609985352 -2.141418218612671 4726897 0 -1
-2.9782474040985107 9.785282135009766 -1.586235761642456 4726897 0 -1
-4.378644943237305 9.633915901184082 -1.6411055326461792 4456788 0 -1
-4.410925388336182 9.704939842224121 -1.3168749809265137 4456788 0 -1
-4.4420576095581055 9.7734375 -0.9080950617790222 4456788 0 -1
-4.409482002258301 9.922208786010742 -1.0026206970214844 4456788 0 -1
-4.3421525955200195 9.995293617248535 -0.9218124747276306 4456788 0 -1
-4.345407485961914 10.002786636352539 -1.1767076253890991 4456788 0 -1
-4.358302116394043 10.03246784210205 -1.180199384689331 4456788 0 -1
-4.37470006942749 10.070215225219727 -1.0991417169570923 4456788 0 -1
3.655353546142578 10.474678039550781 0.3401927053928375 4456788 5 -1
3.570345163345337 10.503957748413086 0.3401927053928375 4456788 5 -1
3.5694007873535156 10.501179695129395 0.4252408742904663 4456788 5 -1
3.5694007873535156 10.501179695129395 0.4252408742904663 4456788 5 -1
3.6651031970977783 10.502616882324219 0.42648792266845703 4456788 5 -1
3.6660728454589844 10.505395889282227 0.3411903381347656 4456788 5 -1
3.580815553665161 10.534761428833008 0.3411903381347656 4456788 5 -1
3.5787105560302734 10.528568267822266 0.5117855072021484 4456788 5 -1
3.592024326324463 10.567737579345703 0.2566409707069397 4456788 5 -1
3.7622992992401123 10.50588321685791 0.3421879708766937 4456788 5 -1
3.678088665008545 10.539828300476074 0.17109398543834686 4456788 5 -1
3.5172393321990967 10.628876686096191 0.1715928018093109 4456788 5 -1
3.7745983600616455 10.540227890014648 -0.1715928018093109 4456788 5 -1
3.687511920928955 10.5668306350708 0.3431856036186218 4456788 5 -1
3.439305543899536 10.681268692016602 0.4302290380001068 4456788 5 -1
3.4381930828094482 10.677813529968262 0.5162748694419861 4456788 5 -1
3.613499641418457 10.6309175491333 0.17209161818027496 4456788 5 -1
3.6998610496520996 10.602218627929688 0.08604580909013748 4456788 5 -1
3.3651182651519775 10.746240615844727 0.172590434551239 4456788 5 -1
3.5371689796447754 10.689103126525879 0.2588856518268585 4456788 5 -1
3.4501869678497314 10.715062141418457 0.345180869102478 4456788 5 -1
3.6239736080169678 10.66173267364502 0.172590434551239 4456788 5 -1
3.710585355758667 10.632949829101562 -0.0862952172756195 4456788 5 -1
3.2792181968688965 10.77414608001709 0 4456788 5 -1
3.461785078048706 10.751081466674805 0 4456788 5 -1
3.634767532348633 10.693488121032715 0.08654462546110153 4456788 5 -1
3.547912836074829 10.721570014953613 0.17308925092220306 4456788 5 -1
3.7209818363189697 10.662741661071777 0.17308925092220306 4456788 5 -1
3.4592435359954834 10.743188858032227 0.43272313475608826 4456788 5 -1
3.634767532348633 10.693488121032715 0.08654462546110153 4456788 5 -1
3.096149444580078 10.172658920288086 -3.8079636096954346 4456788 0 -1
3.7174839973449707 10.652717590332031 -0.519267737865448 4456788 5 -1
3.3743484020233154 10.775716781616211 -0.259633868932724 4456788 5 -1
3.3748440742492676 10.777299880981445 -0.17308925092220306 4456788 5 -1
3.2883095741271973 10.804017066955566 -0.17308925092220306 4456788 5 -1
3.3743484020233154 10.775716781616211 -0.259633868932724 4456788 5 -1
3.3743484020233154 10.775716781616211 -0.259633868932724 4456788 5 -1
3.2852182388305664 10.79386043548584 -0.519267737865448 4456788 5 -1
3.644386053085327 10.721786499023438 0.2603820860385895 4456788 5 -1
3.64524245262146 10.724305152893066 0.08679403364658356 4456788 5 -1
3.471353530883789 10.78079891204834 0.17358806729316711 4456788 5 -1
3.8188252449035645 10.663727760314941 0.08679403364658356 4456788 5 -1
3.816133737564087 10.656211853027344 0.4339701533317566 4456788 5 -1
3.816133737564087 10.656211853027344 0.4339701533317566 4456788 5 -1
3.20902156829834 10.854487419128418 -0.4339701533317566 4456788 5 -1
3.5581374168395996 10.75246810913086 -0.17358806729316711 4456788 5 -1
3.3845698833465576 10.808358192443848 -0.17358806729316711 4456788 5 -1
3.296623706817627 10.831334114074707 -0.34717613458633423 4456788 5 -1
3.2980763912200928 10.836106300354004 0.08679403364658356 4456788 5 -1
3.470130205154419 10.776999473571777 -0.34717613458633423 4456788 5 -1
3.471353530883789 10.78079891204834 -0.17358806729316711 4456788 5 -1
3.643636703491211 10.719581604003906 -0.34717613458633423 4456788 5 -1
3.6414947509765625 10.713279724121094 -0.520764172077179 4456788 5 -1
3.5451302528381348 10.71316146850586 -1.3056516647338867 4456788 5 -1
3.481635332107544 10.81273078918457 -0.08704344183206558 4456788 5 -1
3.742867946624756 10.725457191467285 0 4456788 5 -1
3.4813287258148193 10.81177806854248 0.17408688366413116 4456788 5 -1
3.8294615745544434 10.693428993225098 0.17408688366413116 4456788 5 -1
3.74275803565979 10.725142478942871 0.08704344183206558 4456788 5 -1
3.307262420654297 10.866288185119629 -0.17408688366413116 4456788 5 -1
3.3898074626922607 10.825084686279297 -0.6093040704727173 4456788 5 -1
3.0927302837371826 10.776745796203613 -1.8279122114181519 4456788 0 -1
3.565007448196411 10.773228645324707 -0.5222606658935547 4456788 5 -1
3.4813287258148193 10.81177806854248 -0.17408688366413116 4456788 5 -1
3.7358291149139404 10.70528793334961 -0.6963475346565247 4456788 5 -1
3.648949384689331 10.735211372375488 -0.6963475346565247 4456788 5 -1
3.4019217491149902 10.86376953125 -0.43646425008773804 4456788 5 -1
3.486687660217285 10.828420639038086 -0.6110499501228333 4456788 5 -1
3.4891505241394043 10.836069107055664 -0.43646425008773804 4456788 5 -1
3.4891505241394043 10.836069107055664 -0.43646425008773804 4456788 5 -1
3.5722763538360596 10.795194625854492 -0.6983428001403809 4456788 5 -1
3.3886044025421143 10.240150451660156 -3.66629958152771 4456788 0 -1
3.8404343128204346 10.724068641662598 0.17458570003509521 4456788 5 -1
3.7534823417663574 10.755873680114746 -0.08729285001754761 4456788 5 -1
3.4880218505859375 10.832564353942871 -0.5237571001052856 4456788 5 -1
3.650768280029297 10.740562438964844 -1.0475142002105713 4456788 5 -1
3.7252767086029053 10.675047874450684 -1.3966856002807617 4456788 5 -1
3.570486307144165 10.789785385131836 -0.7856356501579285 4456788 5 -1
3.570486307144165 10.789785385131836 -0.7856356501579285 4456788 5 -1
3.7376911640167236 10.710622787475586 -1.0475142002105713 4456788 5 -1
3.666192054748535 10.78593921661377 -0.08729285001754761 4456788 5 -1
2.9841034412384033 10.719425201416016 -2.444199800491333 12640037 0 -1
3.50004506111145 10.869904518127441 -0.35016903281211853 4456788 5 -1
3.50004506111145 10.869904518127441 -0.35016903281211853 4456788 5 -1
3.495105028152466 10.854562759399414 -0.7003380656242371 4456788 5 -1
3.5015876293182373 10.87469482421875 -0.08754225820302963 4456788 5 -1
3.4116413593292236 10.89480972290039 -0.43771129846572876 4456788 5 -1
3.413245916366577 10.899932861328125 -0.2626267671585083 4456788 5 -1
3.493353843688965 10.84912395477295 -0.7878803014755249 4456788 5 -1
3.7638750076293945 10.78565502166748 -0.17508451640605927 4456788 5 -1
3.5824828147888184 10.826038360595703 -0.7003380656242371 4456788 5 -1
3.576460361480713 10.807839393615723 -0.9629648327827454 4456788 5 -1
3.661198854446411 10.771249771118164 -1.0505070686340332 4456788 5 -1
3.724210500717163 10.671993255615234 -1.6633028984069824 4456788 0 -1
3.5806877613067627 10.820613861083984 -0.7878803014755249 4456788 5 -1
3.5840659141540527 10.830821990966797 -0.6127958297729492 4456788 5 -1
3.51125431060791 10.904715538024902 -0.17558333277702332 4456788 5 -1
3.5033063888549805 10.880032539367676 -0.7901250123977661 4456788 5 -1
3.5888760089874268 10.845357894897461 -0.8779166340827942 4456788 5 -1
3.5090885162353516 10.897989273071289 -0.4389583170413971 4456788 5 -1
3.4189462661743164 10.918136596679688 -0.6145416498184204 4456788 5 -1
3.5908889770507812 10.851441383361816 -0.7901250123977661 4456788 5 -1
3.5977671146392822 10.87222671508789 -0.35116666555404663 4456788 5 -1
3.6871416568756104 10.847573280334473 0.08779166638851166 4456788 5 -1
3.511563539505005 10.90567684173584 -0.08779166638851166 4456788 5 -1
3.420254707336426 10.922314643859863 -0.5267499685287476 4456788 5 -1
3.678471803665161 10.822066307067871 -0.7901250123977661 4456788 5 -1
3.5866498947143555 10.838630676269531 -0.965708315372467 4456788 5 -1
3.475752115249634 10.794459342956543 -1.8488625288009644 4456788 0 -1
3.5712249279022217 10.792017936706543 -1.6727803945541382 4456788 0 -1
3.427144765853882 10.944317817687988 -0.7043285965919495 4456788 5 -1
3.427144765853882 10.944317817687988 -0.7043285965919495 4456788 5 -1
3.4310810565948486 10.956888198852539 -0.4402053654193878 4456788 5 -1
3.2551281452178955 11.010442733764648 -0.4402053654193878 4456788 5 -1
3.6095781326293945 10.907918930053711 0.08804107457399368 4456788 5 -1
3.519057512283325 10.928950309753418 -0.4402053654193878 4456788 5 -1
3.6096839904785156 10.908238410949707 0 4456788 5 -1
3.519057512283325 10.928950309753418 -0.4402053654193878 4456788 5 -1
3.429971218109131 10.953344345092773 -0.5282464623451233 4456788 5 -1
3.524977922439575 10.947336196899414 -0.7063238620758057 4456788 5 -1
3.084336042404175 10.432740211486816 -3.7964906692504883 4456788 0 -1
3.6131021976470947 10.91856861114502 -0.7063238620758057 4456788 5 -1
3.4310758113861084 10.95687198638916 -0.9711952805519104 4456788 5 -1
3.524977922439575 10.947336196899414 -0.7063238620758057 4456788 5 -1
3.4383721351623535 10.980171203613281 -0.6180333495140076 4456788 5 -1
3.69500470161438 10.870706558227539 -0.9711952805519104 4456788 5 -1
3.6198034286499023 10.93881893157959 0.08829048275947571 4456788 5 -1
3.3549399375915527 11.02293586730957 -0.08829048275947571 4456788 5 -1
3.7012267112731934 10.88901138305664 -0.7063238620758057 4456788 5 -1
3.529026508331299 10.95991039276123 -0.44145241379737854 4456788 5 -1
3.4383721351623535 10.980171203613281 -0.6180333495140076 4456788 5 -1
3.621493339538574 10.943925857543945 -0.7968590259552002 4456788 5 -1
3.534935474395752 10.97826099395752 -0.7083191275596619 4456788 5 -1
3.3581886291503906 11.033610343933105 -0.7083191275596619 4456788 5 -1
3.800055503845215 10.88933277130127 -0.7083191275596619 4456788 5 -1
3.711682081222534 10.919771194458008 -0.7083191275596619 4456788 5 -1
3.747624635696411 10.73908805847168 -2.0364174842834473 4456788 0 -1
3.6301355361938477 10.97004222869873 0 4456788 5 -1
3.3581886291503906 11.033610343933105 -0.7083191275596619 4456788 5 -1
3.2755911350250244 11.079659461975098 0.17707978188991547 4456788 5 -1
3.629709243774414 10.968753814697266 -0.17707978188991547 4456788 5 -1
3.36441707611084 11.05407428741455 0.08853989094495773 4456788 5 -1
3.7054426670074463 10.90141487121582 -0.9739388227462769 4456788 5 -1
3.534935474395752 10.97826099395752 -0.7083191275596619 4456788 5 -1
3.628430128097534 10.964887619018555 -0.35415956377983093 4456788 5 -1
3.546459436416626 11.014050483703613 -0.6215251088142395 4456788 5 -1
3.704437017440796 10.898455619812012 -1.3318394422531128 4456788 5 -1
3.7252073287963867 10.959562301635742 -0.5327357649803162 4456788 5 -1
3.723782539367676 10.95536994934082 -0.6215251088142395 4456788 5 -1
3.6162359714508057 10.928038597106934 -1.3318394422531128 4456788 5 -1
3.2538068294525146 11.005973815917969 -1.5982073545455933 4456788 0 -1
3.5833821296691895 10.828756332397461 -2.042153835296631 4456788 0 -1
3.3735971450805664 11.084236145019531 0.17757859826087952 4456788 5 -1
3.727398633956909 10.966009140014648 -0.35515719652175903 4456788 5 -1
3.551077365875244 11.028392791748047 -0.8903870582580566 4456788 5 -1
3.6496224403381348 11.028929710388184 -0.26711612939834595 4456788 5 -1
3.6418960094451904 11.00558090209961 -0.8013483881950378 4456788 5 -1
3.377107858657837 11.095771789550781 -0.7123096585273743 4456788 5 -1
3.5589334964752197 11.052790641784668 -0.4451935291290283 4456788 5 -1
3.4708781242370605 11.083976745605469 -0.35615482926368713 4456788 5 -1
3.289689779281616 11.127346992492676 -0.6232709288597107 4456788 5 -1
3.289689779281616 11.127346992492676 -0.6232709288597107 4456788 5 -1
3.471998929977417 11.087555885314941 -0.8928811550140381 4456788 5 -1
3.6477859020233154 11.023380279541016 -0.9821692705154419 4456788 5 -1
3.5630218982696533 11.0654878616333 -0.8035930395126343 4456788 5 -1
3.467484712600708 11.073140144348145 -1.0714573860168457 4456788 5 -1
3.49155330657959 11.150001525878906 0.17907504737377167 4456788 5 -1
3.4910407066345215 11.148364067077637 -0.2686125636100769 4456788 5 -1
-4.312623500823975 11.171531677246094 -0.275346577167511 4456788 0 -1
-4.225492477416992 11.218807220458984 -0.7362528443336487 4456788 0 -1
-4.3253583908081055 11.204521179199219 -0.09203160554170609 4456788 0 -1
-4.463305473327637 11.28465461730957 -0.37211695313453674 4456788 0 -1
-4.344539165496826 12.131736755371094 -0.2962968647480011 4456788 0 -1
-4.3183369636535645 12.704550743103027 -1.2390596866607666 4456788 0 -1
-4.322098255157471 12.715616226196289 -1.4490612745285034 4456788 0 -1
-4.355291843414307 12.813271522521973 -1.040031909942627 4456788 0 -1
13.69746208190918 6.167581558227539 0.6913593411445618 4456788 0 -1
-14.29879379272461 3.383420467376709 -3.3488030433654785 4456788 0 -1
10.881911277770996 9.346978187561035 -4.6190385818481445 4456788 0 -1
13.606549263000488 6.428524017333984 0.8083317875862122 4456788 0 -1
14.612313270568848 3.457606554031372 1.6201553344726562 4456788 0 -1
-12.414883613586426 7.173405170440674 -4.7447404861450195 4456788 0 -1
13.64556884765625 6.446959018707275 0.5786268711090088 4456788 0 -1
-5.120645523071289 13.264653205871582 5.091916561126709 4523353 0 -1
13.111607551574707 5.605615139007568 -4.97619104385376 4523353 0 -1
14.303544044494629 3.384544610977173 -3.4717612266540527 4523353 0 -1
13.56546401977539 6.703805923461914 0.3479243516921997 4456788 0 -1
