VERSION .7
FIELDS x y z rgb label object
SIZE 4 4 4 4 4 4
TYPE F F F I I I
COUNT 1 1 1 1 1 1
WIDTH 677
HEIGHT 1
POINTS 677
VIEWPOINT 0 0 0 1 0 0 0
DATA ascii
-0.025412730872631073 1.6580744981765747 -0.0763188898563385 4523353 0 -1
0.1000230610370636 1.6286447048187256 -0.305275559425354 4590430 0 -1
-0.11371967196464539 1.6450974941253662 -0.19079722464084625 4657508 0 -1
-0.012706365436315536 1.6582205295562744 -0.0763188898563385 4657508 0 -1
0.24132859706878662 1.639973759651184 -0.08903870731592178 4657508 0 -1
-0.10167395323514938 1.6555256843566895 0.3371998071670532 4590430 0 -1
-1.4460601806640625 0.7454719543457031 0.4668920338153839 4724328 0 -1
-1.0866813659667969 1.1654585599899292 0.570645809173584 4724328 0 -1
0.11520198732614517 1.6665409803390503 -0.2723536789417267 4728182 0 -1
-0.013154415413737297 1.7166924476623535 0.37710511684417725 4456788 0 -1
0.2518875002861023 1.7117279767990112 0.30976492166519165 4456788 0 -1
0.33734145760536194 1.6593416929244995 0.47138139605522156 4456788 0 -1
-0.34468817710876465 1.6954792737960815 -0.30976492166519165 4456788 0 -1
0.03814799338579178 1.659087896347046 0.579125702381134 4456788 0 -1
0.309970498085022 1.6568078994750977 0.4983174800872803 4456788 0 -1
0.23756511509418488 1.705977439880371 0.35016903281211853 4590430 0 -1
0.33331596851348877 1.6395407915115356 0.5387215614318848 4590430 0 -1
0.6248255968093872 1.5424132347106934 0.5656576752662659 4590430 0 -1
1.468016266822815 0.9666138887405396 0 4724328 0 -1
-0.5323580503463745 1.6533161401748657 0.2693607807159424 4471684 0 -1
-1.4894201755523682 0.7991250157356262 -0.5898502469062805 4456788 0 -1
0.4725959599018097 1.6976479291915894 -0.31550130248069763 4456788 0 -1
0.7831590175628662 1.5786125659942627 -0.31550130248069763 4456788 0 -1
0.316445529460907 1.6914173364639282 0.4938281178474426 4456788 0 -1
0.2160438746213913 1.7489084005355835 0.31550130248069763 4590430 0 -1
-0.06785648316144943 1.769848346710205 -0.2606315016746521 4657508 0 -1
-0.2781188189983368 1.7058792114257812 -0.46639323234558105 4471684 0 -1
0.0806548222899437 1.7524809837341309 -0.35665363073349 4471684 0 -1
1.3560724258422852 1.1647934913635254 0.09602213650941849 4471684 0 -1
-1.5252985954284668 0.7863208651542664 -0.6145416498184204 4456788 0 -1
-0.44165998697280884 1.746254563331604 -0.2793371081352234 4456788 0 -1
1.1360108852386475 1.3784438371658325 -0.36313825845718384 4456788 0 -1
-0.04184025153517723 1.8196672201156616 0.09776799380779266 4590430 0 -1
-0.06930746883153915 1.8076934814453125 -0.22346968948841095 4657508 0 -1
1.098935842514038 1.3882983922958374 -0.4329725205898285 4657508 0 -1
0.30704525113105774 1.7953673601150513 -0.06983427703380585 4724328 0 -1
-1.7411929368972778 0.617545485496521 0.1705951690673828 4724328 0 -1
0.6899394392967224 1.7031501531600952 0.2558927536010742 4724328 0 -1
-1.326933741569519 1.927625060081482 -0.12570171058177948 4456788 0 -1
-1.5441538095474243 1.7625524997711182 -0.035914771258831024 4456788 0 -1
-1.1130636930465698 2.061669111251831 -0.053872156888246536 4456788 0 -1
-0.9454341530799866 2.1274142265319824 0.2693607807159424 4456788 0 -1
-1.2570170164108276 1.9779282808303833 0 4456788 0 -1
-1.2712260484695435 1.9606198072433472 -0.17957386374473572 4456788 0 -1
-1.130484700202942 2.050910711288452 0.08978693187236786 4456788 0 -1
-1.2712260484695435 1.9606198072433472 -0.17957386374473572 4456788 0 -1
-1.807524561882019 1.4791327714920044 -0.4369630515575409 4456788 0 -1
-1.4295694828033447 1.8425706624984741 -0.4551698565483093 4456788 0 -1
-1.3053358793258667 1.9733928442001343 -0.21848152577877045 4456788 0 -1
-1.254940390586853 2.0147223472595215 -0.10924076288938522 4456788 0 -1
-1.254940390586853 2.0147223472595215 -0.10924076288938522 4456788 0 -1
-1.3538750410079956 1.927988052368164 -0.30951550602912903 4456788 0 -1
-1.3719266653060913 1.915184736251831 -0.30951550602912903 4456788 0 -1
-1.2544604539871216 2.0139517784118652 -0.12744756042957306 4456788 0 -1
-1.1282908916473389 2.0898735523223877 0.07282717525959015 4456788 0 -1
-1.7181828022003174 1.6183875799179077 -0.27310192584991455 4456788 0 -1
-1.58394455909729 1.7710740566253662 -0.018206793814897537 4456788 0 -1
-1.236279845237732 2.025162935256958 -0.12744756042957306 4456788 0 -1
-1.654433250427246 1.7007418870925903 -0.12744756042957306 4456788 0 -1
-1.5083221197128296 1.8302088975906372 0.1456543505191803 4456788 0 -1
-1.5839910507202148 1.7711260318756104 0 4456788 0 -1
-1.5277535915374756 1.8165767192840576 0.10924076288938522 2977934 0 -1
-1.1834416389465332 2.060432195663452 0 2977934 0 -1
-1.6017745733261108 1.754209280014038 -0.05462038144469261 2134668 0 -1
-1.1285229921340942 2.090303421020508 0.05462038144469261 2134668 0 -1
-1.3163936138153076 1.9508001804351807 -0.32772231101989746 2139270 0 -1
-1.6017745733261108 1.754209280014038 -0.05462038144469261 6933851 0 -1
-1.183406949043274 2.0603718757629395 0.018206793814897537 6933851 0 -1
-0.800722599029541 2.2359461784362793 0.07282717525959015 6933851 0 -1
-1.412923812866211 1.8953651189804077 -0.46140506863594055 4456788 0 -1
-1.3406018018722534 1.9866750240325928 -0.2399306297302246 4456788 0 -1
-1.4352186918258667 1.8872230052947998 -0.42449265718460083 4456788 0 -1
-1.3709861040115356 1.9523550271987915 -0.3322116434574127 4456788 0 -1
-1.3678643703460693 1.9479095935821533 -0.36912405490875244 4456788 0 -1
-1.6770967245101929 1.7240396738052368 -0.12919341027736664 4456788 0 -1
-1.530245065689087 1.856810450553894 0.11073721200227737 4456788 0 -1
-1.7691045999526978 1.5923799276351929 -0.36912405490875244 4456788 0 -1
-1.6386914253234863 1.7574858665466309 -0.16610582172870636 4456788 0 -1
-1.285508632659912 2.0227601528167725 -0.2399306297302246 4456788 0 -1
-1.0884044170379639 2.1474597454071045 0.07382480800151825 4456788 0 -1
-1.641830325126648 1.7608522176742554 -0.07382480800151825 4456788 0 -1
-1.6056424379348755 1.7953354120254517 -0.018456202000379562 4600703 0 -1
-1.4507882595062256 1.907696008682251 0.2399306297302246 4600703 0 -1
-1.0257506370544434 2.159234046936035 0.295299232006073 2523534 0 -1
-1.4875171184539795 1.879197597503662 -0.2399306297302246 2468738 0 -1
-1.347302794456482 1.9966052770614624 0 2468738 0 -1
-1.6421679258346558 1.7612143754959106 -0.05536860600113869 6933851 0 -1
-1.3256829977035522 2.0041534900665283 -0.16610582172870636 6933851 0 -1
-1.439274549484253 1.9695836305618286 -0.09352805465459824 4456788 0 -1
-1.4009013175964355 1.9949558973312378 -0.1309392750263214 4456788 0 -1
-1.4027560949325562 1.997597098350525 -0.037411220371723175 4456788 0 -1
-1.3420114517211914 2.028838634490967 -0.20576171576976776 4456788 0 -1
-1.366469383239746 1.9075664281845093 0.6734020113945007 4456788 0 -1
-1.421562910079956 1.9453461170196533 0.39281782507896423 4456788 0 -1
-1.3280593156814575 2.048274040222168 0.018705610185861588 4456788 0 -1
-1.2344253063201904 2.105780839920044 0.037411220371723175 4456788 0 -1
-1.5690094232559204 1.8656319379806519 0.1309392750263214 4456788 0 -1
-1.5137115716934204 1.799880027770996 -0.6546963453292847 4456788 0 -1
-1.3256007432937622 2.0444822311401367 -0.1496448814868927 4456788 0 -1
-1.4547481536865234 1.9514703750610352 0.18705610930919647 4456788 0 -1
-1.4528566598892212 1.9489331245422363 0.22446732223033905 4600703 0 -1
-1.4405391216278076 2.0109665393829346 -0.018955018371343613 4456788 0 -1
-1.4209585189819336 2.0235183238983154 -0.07582007348537445 4456788 0 -1
-1.4215847253799438 2.0244100093841553 -0.018955018371343613 4456788 0 -1
-1.4215847253799438 2.0244100093841553 -0.018955018371343613 4456788 0 -1
-1.400652289390564 2.034715414047241 0.132685124874115 4456788 0 -1
-1.4026302099227905 2.037588596343994 0.018955018371343613 4456788 0 -1
-1.3827004432678223 2.0490620136260986 0.09477509558200836 4456788 0 -1
-1.3811142444610596 2.0467114448547363 0.1516401469707489 4456788 0 -1
-1.3827004432678223 2.0490620136260986 0.09477509558200836 4456788 0 -1
-1.3633183240890503 2.0610499382019043 0.11373011022806168 4456788 0 -1
-1.3641201257705688 2.0622622966766357 0.07582007348537445 4456788 0 -1
-1.3627967834472656 2.0602617263793945 0.132685124874115 4456788 0 -1
-1.3448182344436646 2.0741214752197266 0.09477509558200836 4456788 0 -1
-1.3438690900802612 2.072657585144043 0.132685124874115 4456788 0 -1
-1.3426023721694946 2.0707039833068848 0.1705951690673828 4456788 0 -1
-1.3401050567626953 2.066852331161499 0.22746022045612335 4456788 0 -1
-1.3517181873321533 2.043513059616089 0.3411903381347656 4456788 0 -1
-1.3343396186828613 2.057960271835327 0.3222353160381317 4456788 0 -1
-1.3356540203094482 2.0599873065948486 0.3032802939414978 4456788 0 -1
-1.506922960281372 1.9037132263183594 -0.4738754630088806 5424489 0 -1
-1.459493637084961 2.037426471710205 0.019204426556825638 4456788 0 -1
-1.459493637084961 2.037426471710205 0.019204426556825638 4456788 0 -1
-1.4401628971099854 2.0508663654327393 -0.038408853113651276 4456788 0 -1
-1.440332055091858 2.051107168197632 0 4456788 0 -1
-1.440332055091858 2.051107168197632 0 4456788 0 -1
-1.4204599857330322 2.0634896755218506 0.07681770622730255 4456788 0 -1
-1.4204599857330322 2.0634896755218506 0.07681770622730255 4456788 0 -1
-1.4200842380523682 2.062943935394287 0.09602213650941849 4456788 0 -1
-1.4004408121109009 2.0753519535064697 0.11522655934095383 4456788 0 -1
-1.4004408121109009 2.0753519535064697 0.11522655934095383 4456788 0 -1
-1.3812566995620728 2.0881690979003906 0.11522655934095383 4456788 0 -1
-1.3801183700561523 2.0864484310150146 0.1536354124546051 4456788 0 -1
-1.3807283639907837 2.0873703956604004 0.13443098962306976 4456788 0 -1
-1.3807283639907837 2.0873703956604004 0.13443098962306976 4456788 0 -1
-1.3620725870132446 2.1007328033447266 0.11522655934095383 4456788 0 -1
-1.3615515232086182 2.0999293327331543 0.13443098962306976 4456788 0 -1
-1.3395261764526367 2.107757329940796 0.21124869585037231 4456788 0 -1
-1.3386149406433105 2.106323480606079 0.23045311868190765 4456788 0 -1
-1.3556461334228516 2.0908215045928955 0.2688619792461395 4456788 0 -1
-1.3758416175842285 2.0799827575683594 0.2496575564146042 4456788 0 -1
-1.373555302619934 2.076526165008545 0.28806641697883606 4456788 0 -1
-1.3402599096298218 2.067091226577759 0.4609062373638153 4456788 0 -1
-1.3403576612472534 2.109065532684326 0.19204427301883698 4456788 0 -1
-1.3577380180358887 2.094047784805298 0.23045311868190765 4456788 0 -1
-1.4711380004882812 2.0536820888519287 -0.2528998553752899 4456788 0 -1
-1.4588662385940552 2.077501058578491 -0.038907669484615326 4456788 0 -1
-1.4590376615524292 2.077744960784912 0 4456788 0 -1
-1.458994746208191 2.077683925628662 -0.019453834742307663 4456788 0 -1
-1.3786247968673706 2.1262614727020264 -0.1556306779384613 4456788 0 -1
-1.4590376615524292 2.077744960784912 0 4456788 0 -1
-1.4392033815383911 2.0907182693481445 0.05836150422692299 4456788 0 -1
-1.4385268688201904 2.089735507965088 0.09726917743682861 4456788 0 -1
-1.438907504081726 2.0902884006500244 0.07781533896923065 4456788 0 -1
-1.4380615949630737 2.089059591293335 0.11672300845384598 4456788 0 -1
-1.4186283349990845 2.102304697036743 0.11672300845384598 4456788 0 -1
-1.4180856943130493 2.1015005111694336 0.13617683947086334 4456788 0 -1
-1.3991950750350952 2.115288257598877 0.11672300845384598 4456788 0 -1
-1.3792340755462646 2.1272010803222656 0.13617683947086334 4456788 0 -1
-1.3779339790344238 2.1251962184906006 0.17508451640605927 4456788 0 -1
-1.3598082065582275 2.1396710872650146 0.13617683947086334 4456788 0 -1
-1.3559995889663696 2.133678436279297 0.23344601690769196 4456788 0 -1
-1.3527438640594482 2.1285552978515625 0.29180753231048584 4456788 0 -1
-1.375370979309082 2.1212432384490967 0.23344601690769196 4456788 0 -1
-1.396558165550232 2.111301898956299 0.19453835487365723 4456788 0 -1
-1.3440231084823608 2.114833354949951 0.4085305333137512 4456788 0 -1
-1.3539103269577026 2.1303908824920654 0.2723536789417267 4456788 0 -1
-1.354995608329773 2.132098436355591 0.2528998553752899 4456788 0 -1
-1.4159656763076782 2.140641689300537 -0.1576259434223175 4456788 0 -1
-1.4159656763076782 2.140641689300537 -0.1576259434223175 4456788 0 -1
-1.4564982652664185 2.115842342376709 -0.11821945756673813 4456788 0 -1
-1.3782144784927368 2.168633460998535 -0.09851621836423874 4456788 0 -1
-1.3962994813919067 2.1535212993621826 -0.1576259434223175 4456788 0 -1
-1.4564982652664185 2.115842342376709 0.11821945756673813 4456788 0 -1
-1.3782144784927368 2.168633460998535 -0.09851621836423874 4456788 0 -1
-1.4356318712234497 2.127502679824829 0.1576259434223175 4456788 0 -1
-1.3766332864761353 2.1661455631256104 0.1576259434223175 4456788 0 -1
-1.377768635749817 2.1679320335388184 0.11821945756673813 4456788 0 -1
-1.372367262840271 2.159433126449585 0.25614216923713684 4456788 0 -1
-1.372367262840271 2.159433126449585 0.25614216923713684 4456788 0 -1
-1.3674756288528442 2.15173602104187 0.3349551260471344 4456788 0 -1
-1.3759435415267944 2.16506028175354 0.1773291826248169 4456788 0 -1
-1.3674756288528442 2.15173602104187 0.3349551260471344 4456788 0 -1
-1.374319076538086 2.162504196166992 -0.21673567593097687 8180304 0 -1
-1.4503731727600098 2.149348258972168 -0.23943181335926056 4456788 0 -1
-1.4503731727600098 2.149348258972168 -0.23943181335926056 4456788 0 -1
-1.395208716392517 2.1953742504119873 -0.11971590667963028 4456788 0 -1
-1.4522613286972046 2.152146339416504 -0.19952651858329773 4456788 0 -1
-1.4522613286972046 2.152146339416504 -0.19952651858329773 4456788 0 -1
-1.3767329454421997 2.210252046585083 0 4456788 0 -1
-1.4749349355697632 2.142625093460083 0.11971590667963028 4456788 0 -1
-1.374751091003418 2.2070703506469727 0.1396685540676117 4456788 0 -1
-1.3734554052352905 2.2049901485443115 0.17957386374473572 4456788 0 -1
-1.3698856830596924 2.199259042739868 0.2593844532966614 4456788 0 -1
-1.3833372592926025 2.176694393157959 0.35914772748947144 4456788 0 -1
-1.595212459564209 1.9751192331314087 0.5786268711090088 4456788 0 -1
-1.3944649696350098 2.1506919860839844 0.4589109718799591 4456788 0 -1
-1.595212459564209 1.9751192331314087 0.5786268711090088 4456788 0 -1
-1.3907687664031982 2.1883881092071533 0.23943181335926056 4456788 0 -1
-1.6117216348648071 1.9556747674942017 0.5985795259475708 4456788 0 -1
-1.4623851776123047 2.124394178390503 0.35914772748947144 4456788 0 -1
-1.3833372592926025 2.176694393157959 0.35914772748947144 4456788 0 -1
-1.3801875114440918 2.1717381477355957 0.39905303716659546 4456788 0 -1
-1.4077932834625244 2.128286838531494 0.5187689065933228 4456788 0 -1
-1.3635753393173218 2.1891283988952637 0.35914772748947144 4456788 0 -1
-1.460655927658081 2.1645865440368652 -0.3636370599269867 4456788 0 -1
-1.510699987411499 2.1513149738311768 -0.20202060043811798 4456788 0 -1
-1.3939012289047241 2.237814426422119 -0.02020205929875374 4456788 0 -1
-1.58623468875885 2.0444962978363037 0.5050514936447144 4456788 0 -1
-1.4972569942474365 2.132171392440796 0.40404120087623596 4456788 0 -1
-1.420676827430725 2.147764205932617 0.5656576752662659 4456788 0 -1
-1.4836750030517578 2.1553215980529785 -0.3232329487800598 4726897 0 -1
-1.4806649684906006 2.150949001312256 -0.3636370599269867 4728182 0 -1
-1.4772934913635254 2.1460514068603516 -0.40404120087623596 4729209 0 -1
-1.4990113973617554 2.134669780731201 -0.38383913040161133 4664956 0 -1
-1.5133641958236694 2.198451042175293 -0.020451467484235764 4456788 0 -1
-1.4101152420043945 2.2638449668884277 -0.10225734114646912 4456788 0 -1
-1.3488059043884277 2.3009002208709717 0.10225734114646912 4456788 0 -1
-1.495531678199768 2.172545909881592 -0.40902936458587646 4456788 0 -1
-1.5222891569137573 2.167818307876587 -0.3272234797477722 4590430 0 -1
-1.503378987312317 2.183945655822754 -0.30677202343940735 4726897 0 -1
-1.501991868019104 2.1819305419921875 -0.3272234797477722 4728182 0 -1
-1.5236949920654297 2.1698203086853027 -0.30677202343940735 4729209 0 -1
-1.5236949920654297 2.1698203086853027 -0.30677202343940735 4664956 0 -1
-1.5005139112472534 2.179783582687378 -0.3476749360561371 4600703 0 -1
-1.530245065689087 2.222973585128784 -0.12420525401830673 4456788 0 -1
-1.5230251550674438 2.2124853134155273 -0.28981226682662964 4456788 0 -1
-1.4933135509490967 2.212982654571533 -0.41401752829551697 4456788 0 -1
-1.5217128992080688 2.2105791568756104 -0.31051313877105713 4456788 0 -1
-1.5155436992645264 2.2016170024871826 -0.3933166265487671 4456788 0 -1
-1.5422766208648682 2.196281671524048 -0.31051313877105713 4590430 0 -1
-1.5253753662109375 2.2158994674682617 -0.24841050803661346 4726897 0 -1
-1.5230251550674438 2.2124853134155273 -0.28981226682662964 4728182 0 -1
-1.5242459774017334 2.2142586708068848 -0.26911139488220215 4729209 0 -1
-1.5242459774017334 2.2142586708068848 -0.26911139488220215 4664956 0 -1
-1.5318647623062134 2.2253265380859375 0 4212104 0 -1
-1.520545482635498 2.25333833694458 -0.2933039665222168 4456788 0 -1
-1.4757859706878662 2.2310776710510254 -0.5656576752662659 4456788 0 -1
-1.5130761861801147 2.242269515991211 -0.39805540442466736 4456788 0 -1
-1.5032877922058105 2.2277636528015137 -0.5028068423271179 4456788 0 -1
-1.5074840784072876 2.2339823246002197 -0.4609062373638153 4456788 0 -1
-1.5281345844268799 2.219907760620117 -0.4609062373638153 4456788 0 -1
-1.530118703842163 2.222790002822876 -0.4399559497833252 4456788 0 -1
-1.5260553359985352 2.2168872356414795 -0.4818565249443054 4456788 0 -1
-1.5281345844268799 2.219907760620117 -0.4609062373638153 4456788 0 -1
-1.5260553359985352 2.2168872356414795 -0.4818565249443054 4456788 0 -1
-1.8996645212173462 1.8702319860458374 0.6075582504272461 4456788 0 -1
-1.5487849712371826 2.205549955368042 -0.4609062373638153 4657508 0 -1
-1.5319875478744507 2.1816294193267822 -0.6075582504272461 4724328 0 -1
-1.7915894985198975 2.0032503604888916 -0.5028068423271179 4600703 0 -1
-1.5130761861801147 2.242269515991211 -0.39805540442466736 4600703 0 -1
-1.6323941946029663 2.1897735595703125 -0.12570171058177948 4536450 0 -1
-1.5130761861801147 2.242269515991211 -0.39805540442466736 4536450 0 -1
-1.514754295349121 2.2447564601898193 -0.37710511684417725 4471684 0 -1
-1.550275444984436 2.2520716190338135 -0.020950283855199814 4341894 0 -1
-1.5254303216934204 2.260577440261841 -0.46639323234558105 4456788 0 -1
-1.5211840867996216 2.254284620285034 -0.5087926387786865 4456788 0 -1
-1.5140959024429321 2.2437806129455566 -0.5723916888237 4456788 0 -1
-1.5088860988616943 2.23606014251709 -0.6147910952568054 4456788 0 -1
-1.5088860988616943 2.23606014251709 -0.6147910952568054 4456788 0 -1
-1.5140959024429321 2.2437806129455566 -0.5723916888237 4456788 0 -1
-1.5165550708770752 2.247424840927124 -0.5511919856071472 4456788 0 -1
-1.5165550708770752 2.247424840927124 -0.5511919856071472 4456788 0 -1
-1.5397247076034546 2.2367446422576904 -0.5299922823905945 4456788 0 -1
-1.5373297929763794 2.2332656383514404 -0.5511919856071472 4456788 0 -1
-1.534837007522583 2.229644298553467 -0.5723916888237 4456788 0 -1
-1.5861916542053223 2.2588188648223877 -0.19079722464084625 4664956 0 -1
-1.8102169036865234 2.024078369140625 -0.5299922823905945 4600703 0 -1
-1.6664459705352783 2.191272497177124 -0.2755959928035736 4600703 0 -1
-1.58324134349823 2.25461745262146 -0.25439631938934326 4600703 0 -1
-1.7243022918701172 2.092280864715576 -0.5511919856071472 4536450 0 -1
-1.6636767387390137 2.1876308917999268 -0.3179953694343567 4536450 0 -1
-1.5274109840393066 2.26351261138916 -0.4451935291290283 4536450 0 -1
-1.7427579164505005 2.1146750450134277 0.3815944492816925 4471684 0 -1
-1.6605061292648315 2.183461904525757 -0.36039477586746216 4471684 0 -1
-1.5233547687530518 2.2575016021728516 -0.4875929057598114 4471684 0 -1
-1.7807180881500244 2.0325753688812256 -0.5935913920402527 4341894 0 -1
-1.7807180881500244 2.0325753688812256 -0.5935913920402527 4341894 0 -1
-1.6569318771362305 2.1787619590759277 -0.40279415249824524 4341894 0 -1
-1.5189175605773926 2.2509260177612305 -0.5299922823905945 4341894 0 -1
-1.694798469543457 2.1410584449768066 0.4451935291290283 10016830 0 -1
-1.5319088697433472 2.2701780796051025 -0.579125702381134 4456788 0 -1
-1.6894972324371338 2.221583366394043 -0.21449099481105804 4664956 0 -1
-1.6079267263412476 2.2897708415985107 -0.08579640090465546 4664956 0 -1
-1.9585092067718506 1.8862556219100952 -0.6649221181869507 10016830 0 -1
-1.972594976425171 1.8998216390609741 -0.579125702381134 10672695 0 -1
-1.604490041732788 2.5246803760528564 -0.1376732885837555 4456788 0 -1
-1.613564133644104 2.488609790802002 -0.41301989555358887 4456788 0 -1
-1.5832024812698364 2.4911842346191406 -0.5048021078109741 4456788 0 -1
-1.5890754461288452 2.500425338745117 -0.4359654188156128 4456788 0 -1
-1.6004111766815186 2.5182621479034424 -0.5102890729904175 4456788 0 -1
-1.6004111766815186 2.5182621479034424 -0.5102890729904175 4456788 0 -1
-1.6024891138076782 2.5215320587158203 -0.48709410429000854 4456788 0 -1
-1.6253818273544312 2.506836414337158 -0.48709410429000854 4456788 0 -1
-1.6044679880142212 2.5246455669403076 -0.4638991355895996 4456788 0 -1
-1.629295825958252 2.5128729343414307 -0.44070419669151306 4456788 0 -1
-1.6273889541625977 2.509932041168213 -0.4638991355895996 4456788 0 -1
-1.6273889541625977 2.509932041168213 -0.4638991355895996 4456788 0 -1
-1.632810354232788 2.5182933807373047 -0.3943142592906952 4456788 0 -1
-1.619720220565796 2.548645257949829 -0.49233168363571167 4456788 0 -1
-1.621720314025879 2.5517923831939697 -0.4688872992992401 4456788 0 -1
-1.6236205101013184 2.5547823905944824 -0.44544294476509094 4456788 0 -1
-1.6448876857757568 2.5369205474853516 -0.4688872992992401 4456788 0 -1
-1.619720220565796 2.548645257949829 -0.49233168363571167 4456788 0 -1
-1.621720314025879 2.5517923831939697 -0.4688872992992401 4456788 0 -1
-1.6468151807785034 2.53989315032959 -0.44544294476509094 4456788 0 -1
-1.6468151807785034 2.53989315032959 -0.44544294476509094 4456788 0 -1
-1.648641586303711 2.542710065841675 -0.4219985902309418 4456788 0 -1
-1.648641586303711 2.542710065841675 -0.4219985902309418 4456788 0 -1
-1.6408931016921997 2.581960916519165 -0.4501816928386688 4456788 0 -1
-1.6408931016921997 2.581960916519165 -0.4501816928386688 4456788 0 -1
-1.6427130699157715 2.584824562072754 -0.42648792266845703 4456788 0 -1
-1.6661803722381592 2.5697600841522217 -0.42648792266845703 4456788 0 -1
-1.6408931016921997 2.581960916519165 -0.4501816928386688 4456788 0 -1
-1.6408931016921997 2.581960916519165 -0.4501816928386688 4456788 0 -1
-1.6427130699157715 2.584824562072754 -0.42648792266845703 4456788 0 -1
-1.6661803722381592 2.5697600841522217 -0.42648792266845703 4456788 0 -1
-1.8071703910827637 2.3763163089752197 -0.8055883049964905 4456788 0 -1
-1.647572636604309 2.592471122741699 -0.35540661215782166 4456788 0 -1
-1.821682333946228 2.3953986167907715 -0.7108132243156433 4456788 0 -1
-1.9155864715576172 2.419982671737671 -0.18955019116401672 4456788 0 -1
-1.6617424488067627 2.6147677898406982 -0.40703409910202026 4456788 0 -1
-1.6633793115615845 2.6173431873321533 -0.38309091329574585 4456788 0 -1
-1.6633793115615845 2.6173431873321533 -0.38309091329574585 4456788 0 -1
-1.6871418952941895 2.6020894050598145 -0.38309091329574585 4456788 0 -1
-1.6617424488067627 2.6147677898406982 -0.40703409910202026 4456788 0 -1
-1.6633793115615845 2.6173431873321533 -0.38309091329574585 4456788 0 -1
-1.6633793115615845 2.6173431873321533 -0.38309091329574585 4456788 0 -1
-1.6617424488067627 2.6147677898406982 -0.40703409910202026 4456788 0 -1
-1.9153982400894165 2.468755006790161 -0.023943182080984116 4456788 0 -1
-1.939170002937317 2.4497759342193604 -0.04788636416196823 4456788 0 -1
-1.9145545959472656 2.467667579650879 -0.09577272832393646 4456788 0 -1
-1.9149483442306519 2.468175172805786 -0.07182954251766205 4456788 0 -1
-1.9393976926803589 2.450063705444336 0 4456788 0 -1
-2.173238515853882 2.282132625579834 -0.19354072213172913 4456788 0 -1
-1.5950225591659546 2.720916271209717 -0.14515553414821625 4456788 0 -1
-1.957527756690979 2.4729673862457275 0.14515553414821625 4456788 0 -1
-1.6402596235275269 2.6869263648986816 -0.2419258952140808 4456788 0 -1
-1.9333606958389282 2.4919066429138184 -0.14515553414821625 4456788 0 -1
-1.9351799488067627 2.4942514896392822 -0.04838518053293228 4456788 0 -1
-1.9339861869812012 2.49271297454834 -0.1209629476070404 4456788 0 -1
-1.9351799488067627 2.4942514896392822 -0.04838518053293228 4456788 0 -1
-1.9297171831130981 2.487210512161255 -0.2419258952140808 4456788 0 -1
-1.92578125 2.482137441635132 0.31450366973876953 4456788 0 -1
-2.0319387912750244 2.416078567504883 0.04838518053293228 4456788 0 -1
-1.9354071617126465 2.494544506072998 0 4456788 0 -1
-1.9344979524612427 2.4933724403381348 -0.09677036106586456 4456788 0 -1
-1.9344979524612427 2.4933724403381348 -0.09677036106586456 4456788 0 -1
-1.9348957538604736 2.4938852787017822 -0.07257776707410812 4456788 0 -1
-2.0074543952941895 2.4358596801757812 0.07257776707410812 2977934 0 -1
-1.9828603267669678 2.455087184906006 0.09677036106586456 4505456 0 -1
-1.9031181335449219 2.502481460571289 0.2903110682964325 4899181 0 -1
-1.6067875623703003 2.6320953369140625 0.6773925423622131 4899181 0 -1
-2.0531277656555176 2.4412734508514404 0 4456788 0 -1
-1.8726733922958374 2.5626707077026367 0.31774598360061646 4456788 0 -1
-1.9551302194595337 2.519965410232544 -0.04888399690389633 4456788 0 -1
-1.9308611154556274 2.538961887359619 -0.024441998451948166 4456788 0 -1
-2.0521631240844727 2.440126419067383 -0.09776799380779266 4456788 0 -1
-1.9544411897659302 2.5190773010253906 -0.09776799380779266 4456788 0 -1
-1.9544411897659302 2.5190773010253906 -0.09776799380779266 4456788 0 -1
-2.0041849613189697 2.48149037361145 0.024441998451948166 4456788 0 -1
-1.9699550867080688 2.4886670112609863 0.31774598360061646 4456788 0 -1
-2.0501723289489746 2.4377591609954834 0.17109398543834686 4456788 0 -1
-2.0516204833984375 2.439481019973755 -0.12220998853445053 4456788 0 -1
-2.053067445755005 2.441201686859131 -0.024441998451948166 4456788 0 -1
-2.049266815185547 2.4366824626922607 -0.19553598761558533 4456788 0 -1
-1.9777084589004517 2.498461961746216 0.1466519832611084 2977934 0 -1
-2.8111143112182617 1.449183702468872 -0.4155139625072479 2070155 0 -1
-2.638495683670044 1.7899529933929443 -0.09776799380779266 2070155 0 -1
-1.9300106763839722 2.5378434658050537 0.09776799380779266 2070155 0 -1
-1.7753915786743164 2.6310019493103027 0.31774598360061646 2070155 0 -1
-1.9019371271133423 2.551351547241211 0.2199779748916626 2072968 0 -1
-1.9792786836624146 2.500445604324341 0.0733259916305542 4505456 0 -1
-1.9459772109985352 2.5588386058807373 0.22222265601158142 4456788 0 -1
-2.0484237670898438 2.485572338104248 -0.09876562654972076 4456788 0 -1
-1.9501056671142578 2.564267158508301 -0.07407421618700027 4456788 0 -1
-1.9505637884140015 2.5648696422576904 0.02469140663743019 4456788 0 -1
-2.0237441062927246 2.5057075023651123 -0.09876562654972076 4456788 0 -1
-1.9259296655654907 2.583536386489868 0 4456788 0 -1
-2.0701775550842285 2.4615464210510254 0.19753125309944153 4456788 0 -1
-1.9706099033355713 2.5399169921875 0.22222265601158142 4456788 0 -1
-2.074017286300659 2.466111898422241 0.02469140663743019 4456788 0 -1
-2.0735299587249756 2.4655325412750244 -0.07407421618700027 4456788 0 -1
-2.074017286300659 2.466111898422241 -0.02469140663743019 4456788 0 -1
-2.0738346576690674 2.4658946990966797 -0.04938281327486038 4456788 0 -1
-2.0700268745422363 2.5117855072021484 -0.024940814822912216 4456788 0 -1
-2.0947823524475098 2.490802764892578 -0.04988162964582443 4456788 0 -1
-2.0944747924804688 2.4904370307922363 -0.07482244074344635 4456788 0 -1
-2.0944747924804688 2.4904370307922363 -0.07482244074344635 4456788 0 -1
-2.0949668884277344 2.4910221099853516 -0.024940814822912216 4456788 0 -1
-2.0949668884277344 2.4910221099853516 -0.024940814822912216 4456788 0 -1
-2.0949668884277344 2.4910221099853516 -0.024940814822912216 4456788 0 -1
-2.089806079864502 2.5357859134674072 -0.10076089203357697 4456788 0 -1
-2.0885777473449707 2.5342953205108643 -0.15114133059978485 4456788 0 -1
-2.089806079864502 2.5357859134674072 -0.10076089203357697 4456788 0 -1
-2.1157302856445312 2.5157108306884766 -0.05038044601678848 4456788 0 -1
-2.115419626235962 2.515341281890869 -0.07557066529989243 4456788 0 -1
-2.0907270908355713 2.5369033813476562 -0.02519022300839424 4456788 0 -1
-2.1406030654907227 2.4939446449279785 -0.07557066529989243 4456788 0 -1
-2.188394546508789 2.446934700012207 -0.1763315498828888 4456788 0 -1
-1.9814348220825195 2.6579935550689697 0.17807741463184357 4456788 0 -1
-2.110931396484375 2.5614194869995117 -0.0763188898563385 4456788 0 -1
-1.9821929931640625 2.659010648727417 0.152637779712677 4456788 0 -1
-2.111241340637207 2.561795473098755 -0.05087926238775253 4456788 0 -1
-2.0082552433013916 2.640730381011963 0.12719815969467163 4456788 0 -1
-2.2109076976776123 2.472107410430908 -0.152637779712677 4456788 0 -1
-2.2109076976776123 2.472107410430908 -0.152637779712677 4456788 0 -1
-2.237635612487793 2.450582981109619 -0.10175852477550507 4456788 0 -1
-3.0103683471679688 0.98795485496521 -0.9921455979347229 4657508 0 -1
-2.823798894882202 1.7461055517196655 0 4657508 0 -1
-1.159278154373169 2.931023597717285 1.0430248975753784 4657508 0 -1
2.915959358215332 1.3776686191558838 -0.7886285185813904 4657508 0 -1
-3.002692461013794 0.9854357242584229 -1.017585277557373 4728182 0 -1
2.9043240547180176 1.3721712827682495 -0.8395078182220459 4728182 0 -1
-3.0103683471679688 0.98795485496521 -0.9921455979347229 4729209 0 -1
-2.823798894882202 1.7461055517196655 0 4729209 0 -1
2.902022123336792 1.434126615524292 -0.7377492785453796 4729209 0 -1
-2.029195785522461 2.6682655811309814 0.05137807875871658 4456788 0 -1
-2.2325830459594727 2.4963436126708984 -0.15413422882556915 4456788 0 -1
-2.23172926902771 2.4953887462615967 -0.17982326447963715 4456788 0 -1
-2.2333054542541504 2.4971513748168945 -0.12844519317150116 4456788 0 -1
-2.2603700160980225 2.475480794906616 -0.05137807875871658 4456788 0 -1
-2.8493897914886475 1.7619297504425049 0.12844519317150116 4456788 0 -1
-2.873030662536621 1.718509554862976 0.17982326447963715 4657508 0 -1
-2.848468065261841 1.7613598108291626 0.15413422882556915 4728182 0 -1
-2.873030662536621 1.718509554862976 0.17982326447963715 4729209 0 -1
-2.866934061050415 1.7148629426956177 0.2825794219970703 4664956 0 -1
-2.8628623485565186 1.7124274969100952 0.3339574933052063 4600703 0 -1
-2.837301254272461 1.7544547319412231 0.3339574933052063 4471684 0 -1
-2.282315254211426 2.499514579772949 -0.051876895129680634 4456788 0 -1
-2.8965651988983154 1.7325868606567383 0.2593844532966614 4657508 0 -1
-2.894768238067627 1.7315120697021484 0.285322904586792 4728182 0 -1
-2.8965651988983154 1.7325868606567383 0.2593844532966614 4729209 0 -1
-2.8883421421051025 1.7276681661605835 0.36313825845718384 4664956 0 -1
-2.8883421421051025 1.7276681661605835 0.36313825845718384 4600703 0 -1
-2.8858535289764404 1.726179599761963 0.38907670974731445 4471684 0 -1
-2.7797434329986572 1.7188637256622314 0.8819071650505066 3107982 0 -1
-2.481455087661743 2.0808844566345215 0.985660970211029 3107982 0 -1
-2.77156662940979 1.7694861888885498 0.8040918707847595 2782862 0 -1
-2.475318670272827 2.0757386684417725 1.0115994215011597 2782862 0 -1
3.1467819213867188 1.0327235460281372 0.7003380656242371 2782862 0 -1
-2.8999314308166504 1.793182373046875 0.23569069802761078 4456788 0 -1
-2.898305892944336 1.7921772003173828 0.2618785500526428 4456788 0 -1
-2.903778314590454 1.7955609560012817 0.15712712705135345 4456788 0 -1
-2.92061448097229 1.7469719648361206 0.3142542541027069 4657508 0 -1
-2.922602653503418 1.7481611967086792 0.28806641697883606 4728182 0 -1
-2.92061448097229 1.7469719648361206 0.3142542541027069 4729209 0 -1
-2.916114568710327 1.744280457496643 0.366629958152771 4664956 0 -1
-2.916114568710327 1.744280457496643 0.366629958152771 4600703 0 -1
-2.887587785720825 1.7855496406555176 0.39281782507896423 4471684 0 -1
-2.8945376873016357 1.7898470163345337 0.3142542541027069 4341894 0 -1
-2.854495048522949 1.7074224948883057 0.7856356501579285 3107982 0 -1
-2.854495048522949 1.7074224948883057 0.7856356501579285 2782862 0 -1
-2.8948190212249756 1.7315424680709839 0.5499449372291565 2264205 0 -1
-2.9567110538482666 1.7685632705688477 0.18506084382534027 4456788 0 -1
-2.922104597091675 1.806893229484558 0.3172471523284912 4456788 0 -1
-2.922104597091675 1.806893229484558 0.3172471523284912 4456788 0 -1
-2.950437068939209 1.76481032371521 0.29080989956855774 4590430 0 -1
-2.922104597091675 1.806893229484558 0.3172471523284912 4657508 0 -1
-2.922104597091675 1.806893229484558 0.3172471523284912 4728182 0 -1
-2.922104597091675 1.806893229484558 0.3172471523284912 4729209 0 -1
-2.943887233734131 1.760892629623413 0.37012168765068054 4664956 0 -1
-2.919940948486328 1.8055553436279297 0.3436844050884247 4600703 0 -1
-2.9176025390625 1.8041092157363892 0.37012168765068054 4471684 0 -1
-2.919940948486328 1.8055553436279297 0.3436844050884247 4341894 0 -1
-3.0271494388580322 1.6869735717773438 0.3469267189502716 4590430 0 -1
-3.0333364009857178 1.6904213428497314 0.2668667137622833 4657508 0 -1
-2.780543088912964 1.9970571994781494 0.640480101108551 4657508 0 -1
-3.0616610050201416 1.642686128616333 0.24018004536628723 4728182 0 -1
-2.784510850906372 1.9999070167541504 0.6137934327125549 4728182 0 -1
-3.086552858352661 1.5911774635314941 0.2668667137622833 4729209 0 -1
-3.086552858352661 1.5911774635314941 0.2668667137622833 4729209 0 -1
-2.780543088912964 1.9970571994781494 0.640480101108551 4729209 0 -1
-2.978271245956421 1.7814595699310303 0.2935533821582794 4600703 0 -1
-2.782633066177368 1.8877357244491577 -0.9073468446731567 4600703 0 -1
-2.7035632133483887 1.8879445791244507 -1.1208401918411255 4536450 0 -1
-3.0948357582092285 1.5954475402832031 0.08006001263856888 4471684 0 -1
-2.9801199436187744 1.7825652360916138 0.2668667137622833 4471684 0 -1
-3.0616610050201416 1.642686128616333 0.24018004536628723 4341894 0 -1
-2.972898006439209 1.7177608013153076 -0.7542102336883545 4456788 0 -1
-2.846830129623413 2.044666290283203 0.2693607807159424 4456788 0 -1
-2.999206781387329 1.6714016199111938 -0.7542102336883545 4471684 0 -1
-2.894015312194824 1.9055615663528442 -0.5925937294960022 4471684 0 -1
-3.0742814540863037 1.6494574546813965 -0.4309772551059723 4341894 0 -1
-3.058760404586792 1.7045897245407104 -0.570895254611969 4725613 0 -1
-3.0661258697509766 1.7086944580078125 -0.5165242552757263 4536450 0 -1
-3.0661258697509766 1.7086944580078125 -0.5165242552757263 4536450 0 -1
-3.123378038406372 1.610161542892456 -0.48933878540992737 4212104 0 -1
-3.1009302139282227 1.7280901670455933 -0.46639323234558105 4726897 0 -1
-3.1039845943450928 1.7297923564910889 -0.4389583170413971 4341894 0 -1
-3.067112922668457 1.7721989154815674 -0.5212630033493042 4212104 0 -1
-3.1350953578948975 1.7471296787261963 -0.4152645468711853 4600703 0 -1
-3.1258482933044434 1.7419764995574951 -0.4983174800872803 4341894 0 -1
-3.1291205883026123 1.7438000440597534 -0.4706331491470337 4212104 0 -1
-3.1350953578948975 1.7471296787261963 -0.4152645468711853 4147337 0 -1
-2.11396861076355 2.951061725616455 0.335204541683197 4456788 0 -1
3.1604206562042236 1.7612431049346924 -0.4469393789768219 4456788 0 -1
-3.163339376449585 1.7628695964813232 -0.41900569200515747 4600703 0 -1
-3.1540091037750244 1.7576699256896973 -0.5028068423271179 4341894 0 -1
-3.157310724258423 1.7595100402832031 -0.4748730957508087 4212104 0 -1
-3.157310724258423 1.7595100402832031 -0.4748730957508087 4147337 0 -1
3.2578022480010986 1.466896653175354 -0.8736767172813416 4456788 0 -1
-2.194603681564331 2.8857669830322266 0.6200286149978638 4456788 0 -1
3.1992650032043457 1.7828903198242188 -0.3381974399089813 4456788 0 -1
3.2363932132720947 1.7364360094070435 -0.1972818374633789 4456788 0 -1
-2.962266683578491 2.009598970413208 0.8454936146736145 4456788 0 -1
-2.1516103744506836 2.9443836212158203 0.47911304235458374 4456788 0 -1
3.2333428859710693 1.7347993850708008 -0.2536480724811554 4456788 0 -1
-3.188638687133789 1.7769684791564941 -0.4509299099445343 4212104 0 -1
-3.285691261291504 1.62372887134552 -0.3100143074989319 4147337 0 -1
-3.160668134689331 1.8262557983398438 -0.4509299099445343 4147337 0 -1
-2.257443428039551 2.909616470336914 0.4549204409122467 4456788 0 -1
-1.311625361442566 3.2378127574920654 1.2510312795639038 4456788 0 -1
3.229774236679077 1.7998924255371094 -0.31275781989097595 4456788 0 -1
-2.2083423137664795 2.9623782634735107 0.3411903381347656 4456788 0 -1
-2.91994047164917 2.271998643875122 -0.2843252718448639 4456788 0 -1
-2.4104056358337402 2.6397945880889893 -0.9951384663581848 4456788 0 -1
-3.5900940895080566 0.8494981527328491 0.39805540442466736 4456788 0 -1
-2.993941307067871 2.0310871601104736 0.824543297290802 4456788 0 -1
-2.855332851409912 2.2217276096343994 0.824543297290802 4456788 0 -1
-2.3607592582702637 2.694655179977417 0.9667059779167175 4456788 0 -1
-2.2771754264831543 2.8194947242736816 0.7961108088493347 4456788 0 -1
-2.8668460845947266 2.4040634632110596 0.11472774296998978 4456788 0 -1
-2.206887722015381 3.0200283527374268 0.14340968430042267 4456788 0 -1
-2.789625644683838 2.4533402919769287 0.4589109718799591 4456788 0 -1
-2.0973920822143555 3.046863079071045 0.5736387372016907 4456788 0 -1
-1.7306588888168335 3.2056078910827637 0.8604580760002136 4456788 0 -1
-3.0388569831848145 2.182584762573242 -0.11472774296998978 4456788 0 -1
-2.343339443206787 2.8434250354766846 -0.6596845388412476 4456788 0 -1
-2.0635833740234375 3.1197032928466797 -0.14340968430042267 4456788 0 -1
3.281151294708252 1.5502064228057861 -0.9178219437599182 4456788 0 -1
-2.846616506576538 2.158010244369507 -1.1185954809188843 4456788 0 -1
-1.3377745151519775 3.302363395690918 1.1472774744033813 4456788 0 -1
-2.8008275032043457 2.4631917476654053 0.31550130248069763 4456788 0 -1
-2.7544844150543213 2.4224352836608887 0.7457303404808044 4456788 0 -1
-2.745375156402588 2.414424180984497 -0.803094208240509 4456788 0 -1
-2.7922019958496094 2.455605983734131 0.4302290380001068 4456788 0 -1
-2.789625644683838 2.4533402919769287 0.4589109718799591 4456788 0 -1
-2.985943555831909 2.2040607929229736 0.4875929057598114 4456788 0 -1
-3.2311174869537354 1.8006410598754883 0.5736387372016907 4657508 0 -1
-2.768310546875 2.491770029067993 0.3728651702404022 4657508 0 -1
-3.040195941925049 2.183546543121338 0.028681935742497444 4471684 0 -1
-2.9417243003845215 2.2889485359191895 0.3441832363605499 2666112 0 -1
0.9194139242172241 3.517896890640259 -0.8891400098800659 2666112 0 -1
-2.892794609069824 2.425823211669922 0.05786268785595894 4456788 0 -1
-3.0955629348754883 2.16168475151062 -0.02893134392797947 4456788 0 -1
-2.8923699855804443 2.425467014312744 0.08679403364658356 4456788 0 -1
-2.8557825088500977 2.4529638290405273 0.2893134355545044 4456788 0 -1
-2.7711246013641357 2.3802473545074463 -0.9547343850135803 4456788 0 -1
-2.847675323486328 2.446000337600708 0.40503883361816406 4456788 0 -1
-2.8268795013427734 2.42813777923584 0.6075582504272461 4456788 0 -1
-2.8425965309143066 2.4416377544403076 0.4629015028476715 4456788 0 -1
-2.8425965309143066 2.4416377544403076 0.4629015028476715 4456788 0 -1
-2.839799165725708 2.439235210418701 0.4918328523635864 4456788 0 -1
-2.8499577045440674 2.44796085357666 0.37610748410224915 4456788 0 -1
-2.886246681213379 2.420332431793213 -0.2603820860385895 4456788 0 -1
-2.836829423904419 2.4366843700408936 0.520764172077179 4657508 0 -1
-2.815355062484741 2.418238878250122 0.6943522691726685 2977934 0 -1
-2.8881311416625977 2.4807496070861816 0.08754225820302963 4456788 0 -1
-2.2303645610809326 2.9327900409698486 0.9629648327827454 4456788 0 -1
-2.9012365341186523 2.4329023361206055 0.4085305333137512 4456788 0 -1
-2.896062135696411 2.428563356399536 0.4668920338153839 4456788 0 -1
-2.90356183052063 2.434852361679077 0.37934979796409607 4456788 0 -1
-2.90356183052063 2.434852361679077 0.37934979796409607 4456788 0 -1
-2.8987367153167725 2.4308061599731445 0.43771129846572876 4456788 0 -1
-2.8987367153167725 2.4308061599731445 0.43771129846572876 4456788 0 -1
-2.896062135696411 2.428563356399536 0.4668920338153839 4456788 0 -1
-2.8901867866516113 2.4236364364624023 0.5252535343170166 4456788 0 -1
-2.89321231842041 2.426173448562622 0.49607279896736145 4456788 0 -1
-2.89321231842041 2.426173448562622 0.49607279896736145 4456788 0 -1
-2.896062135696411 2.428563356399536 0.4668920338153839 4456788 0 -1
-2.8987367153167725 2.4308061599731445 0.43771129846572876 4456788 0 -1
-2.90356183052063 2.434852361679077 0.37934979796409607 4456788 0 -1
-2.8869848251342773 2.4209513664245605 0.5544342994689941 4456788 0 -1
-2.8901867866516113 2.4236364364624023 0.5252535343170166 4657508 0 -1
-2.876314878463745 2.412003755569458 0.641976535320282 4505456 0 -1
-2.9260334968566895 2.4536962509155273 0.41202226281166077 4456788 0 -1
-2.9208149909973145 2.4493203163146973 0.4708825647830963 4456788 0 -1
-2.9260334968566895 2.4536962509155273 0.41202226281166077 4456788 0 -1
-2.9260334968566895 2.4536962509155273 0.41202226281166077 4456788 0 -1
-2.9235122203826904 2.451582193374634 0.44145241379737854 4456788 0 -1
-2.9260334968566895 2.4536962509155273 0.41202226281166077 4456788 0 -1
-2.9235122203826904 2.451582193374634 0.44145241379737854 4456788 0 -1
-2.9208149909973145 2.4493203163146973 0.4708825647830963 4456788 0 -1
-2.888761281967163 2.4812910556793213 0.5003127455711365 4456788 0 -1
-2.8916068077087402 2.4837350845336914 0.4708825647830963 4456788 0 -1
-2.914889335632324 2.4443511962890625 0.5297428965568542 4456788 0 -1
-2.9208149909973145 2.4493203163146973 0.4708825647830963 4456788 0 -1
-2.9260334968566895 2.4536962509155273 0.41202226281166077 4456788 0 -1
-2.896773099899292 2.4881725311279297 0.41202226281166077 4456788 0 -1
-2.888761281967163 2.4812910556793213 0.5003127455711365 4456788 0 -1
-2.37262225151062 3.058070659637451 0.14839784801006317 4456788 0 -1
-2.1867892742156982 3.052718162536621 -0.9497461915016174 4456788 0 -1
-2.97125244140625 2.3715531826019287 -0.7419891953468323 4456788 0 -1
-2.88932204246521 2.541018486022949 0.4451935291290283 4456788 0 -1
-2.903569459915161 2.4940104484558105 0.5935913920402527 4456788 0 -1
-2.9777705669403076 2.436768054962158 0.4451935291290283 4456788 0 -1
-2.877608299255371 2.530716896057129 0.5639117956161499 4456788 0 -1
-2.9849376678466797 2.4426329135894775 0.35615482926368713 4456788 0 -1
-2.982727527618408 2.440824270248413 0.38583439588546753 4456788 0 -1
-2.8377182483673096 2.5542445182800293 0.6529505252838135 4456788 0 -1
-2.9455676078796387 2.4700772762298584 0.4748730957508087 4456788 0 -1
-2.800645589828491 2.579176664352417 0.7123096585273743 4456788 0 -1
-2.9363350868225098 2.4623351097106934 0.5639117956161499 4456788 0 -1
-2.2147443294525146 3.2173397541046143 0 4456788 0 -1
3.4368417263031006 1.6984246969223022 -0.7482244372367859 4456788 0 -1
-2.2669410705566406 2.921858072280884 1.2570170164108276 4456788 0 -1
-2.1475539207458496 3.1825196743011475 0.7182954549789429 4456788 0 -1
-3.0006918907165527 2.3950507640838623 0.7182954549789429 4456788 0 -1
-2.8863582611083984 2.5980255603790283 0.41900569200515747 4456788 0 -1
-2.233309507369995 2.99587082862854 1.1373010873794556 4456788 0 -1
-2.8863582611083984 2.5980255603790283 0.41900569200515747 4456788 0 -1
-2.222106456756592 2.980842351913452 1.1971590518951416 4456788 0 -1
-2.7739644050598145 2.554605484008789 1.017585277557373 4456788 0 -1
-2.262315511703491 3.221654176712036 0.12071353942155838 4456788 0 -1
-2.233884572982788 3.1811671257019043 0.6337460875511169 4456788 0 -1
-2.222093343734741 3.228015899658203 0.392318993806839 4456788 0 -1
-2.405679702758789 3.1006782054901123 0.3319622278213501 4456788 0 -1
-2.259122371673584 3.217107057571411 0.24142707884311676 4456788 0 -1
-2.2163538932800293 3.2196779251098633 0.4828541576862335 4456788 0 -1
-2.8844895362854004 2.4776217937469482 1.0260651111602783 4456788 0 -1
-2.767944574356079 2.607177257537842 1.0260651111602783 4456788 0 -1
-2.607191801071167 2.680168867111206 1.2373137474060059 4456788 0 -1
-2.2777929306030273 3.24369478225708 0.24342234432697296 4456788 0 -1
-2.2796714305877686 3.2463700771331787 0.18256676197052002 4456788 0 -1
-2.272416830062866 3.236039161682129 0.36513352394104004 4456788 0 -1
-2.272416830062866 3.236039161682129 0.36513352394104004 4456788 0 -1
-2.2324719429016113 3.2430925369262695 0.5172724723815918 4456788 0 -1
-3.024177074432373 2.5976059436798096 0.36812642216682434 4456788 0 -1
-2.385787010192871 3.200411319732666 0.30677202343940735 4456788 0 -1
-2.356520891189575 3.224794864654541 0.27609482407569885 4456788 0 -1
-2.356520891189575 3.224794864654541 0.27609482407569885 4456788 0 -1
-2.385787010192871 3.200411319732666 0.30677202343940735 4456788 0 -1
-3.12319016456604 2.4928245544433594 0.24541760981082916 4456788 0 -1
-2.3138794898986816 3.2301337718963623 0.4908352196216583 4456788 0 -1
-2.3645570278167725 3.1719324588775635 0.6135440468788147 4456788 0 -1
2.8639516830444336 3.269016981124878 -0.3676275908946991 4590430 5 -1
2.865729570388794 3.2710461616516113 0.3342069089412689 4726897 5 -1
-2.5913796424865723 3.5461885929107666 0.1346803903579712 4456788 0 -1
-2.5906941890716553 3.545250654220581 0.16835050284862518 4456788 0 -1
-2.5906941890716553 3.545250654220581 0.16835050284862518 4456788 0 -1
-2.5898561477661133 3.5441038608551025 0.20202060043811798 4456788 0 -1
2.790595293045044 3.3861286640167236 -0.23569069802761078 4590430 5 -1
2.722149133682251 3.438922643661499 -0.2693607807159424 4664956 5 -1
3.025946855545044 3.177567481994629 0.23569069802761078 4664956 5 -1
2.9778103828430176 3.261197328567505 0.305275559425354 4729209 5 -1
3.0065114498138428 3.2926297187805176 0.0683378279209137 4728182 5 -1
2.915147066116333 3.3963398933410645 0.3786015510559082 4456788 5 -1
2.9213461875915527 3.403562307357788 0.2409282624721527 4456788 5 -1
2.9557149410247803 3.3737587928771973 0.2409282624721527 4456788 5 -1
2.9578027725219727 3.3761417865753174 0.17209161818027496 4456788 5 -1
2.958585262298584 3.377034902572632 0.1376732885837555 4456788 5 -1
2.9512736797332764 3.3686892986297607 0.3441832363605499 4590430 5 -1
2.95440936088562 3.3722686767578125 0.275346577167511 4657508 5 -1
2.9494428634643555 3.3665995597839355 0.3786015510559082 4725613 5 -1
2.979501247406006 3.3315036296844482 0.44743821024894714 4728182 5 -1
2.9512736797332764 3.3686892986297607 0.3441832363605499 4664956 5 -1
2.8386619091033936 3.5147016048431396 0.24267412722110748 4456788 5 -1
2.9453728199005127 3.4315547943115234 0.1386709213256836 4456788 5 -1
2.944593667984009 3.430647134780884 0.1733386516571045 4456788 5 -1
2.909010171890259 3.458961009979248 0.20800639688968658 4456788 5 -1
2.9800240993499756 3.401506185531616 0.1386709213256836 4456788 5 -1
2.977133274078369 3.3982062339782715 0.24267412722110748 4456788 5 -1
2.9782724380493164 3.3995068073272705 0.20800639688968658 4456788 5 -1
2.9806370735168457 3.4022059440612793 0.10400319844484329 4456788 5 -1
2.932101249694824 3.41609263420105 0.45068052411079407 4590430 5 -1
3.0117509365081787 3.367563486099243 0.24267412722110748 4725613 5 -1
2.975818157196045 3.396705389022827 0.2773418426513672 4664956 5 -1
2.975818157196045 3.396705389022827 -0.2773418426513672 2718350 5 -1
2.933039665222168 3.4875333309173584 0 4456788 5 -1
2.860177993774414 3.541341781616211 0.20950284600257874 4456788 5 -1
2.896760940551758 3.514950752258301 0.1396685540676117 4456788 5 -1
2.9329535961151123 3.487431049346924 0.034917138516902924 4456788 5 -1
2.9308862686157227 3.4849729537963867 0.17458570003509521 4456788 5 -1
3.0020804405212402 3.426682233810425 0.10475142300128937 4456788 5 -1
2.9972269535064697 3.421142101287842 0.2793371081352234 4456788 5 -1
3.0374343395233154 3.3962812423706055 0.06983427703380585 4456788 5 -1
