VERSION .7
FIELDS x y z rgb label object
SIZE 4 4 4 4 4 4
TYPE F F F I I I
COUNT 1 1 1 1 1 1
WIDTH 680
HEIGHT 1
POINTS 680
VIEWPOINT 0 0 0 1 0 0 0
DATA ascii
0.6336109042167664 0.31311899423599243 -0.11522655934095383 2199437 0 -1
0.6736292243003845 0.23891477286815643 -0.04389583319425583 2199437 0 -1
-0.6623857617378235 0.2676835060119629 0.22371910512447357 4590430 0 -1
0.6240659356117249 0.3477802276611328 0.22371910512447357 4590430 0 -1
0.6017982363700867 0.4082593619823456 0.17782799899578094 4729209 0 -1
0.6245894432067871 0.33511367440223694 0.2409282624721527 4729209 0 -1
-0.6102603077888489 0.35261261463165283 0.25240105390548706 4664956 0 -1
0.5882969498634338 0.422529935836792 0.1893007755279541 4017546 0 -1
0.6102603077888489 0.35261261463165283 0.25240105390548706 4017546 0 -1
-0.6306535601615906 0.389966756105423 0.10325497388839722 2977934 0 -1
-0.9113702774047852 0.43058425188064575 0.04638991504907608 4523353 0 -1
-0.9579959511756897 0.5139976739883423 -0.34044212102890015 4456788 0 -1
0.7580663561820984 0.7792850732803345 0.34044212102890015 4456788 0 -1
-0.9353176951408386 0.5594623684883118 -0.33171284198760986 4456788 0 -1
1.0236533880233765 0.3888813853263855 -0.3142542541027069 4456788 0 -1
-0.9481379389762878 0.5478406548500061 -0.3142542541027069 4456788 0 -1
0.9613295197486877 0.4955838918685913 -0.3579006791114807 4456788 0 -1
-0.97430819272995 0.5429636240005493 -0.35914772748947144 4456788 0 -1
0.9918478727340698 0.4901531934738159 -0.38608381152153015 4456788 0 -1
-0.9729629158973694 0.5621846914291382 -0.3322116434574127 4456788 0 -1
-0.17208722233772278 1.594927430152893 -0.2743489444255829 4590430 0 -1
0.1360057145357132 1.6078665256500244 -0.211996927857399 4590430 0 -1
0.22422997653484344 1.6102166175842285 -0.07482244074344635 4590430 0 -1
0.33550286293029785 1.5865988731384277 0.13717447221279144 4729209 0 -1
1.121402382850647 1.1527910232543945 0.24940814077854156 4664956 0 -1
-0.1138177365064621 1.6465160846710205 -0.17807741463184357 4590430 0 -1
-0.03810451552271843 1.6571968793869019 -0.08903870731592178 4590430 0 -1
0.22889617085456848 1.6437249183654785 -0.03815944492816925 4729209 0 -1
-0.4401469826698303 1.5337103605270386 -0.457913339138031 4664956 0 -1
0.25247722864151 1.6280410289764404 -0.20351704955101013 4664956 0 -1
0.7496755719184875 1.4791359901428223 -0.0763188898563385 4664956 0 -1
1.1305489540100098 1.1621936559677124 0.35615482926368713 4664956 0 -1
-0.05083697661757469 1.6578656435012817 -0.3371998071670532 4456788 0 -1
0.9717178344726562 1.411605954170227 0.3905731439590454 4456788 0 -1
0.2503565549850464 1.701324224472046 0.3636370599269867 4456788 0 -1
0.335801362991333 1.6517661809921265 0.4983174800872803 4456788 0 -1
0.04115234315395355 1.7897495031356812 0 4456788 0 -1
0.15002121031284332 1.7735583782196045 0.19204427301883698 4456788 0 -1
1.6756086349487305 0.5499079823493958 -0.4609062373638153 4456788 0 -1
0.041880883276462555 1.8214342594146729 0.05586742237210274 4456788 0 -1
-1.286192536354065 1.1577084064483643 -0.5726410746574402 4729209 0 -1
-0.1528712958097458 1.807252287864685 -0.18156912922859192 4729209 0 -1
-0.1528712958097458 1.807252287864685 -0.18156912922859192 4729209 0 -1
0.35966768860816956 1.7691617012023926 -0.25140342116355896 4664956 0 -1
0.8020966649055481 1.5170620679855347 0.6145416498184204 4664956 0 -1
-1.8142311573028564 1.6329985857009888 0.037411220371723175 4456788 0 -1
-1.8125256299972534 1.6314634084701538 -0.11223366111516953 4523353 0 -1
-2.3882622718811035 0.644470751285553 0.018955018371343613 4456788 0 -1
-1.8389298915863037 1.5795421600341797 0.4928304851055145 4456788 0 -1
-1.3843930959701538 2.0110957622528076 0.39805540442466736 4456788 0 -1
-0.9408182501792908 2.216076612472534 0.5686505436897278 4456788 0 -1
1.950933575630188 1.5180165767669678 -0.09477509558200836 4456788 0 -1
-1.8210647106170654 1.6391494274139404 0.3411903381347656 4456788 0 -1
-1.8575372695922852 1.6336138248443604 -0.018955018371343613 4456788 0 -1
-1.8571009635925293 1.633230209350586 -0.05686505511403084 4456788 0 -1
-1.8571009635925293 1.633230209350586 -0.05686505511403084 4523353 0 -1
-1.856227993965149 1.6324623823165894 -0.09477509558200836 4590430 0 -1
-1.8540984392166138 1.6305896043777466 0.1516401469707489 4724328 0 -1
-2.0883665084838867 1.2066725492477417 0.5496955513954163 4600703 0 -1
-1.8764454126358032 1.4225268363952637 0.7582007646560669 4600703 0 -1
2.359339952468872 0.7080079317092896 -0.22746022045612335 4017546 0 -1
-1.4310344457626343 1.997698187828064 0.2843252718448639 4045940 0 -1
-2.4004828929901123 0.7203543782234192 0.019204426556825638 4456788 0 -1
-1.6468746662139893 1.841438889503479 0.42249739170074463 4456788 0 -1
-1.8793246746063232 1.6527748107910156 -0.13443098962306976 4456788 0 -1
-1.8886384963989258 1.622239112854004 0.28806641697883606 4456788 0 -1
-1.8815364837646484 1.6547200679779053 -0.05761327967047691 4456788 0 -1
-1.8815364837646484 1.6547200679779053 -0.05761327967047691 4456788 0 -1
-1.8815364837646484 1.6547200679779053 -0.05761327967047691 4523353 0 -1
-1.8800437450408936 1.6534072160720825 -0.11522655934095383 4590430 0 -1
-1.8775532245635986 1.651216983795166 0.17283983528614044 4724328 0 -1
-1.8830678462982178 1.6174542903900146 0.3456796705722809 4600703 0 -1
-2.240312099456787 1.107121467590332 0.19204427301883698 4017546 0 -1
-1.9059721231460571 1.6762099266052246 -0.05836150422692299 4456788 0 -1
-1.9059721231460571 1.6762099266052246 -0.05836150422692299 4456788 0 -1
-1.9062519073486328 1.676456093788147 -0.038907669484615326 4523353 0 -1
-1.9055801630020142 1.6758651733398438 -0.07781533896923065 4590430 0 -1
-1.9037314653396606 1.6742393970489502 0.13617683947086334 4724328 0 -1
-1.9505637884140015 1.6754297018051147 -0.019703242927789688 4456788 0 -1
-1.8698288202285767 1.761225700378418 0.11821945756673813 4456788 0 -1
-1.9309178590774536 1.698148488998413 0 4523353 0 -1
-1.8507450819015503 1.7824671268463135 0.09851621836423874 4523353 0 -1
-1.58101224899292 2.3429458141326904 -0.17358806729316711 4456788 0 -1
-2.138798236846924 1.7935413122177124 -0.47736719250679016 4456788 0 -1
-1.4943814277648926 2.3991289138793945 -0.17358806729316711 4456788 0 -1
-1.5188956260681152 2.3899967670440674 0 4456788 0 -1
-1.6896506547927856 2.221785068511963 -0.47736719250679016 4456788 0 -1
-1.5160391330718994 2.3855020999908447 -0.17358806729316711 4456788 0 -1
-1.5793342590332031 2.340459108352661 -0.2169850766658783 4456788 0 -1
-1.475325345993042 2.416745662689209 -0.04339701682329178 4456788 0 -1
-1.7037335634231567 2.1959404945373535 -0.5424627065658569 4456788 0 -1
-1.595048427581787 2.317112922668457 -0.32547762989997864 4456788 0 -1
-1.2758126258850098 2.46437668800354 -0.5641612410545349 4456788 0 -1
-1.7620123624801636 2.1380386352539062 -0.5858597159385681 4456788 0 -1
-1.6333260536193848 2.2800934314727783 -0.3905731439590454 4456788 0 -1
-1.5160391330718994 2.3855020999908447 -0.17358806729316711 4456788 0 -1
-1.5556743144989014 2.35185170173645 -0.2603820860385895 4456788 0 -1
-1.6939337253570557 2.2274169921875 -0.4339701533317566 4456788 0 -1
-1.1844152212142944 2.548677682876587 -0.34717613458633423 4456788 0 -1
-1.5519390106201172 2.346204996109009 -0.32547762989997864 4456788 0 -1
-1.7982615232467651 2.0950942039489746 -0.6292567253112793 4590430 0 -1
-1.3328291177749634 2.418001413345337 -0.6292567253112793 4590430 0 -1
-1.539870262145996 2.3749513626098633 -0.08679403364658356 4728182 0 -1
-1.5861936807632446 2.170635938644409 -0.8896388411521912 4664956 0 -1
-1.7523396015167236 2.2137508392333984 -0.4828541576862335 4456788 0 -1
-1.2811304330825806 2.527714967727661 -0.41701042652130127 4456788 0 -1
-1.1574541330337524 2.604501247406006 -0.285322904586792 4456788 0 -1
-1.0497511625289917 2.654104471206665 -0.24142707884311676 4456788 0 -1
-1.5537207126617432 2.396312952041626 -0.21947915852069855 4456788 0 -1
-1.4677449464797974 2.4534528255462646 -0.17558333277702332 4456788 0 -1
-2.0730202198028564 1.9526153802871704 -0.3072708249092102 4456788 0 -1
-1.6917154788970947 2.269350051879883 -0.4389583170413971 4456788 0 -1
-1.5929523706436157 2.360640287399292 -0.3072708249092102 4456788 0 -1
-1.3607308864593506 2.5204098224639893 -0.021947916597127914 4456788 0 -1
-1.700592279434204 2.2812576293945312 -0.3292187452316284 4456788 0 -1
-1.578579068183899 2.386478900909424 -0.1316874921321869 4456788 0 -1
-2.1878530979156494 1.7903629541397095 -0.4609062373638153 4456788 0 -1
-1.4265726804733276 2.4837357997894287 -0.021947916597127914 4456788 0 -1
-2.2039477825164795 1.803533673286438 -0.3072708249092102 4456788 0 -1
-2.0835213661193848 1.9625065326690674 -0.10973957926034927 4456788 0 -1
-1.4924144744873047 2.444739818572998 0.021947916597127914 4456788 0 -1
-1.7206361293792725 2.217726230621338 -0.570645809173584 4456788 0 -1
-1.5493098497390747 2.389510154724121 -0.3072708249092102 4456788 0 -1
-1.689629077911377 2.2665512561798096 -0.4609062373638153 4456788 0 -1
-1.5537207126617432 2.396312952041626 -0.21947915852069855 4456788 0 -1
-1.5537207126617432 2.396312952041626 -0.21947915852069855 4456788 0 -1
-1.6569873094558716 2.313124179840088 -0.3292187452316284 4456788 0 -1
-1.4703377485275269 2.457786798477173 -0.04389583319425583 4456788 0 -1
-1.0093374252319336 2.6798205375671387 -0.06584374606609344 4456788 0 -1
-1.715411901473999 2.255659580230713 -0.41701042652130127 4456788 0 -1
-1.470467209815979 2.458003282546997 0.021947916597127914 4456788 0 -1
-1.6520999670028687 2.3063015937805176 -0.39506250619888306 4456788 0 -1
-1.4701218605041504 2.457425832748413 -0.06584374606609344 4456788 0 -1
-2.119929075241089 1.908158779144287 -0.2633749842643738 4456788 0 -1
-1.4705103635787964 2.4580752849578857 0 4456788 0 -1
-1.3103253841400146 2.5310420989990234 0.285322904586792 4456788 0 -1
-1.630361795425415 2.3217194080352783 -0.39506250619888306 4456788 0 -1
-1.4896516799926758 2.440213918685913 -0.17558333277702332 4456788 0 -1
-1.5746266841888428 2.3805038928985596 -0.24142707884311676 4456788 0 -1
-1.8221302032470703 2.1229026317596436 -0.6145416498184204 4456788 0 -1
-1.5576351881027222 2.354816198348999 -0.4828541576862335 4456788 0 -1
-1.578579068183899 2.386478900909424 -0.1316874921321869 4728182 0 -1
-1.924095630645752 1.977952241897583 -0.7681770920753479 4729209 0 -1
-1.4439576864242554 2.3653621673583984 -0.7242812514305115 4729209 0 -1
-2.0144011974334717 2.026747226715088 -0.19753125309944153 5424489 0 -1
-1.8875207901000977 2.1544837951660156 0 5424489 0 -1
-1.4046666622161865 2.496286630630493 0 5424489 0 -1
-1.2705851793289185 2.5611166954040527 0.17558333277702332 5424489 0 -1
-2.1520776748657227 1.848519206047058 0.39506250619888306 8705099 0 -1
-1.935715675354004 2.0327084064483643 0.570645809173584 8705099 0 -1
-1.1938652992248535 2.4589710235595703 0.855968713760376 8705099 0 -1
-1.5711311101913452 2.3752193450927734 -0.3072708249092102 10672695 0 -1
-2.228688955307007 1.7788641452789307 -0.5105384588241577 4456788 0 -1
-1.6344324350357056 2.374325752258301 -0.2885652184486389 4456788 0 -1
-1.4428261518478394 2.5120339393615723 0 4456788 0 -1
-2.218740701675415 1.7709238529205322 -0.5771304368972778 4456788 0 -1
-1.7994753122329712 2.1834964752197266 -0.6215251088142395 4456788 0 -1
-1.6890044212341309 2.3113279342651367 -0.4439464807510376 4456788 0 -1
-1.5713766813278198 2.423543930053711 -0.2219732403755188 4456788 0 -1
-1.6577467918395996 2.3607170581817627 -0.2663678824901581 4456788 0 -1
-1.5087089538574219 2.4714317321777344 -0.08878929913043976 4456788 0 -1
-2.222827911376953 1.818983554840088 -0.37735453248023987 4456788 0 -1
-2.1047801971435547 1.9825305938720703 -0.17757859826087952 4456788 0 -1
-1.7349052429199219 2.281291961669922 -0.42174917459487915 4456788 0 -1
-1.637772798538208 2.379178285598755 -0.2219732403755188 4456788 0 -1
-1.4871771335601807 2.4859349727630615 0.02219732478260994 4456788 0 -1
-1.7455004453659058 2.2497737407684326 -0.5327357649803162 4456788 0 -1
-1.5294106006622314 2.4553658962249756 -0.15538127720355988 4456788 0 -1
-1.1466114521026611 2.639409303665161 -0.3329598605632782 4456788 0 -1
-1.997700572013855 2.097799062728882 -0.02219732478260994 4456788 0 -1
-1.6616685390472412 2.366302013397217 -0.17757859826087952 4456788 0 -1
-1.4856481552124023 2.483379364013672 0.13318394124507904 4456788 0 -1
-1.5935087203979492 2.4090495109558105 -0.2219732403755188 4456788 0 -1
-1.647061824798584 2.345501184463501 -0.42174917459487915 4456788 0 -1
-1.4856481552124023 2.483379364013672 -0.13318394124507904 4456788 0 -1
-1.708829402923584 2.2923073768615723 -0.46614381670951843 4456788 0 -1
-1.5925202369689941 2.407555103302002 -0.24417057633399963 4456788 0 -1
-1.5753356218338013 2.381575584411621 -0.48834115266799927 4456788 0 -1
-1.597033977508545 2.4143788814544678 -0.1109866201877594 4728182 0 -1
-1.9621431827545166 2.0170648097991943 -0.6881170868873596 4729209 0 -1
-1.4689968824386597 2.406379222869873 -0.6659197211265564 4729209 0 -1
-1.5709104537963867 2.4228248596191406 -0.4938281178474426 4456788 0 -1
-2.305199384689331 1.8399320840835571 -0.2723536789417267 4456788 0 -1
-1.405135154724121 2.6026573181152344 -0.15887299180030823 4456788 0 -1
1.0145578384399414 2.761927366256714 -0.34044212102890015 4456788 0 -1
-2.766324043273926 0.9078633785247803 -0.5447073578834534 4456788 0 -1
-2.0638325214385986 2.121600389480591 -0.11348070204257965 4456788 0 -1
-1.95163893699646 2.227670431137085 -0.04539228230714798 4456788 0 -1
-1.5623054504394531 2.508176326751709 -0.2042652666568756 4456788 0 -1
-1.4521691799163818 2.580705165863037 -0.06808841973543167 4456788 0 -1
-1.7401070594787598 2.3342647552490234 -0.5447073578834534 4456788 0 -1
-1.5819995403289795 2.4892914295196533 -0.2723536789417267 4456788 0 -1
-2.087064027786255 2.099855422973633 -0.09078456461429596 4456788 0 -1
-1.8608649969100952 2.3040380477905273 0.04539228230714798 4456788 0 -1
2.5990846157073975 1.111188530921936 -0.8851494789123535 4456788 0 -1
-1.8835585117340088 2.2855234146118164 0.04539228230714798 4456788 0 -1
-2.143691301345825 2.019181728363037 -0.31774598360061646 4456788 0 -1
-2.444772958755493 1.7072267532348633 0.275346577167511 4456788 0 -1
-1.8408266305923462 2.32553768157959 0.41301989555358887 4456788 0 -1
-1.9730855226516724 2.252150297164917 -0.04589109867811203 4456788 0 -1
-1.8550941944122314 2.343562126159668 0.18356439471244812 4456788 0 -1
-2.542166233062744 1.571956992149353 -0.18356439471244812 4456788 0 -1
-2.382901906967163 1.8064699172973633 0.1606188416481018 4456788 0 -1
-2.0563509464263916 2.159388303756714 -0.275346577167511 4456788 0 -1
-1.8100889921188354 2.3801538944244385 0.1606188416481018 4456788 0 -1
-1.8100889921188354 2.3801538944244385 0.1606188416481018 4456788 0 -1
-2.168985605239868 2.0430068969726562 -0.2982921302318573 4456788 0 -1
-2.126342535018921 2.093397855758667 -0.25240105390548706 4456788 0 -1
-1.9503144025802612 2.2722458839416504 -0.022945549339056015 4456788 0 -1
-2.2595601081848145 1.8490421772003174 -0.6654209494590759 4456788 0 -1
-2.140610694885254 2.0616390705108643 -0.36712878942489624 4456788 0 -1
-1.8566242456436157 2.3454949855804443 0.1376732885837555 4456788 0 -1
-1.8566242456436157 2.3454949855804443 0.1376732885837555 4456788 0 -1
-2.348792791366577 1.6402021646499634 -0.8719308376312256 4456788 0 -1
-1.8183791637420654 2.2971794605255127 -0.6195298433303833 4456788 0 -1
-2.142587661743164 2.0635430812835693 -0.3441832363605499 4456788 0 -1
-1.857224941253662 2.3462538719177246 -0.11472774296998978 4456788 0 -1
-1.973317265510559 2.2524149417877197 0 4590430 0 -1
-1.8779966831207275 2.325249671936035 0.18356439471244812 4724328 0 -1
-2.144683361053467 2.111454486846924 -0.32472941279411316 4456788 0 -1
-1.9710503816604614 2.2964046001434326 -0.06958486884832382 4456788 0 -1
-1.8768049478530884 2.3709893226623535 0.13916973769664764 4456788 0 -1
-1.87741219997406 2.3717565536499023 0.1159747838973999 4456788 0 -1
-1.8785709142684937 2.373220443725586 -0.04638991504907608 4456788 0 -1
-1.8787363767623901 2.373429536819458 -0.02319495752453804 4523353 0 -1
-1.9715135097503662 2.2969441413879395 0.02319495752453804 4590430 0 -1
-1.8743187189102173 2.3678483963012695 -0.20875461399555206 4590430 0 -1
-1.8752583265304565 2.369035482406616 0.18555966019630432 4724328 0 -1
-1.8743187189102173 2.3678483963012695 0.20875461399555206 4664956 0 -1
-1.8735660314559937 2.41483736038208 -0.1406661868095398 4456788 0 -1
-1.7665905952453613 2.466128349304199 0.3985542058944702 4456788 0 -1
-2.229149103164673 2.052872896194458 -0.4219985902309418 4456788 0 -1
-0.7678277492523193 2.937891960144043 0.37510985136032104 4456788 0 -1
-1.9927124977111816 2.3216423988342285 -0.023444365710020065 4456788 0 -1
-1.8181082010269165 2.438899278640747 0.3282211124897003 4456788 0 -1
-2.106024980545044 2.2115511894226074 -0.18755492568016052 4456788 0 -1
-1.8987705707550049 2.3987388610839844 0.04688873142004013 4456788 0 -1
-1.406001091003418 2.715850353240967 0.09377746284008026 4456788 0 -1
-1.992771029472351 2.3217105865478516 0 4456788 0 -1
-1.8987705707550049 2.3987388610839844 0.04688873142004013 4456788 0 -1
-1.9906638860702515 2.3192555904388428 0.1406661868095398 4456788 0 -1
-1.9918348789215088 2.320619821548462 -0.09377746284008026 4456788 0 -1
-1.8989378213882446 2.3989500999450684 -0.023444365710020065 4456788 0 -1
-1.992771029472351 2.3217105865478516 0 4523353 0 -1
-1.9927124977111816 2.3216423988342285 -0.023444365710020065 4590430 0 -1
-1.8962600231170654 2.3955671787261963 0.16411055624485016 4728182 0 -1
-1.8987705707550049 2.3987388610839844 0.04688873142004013 4664956 0 -1
-1.429728388786316 2.704146146774292 0.0703330934047699 4664956 0 -1
-1.9186885356903076 2.423901319503784 0.07108131796121597 4456788 0 -1
-1.9189702272415161 2.424257278442383 0.04738754779100418 4456788 0 -1
-1.6069880723953247 2.579911231994629 0.5686505436897278 4456788 0 -1
-2.4164810180664062 1.9287534952163696 0.04738754779100418 4456788 0 -1
-1.7943190336227417 2.5048367977142334 0.2606315016746521 4456788 0 -1
-1.279125690460205 2.814338445663452 0.07108131796121597 4456788 0 -1
-2.013911724090576 2.3463406562805176 -0.02369377389550209 4456788 0 -1
-2.0840725898742676 2.2824056148529053 -0.09477509558200836 4456788 0 -1
-1.7149083614349365 2.541370153427124 0.40279415249824524 4456788 0 -1
-2.0376644134521484 2.3258631229400635 0 4456788 0 -1
-2.037604808807373 2.3257949352264404 -0.02369377389550209 4456788 0 -1
-2.107755184173584 2.2605535984039307 -0.09477509558200836 4456788 0 -1
-1.9177865982055664 2.422762155532837 0.11846886575222015 4456788 0 -1
-2.128429412841797 2.2350783348083496 -0.18955019116401672 4456788 0 -1
-1.9155864715576172 2.419982671737671 0.18955019116401672 4456788 0 -1
-2.0374252796173096 2.325590133666992 -0.04738754779100418 4456788 0 -1
-2.0110716819763184 2.343031883239746 -0.16585642099380493 4456788 0 -1
-2.0374252796173096 2.325590133666992 -0.04738754779100418 4523353 0 -1
-2.0137343406677246 2.3461341857910156 -0.04738754779100418 4590430 0 -1
-2.033832550048828 2.3214893341064453 0.18955019116401672 4724328 0 -1
-2.107755184173584 2.2605535984039307 -0.09477509558200836 4728182 0 -1
-1.9177865982055664 2.422762155532837 0.11846886575222015 4728182 0 -1
-2.0608136653900146 2.304280996322632 0.07108131796121597 4664956 0 -1
-2.1273629665374756 2.2339584827423096 -0.21324396133422852 2782862 0 -1
-1.94009268283844 2.4021341800689697 0.16585642099380493 2782862 0 -1
-1.42058265209198 2.744016408920288 0.11846886575222015 2782862 0 -1
-2.0585694313049316 2.3497250080108643 -0.07182954251766205 4456788 0 -1
-2.0585694313049316 2.3497250080108643 -0.07182954251766205 4456788 0 -1
-2.0825064182281494 2.3285365104675293 -0.07182954251766205 4523353 0 -1
-2.7319729328155518 1.9077835083007812 0.5965842604637146 4456788 0 -1
-2.5042734146118164 2.1000192165374756 0.8819071650505066 4456788 0 -1
-2.8906571865081787 1.729053020477295 0.3371998071670532 4456788 0 -1
-2.8858535289764404 1.726179599761963 0.38907670974731445 4523353 0 -1
-2.69435977935791 1.9351582527160645 0.6743996143341064 4664956 0 -1
-3.045257329940796 0.9994048476219177 1.0894147157669067 4147337 0 -1
-2.7361185550689697 1.8561803102493286 0.7262765169143677 4147337 0 -1
-2.493697166442871 2.0406413078308105 1.0375378131866455 4147337 0 -1
-2.785907745361328 1.6663968563079834 0.9597225189208984 3302798 0 -1
-2.766122817993164 1.8213508129119873 0.7003380656242371 2072968 0 -1
-3.0172860622406006 1.4910879135131836 0.36313825845718384 4899181 0 -1
-2.701090097427368 1.886217474937439 0.7781534194946289 4899181 0 -1
3.126474142074585 1.1088604927062988 0.6743996143341064 4899181 0 -1
-2.7245049476623535 1.956809163093567 0.6546963453292847 4456788 0 -1
-2.916114568710327 1.744280457496643 0.366629958152771 4456788 0 -1
-2.913602113723755 1.7427774667739868 0.39281782507896423 4523353 0 -1
-2.8948190212249756 1.7315424680709839 0.5499449372291565 4590430 0 -1
-2.727062225341797 1.904354214668274 0.7856356501579285 4147337 0 -1
-2.511059045791626 2.0548486709594727 1.073702096939087 4147337 0 -1
-2.8317553997039795 1.6938207149505615 0.8903870582580566 3302798 0 -1
-2.9176025390625 1.8041092157363892 0.37012168765068054 4456788 0 -1
-2.915088653564453 1.8025548458099365 0.396558940410614 4523353 0 -1
-2.8096165657043457 2.0179386138916016 -0.7883791327476501 4456788 0 -1
-2.057344436645508 2.8720154762268066 -0.3262258470058441 4456788 0 -1
-1.9265397787094116 2.9713141918182373 -0.21748389303684235 4456788 0 -1
-2.2972054481506348 2.6763968467712402 -0.9218124747276306 4456788 0 -1
-2.2330563068389893 2.8781840801239014 -0.1396685540676117 4456788 0 -1
-2.31326961517334 2.5865626335144043 1.1173484325408936 4523353 0 -1
-2.215409517288208 2.6342344284057617 1.201149582862854 4724328 0 -1
-2.629228353500366 2.5322306156158447 0.4509299099445343 4456788 0 -1
-3.098686695098877 1.978333592414856 0.11273247748613358 4456788 0 -1
-2.7553703784942627 2.4232144355773926 0.2536480724811554 4456788 0 -1
-2.7460079193115234 2.41498064994812 0.3945636749267578 4456788 0 -1
-2.8580899238586426 2.2812306880950928 0.3945636749267578 4590430 0 -1
-2.7411105632781982 2.4106736183166504 0.4509299099445343 4724328 0 -1
-2.7679219245910645 2.434252977371216 0.42648792266845703 4456788 0 -1
-2.649885892868042 2.552125930786133 0.48335298895835876 4456788 0 -1
-2.8008205890655518 2.405754566192627 0.3696228563785553 4456788 0 -1
-2.784830093383789 2.392019510269165 0.5402180552482605 4456788 0 -1
-2.790837287902832 2.397179365158081 0.48335298895835876 4523353 0 -1
-2.8118438720703125 2.4152231216430664 -0.1705951690673828 4590430 0 -1
-2.772529363632202 2.438304901123047 0.3696228563785553 4724328 0 -1
-2.812753677368164 2.4160044193267822 -0.14216263592243195 4600703 0 -1
-2.6267013549804688 2.5860044956207275 0.42648792266845703 4600703 0 -1
-2.8118438720703125 2.4152231216430664 0.1705951690673828 4147337 0 -1
-2.9832236766815186 2.2020530700683594 0.14216263592243195 3302798 0 -1
-2.7879185676574707 2.3946726322174072 0.5117855072021484 2782862 0 -1
-2.806544780731201 2.4106714725494385 0.2843252718448639 2134668 0 -1
-3.153693437576294 1.9500969648361206 -0.14216263592243195 4045940 0 -1
-2.9840128421783447 2.2026357650756836 0.11373011022806168 4045940 0 -1
-2.883054733276367 2.185633897781372 0.824543297290802 5424489 0 -1
-2.684680461883545 2.585636854171753 0.3441832363605499 4456788 0 -1
-2.8253891468048096 2.4268577098846436 0.3728651702404022 4456788 0 -1
-2.8311636447906494 2.4318177700042725 0.28681936860084534 4456788 0 -1
-3.123025417327881 2.0563528537750244 -0.17209161818027496 4456788 0 -1
-2.9528515338897705 2.2976064682006836 0.11472774296998978 4456788 0 -1
-2.8206937313079834 2.4228246212005615 0.4302290380001068 4456788 0 -1
-2.8123741149902344 2.4156785011291504 0.5162748694419861 4456788 0 -1
-2.809258460998535 2.4130022525787354 0.5449568033218384 4523353 0 -1
-2.7634716033935547 2.373673677444458 0.8604580760002136 4590430 0 -1
-2.8231263160705566 2.4249141216278076 0.4015471041202545 4724328 0 -1
-3.2100183963775635 1.9200795888900757 -0.14340968430042267 3302798 0 -1
-2.98073148727417 2.2596824169158936 0.14340968430042267 3302798 0 -1
-2.6925978660583496 2.5362067222595215 0.5736387372016907 3302798 0 -1
-2.8274827003479004 2.4286558628082275 0.3441832363605499 2134668 0 -1
-2.8381776809692383 2.43784236907959 0.11472774296998978 2070922 0 -1
-2.8059704303741455 2.4101781845092773 0.5736387372016907 5424489 0 -1
-2.921722650527954 2.3909027576446533 0.05786268785595894 4456788 0 -1
-2.7115509510040283 2.611516237258911 0.2893134355545044 4456788 0 -1
-2.854011058807373 2.451442241668701 0.3182447850704193 4456788 0 -1
-2.857384204864502 2.4543397426605225 0.2603820860385895 4456788 0 -1
-2.836829423904419 2.4366843700408936 0.520764172077179 4456788 0 -1
-2.839799165725708 2.439235210418701 0.4918328523635864 4456788 0 -1
-2.833686590194702 2.4339847564697266 0.5496955513954163 4456788 0 -1
-2.833686590194702 2.4339847564697266 0.5496955513954163 4523353 0 -1
-2.833686590194702 2.4339847564697266 0.5496955513954163 4590430 0 -1
-2.839799165725708 2.439235210418701 0.4918328523635864 4724328 0 -1
-2.845221519470215 2.44389271736145 0.4339701533317566 2134668 0 -1
-2.8303701877593994 2.431136131286621 0.5786268711090088 5424489 0 -1
-3.121973752975464 2.1801278591156006 -0.05836150422692299 4456788 0 -1
-3.001291036605835 2.335297107696533 0.2042652666568756 4456788 0 -1
-2.9882736206054688 2.3251683712005615 0.4085305333137512 4456788 0 -1
-2.8642802238464355 2.4602630138397217 0.49607279896736145 4456788 0 -1
-2.6675267219543457 2.626197338104248 0.7003380656242371 4456788 0 -1
-2.992884874343872 2.328756332397461 0.35016903281211853 4456788 0 -1
-2.8259339332580566 2.485271692276001 0.5836150646209717 4456788 0 -1
-2.990668773651123 2.3270320892333984 0.37934979796409607 4523353 0 -1
-2.8612849712371826 2.4576902389526367 0.5252535343170166 4523353 0 -1
-2.6635522842407227 2.622284412384033 0.7295188307762146 4523353 0 -1
-3.021941900253296 2.290923833847046 0.35016903281211853 4590430 0 -1
-2.829245090484619 2.4881837368011475 0.5544342994689941 4590430 0 -1
-2.8987367153167725 2.4308061599731445 0.43771129846572876 4724328 0 -1
-2.5577166080474854 2.859888792037964 -0.17658096551895142 4456788 0 -1
3.616029739379883 1.0851244926452637 -0.7063238620758057 4456788 0 -1
-2.8239681720733643 2.6006548404693604 -0.11772064119577408 4456788 0 -1
-2.4578680992126465 2.922530174255371 0.41202226281166077 4456788 0 -1
-2.3444387912750244 3.021744966506958 0.35316193103790283 4456788 0 -1
3.1960723400115967 1.9763020277023315 -0.794614315032959 4456788 0 -1
-2.705007553100586 2.547895669937134 0.9711952805519104 4523353 0 -1
-3.1162984371185303 2.2382051944732666 -0.17658096551895142 4724328 0 -1
-3.1445562839508057 2.258500814437866 0.11871827393770218 4456788 0 -1
-3.696744441986084 1.1093460321426392 -0.32647526264190674 4456788 0 -1
-2.7862534523010254 2.624422788619995 0.5935913920402527 4456788 0 -1
-2.687407970428467 2.762629985809326 0.38583439588546753 4456788 0 -1
-2.3306570053100586 2.9443461894989014 0.9497461915016174 4456788 0 -1
-3.375551462173462 1.8811315298080444 0.5686505436897278 4456788 0 -1
-2.836483955383301 2.6717355251312256 0.2693607807159424 4523353 0 -1
-2.290573835372925 2.9523184299468994 -1.1373010873794556 4590430 0 -1
-2.5414199829101562 3.341808557510376 -0.0643472969532013 4456788 0 -1
-2.5398523807525635 3.339747190475464 0.16086825728416443 4456788 0 -1
-2.5326738357543945 3.330307960510254 0.3539101481437683 4523353 0 -1
-2.5613465309143066 3.3680105209350586 0.03242305666208267 4456788 0 -1
-4.523020267486572 2.7054545879364014 -0.6098029017448425 4456788 0 -1
-4.53231954574585 2.711016893386841 -0.7771557569503784 4456788 0 -1
-4.146499156951904 3.0607194900512695 1.3906997442245483 4728182 0 -1
-1.1767398118972778 4.982005596160889 -1.5134086608886719 4728182 0 -1
4.978034973144531 1.633711576461792 1.0225733518600464 4728182 0 -1
5.04624080657959 1.5143126249313354 0.8589616417884827 4664956 0 -1
-4.528990268707275 2.800516366958618 -0.6995898485183716 4456788 0 -1
-4.569075584411621 2.825303316116333 -0.5796245336532593 4456788 0 -1
-4.077149868011475 3.2542431354522705 1.4076595306396484 4728182 0 -1
-2.3479299545288086 4.632547855377197 1.4904630184173584 4728182 0 -1
4.971955299377441 1.8888236284255981 0.9522402882575989 4728182 0 -1
-4.334145545959473 3.0266079902648926 1.1178473234176636 4664956 0 -1
-3.0265305042266846 4.1416730880737305 1.6974718570709229 4664956 0 -1
-4.616623401641846 2.8547046184539795 0.2915581166744232 4456788 0 -1
-4.11035680770874 3.280747890472412 1.3744882345199585 4728182 0 -1
5.032877445220947 1.9119677543640137 0.7497208714485168 4728182 0 -1
-4.550915241241455 2.8140735626220703 0.9579766988754272 4664956 0 -1
-4.3046417236328125 3.0917038917541504 1.207883596420288 4664956 0 -1
-3.108022451400757 4.169253349304199 1.5827441215515137 4664956 0 -1
5.042905807495117 1.7885576486587524 0.9579766988754272 4664956 0 -1
-4.647548198699951 2.8738272190093994 0.20950284600257874 4456788 0 -1
-3.938136100769043 3.3826475143432617 1.7179232835769653 4728182 0 -1
-4.678097724914551 2.8927175998687744 0.0842999517917633 4456788 0 -1
-4.562662124633789 2.8213374614715576 -1.3567802906036377 4456788 0 -1
-3.937451124191284 4.312163352966309 1.3308418989181519 4456788 0 -1
-4.566702842712402 3.922553062438965 -0.13842152059078217 4456788 0 -1
-4.521636962890625 3.976560115814209 0.046140506863594055 4590430 0 -1
-4.541551113128662 3.9009485244750977 0.6459670662879944 4724328 0 -1
-4.56455659866333 3.9207091331481934 -0.23070253431797028 4725613 0 -1
-4.473526477813721 4.0266432762146 0.18456202745437622 4017546 0 -1
-4.9953813552856445 3.388862133026123 -0.4638991355895996 4456788 0 -1
-4.676569938659668 3.8269288539886475 0.37111932039260864 4456788 0 -1
-4.497707843780518 4.0484089851379395 0.18555966019630432 4456788 0 -1
-3.710212469100952 4.7820892333984375 0.13916973769664764 4456788 0 -1
-4.357450485229492 4.196694850921631 -0.2319495677947998 4456788 0 -1
-4.5859904289245605 3.939119815826416 0.32472941279411316 4456788 0 -1
-4.592061996459961 3.9443349838256836 -0.09277983009815216 4456788 0 -1
-4.530034065246582 3.98394513130188 -0.5102890729904175 4590430 0 -1
-4.579099655151367 3.9332008361816406 0.4638991355895996 4724328 0 -1
-4.591387748718262 3.943755865097046 -0.13916973769664764 4725613 0 -1
-3.870326042175293 4.327571868896484 1.7164268493652344 4600703 0 -1
-4.729548454284668 3.774965286254883 0.18555966019630432 3562893 0 -1
-4.573145866394043 3.928086996078491 0.5566789507865906 2134668 0 -1
-3.9781649112701416 4.448151111602783 1.020578145980835 2134668 0 -1
-3.779057264328003 4.585535526275635 1.159747838973999 2134668 0 -1
4.1907830238342285 4.125853061676025 1.4380873441696167 2134668 0 -1
-5.796014785766602 1.739310383796692 0.18555966019630432 8180304 0 -1
-4.98337984085083 3.380720615386963 -0.886147141456604 4456788 0 -1
-4.430605411529541 4.173267841339111 -0.046639323234558105 4456788 0 -1
-3.6792025566101074 4.837921619415283 -0.32647526264190674 4456788 0 -1
-4.612410545349121 3.96181321144104 0.27983593940734863 4456788 0 -1
-4.612410545349121 3.96181321144104 -0.27983593940734863 4456788 0 -1
-4.427482604980469 4.170326232910156 -0.23319661617279053 4456788 0 -1
-4.655161380767822 3.903698682785034 0.37311458587646484 4724328 0 -1
-4.420187473297119 4.163454532623291 0.41975390911102295 4724328 0 -1
-4.663384437561035 3.9105944633483887 -0.09327864646911621 4725613 0 -1
-4.430605411529541 4.173267841339111 0.046639323234558105 4725613 0 -1
-4.024185657501221 4.31591272354126 1.4924583435058594 4600703 0 -1
-4.429671287536621 4.079382419586182 0.886147141456604 4017546 0 -1
-3.8274447917938232 4.459227561950684 1.5857369899749756 4017546 0 -1
-4.223069667816162 4.341275691986084 -0.6063112020492554 4045940 0 -1
-5.392662048339844 4.088159084320068 0.20750758051872253 4456788 0 -1
-4.895644187927246 4.6112961769104 0.7781534194946289 4456788 0 -1
6.581398963928223 1.5573090314865112 -0.3112613558769226 4456788 0 -1
-5.393771171569824 4.0889997482299805 0.1556306779384613 4724328 0 -1
-5.415402889251709 4.105398654937744 0.31275781989097595 4456788 0 -1
-4.867400169372559 4.687831401824951 0.7818945050239563 4456788 0 -1
6.3887200355529785 2.2658748626708984 -0.5733892917633057 4456788 0 -1
-5.4171552658081055 4.106727123260498 -0.2606315016746521 4456788 0 -1
-5.419703006744385 4.108658313751221 -0.15637890994548798 4456788 0 -1
-5.420498847961426 4.109261512756348 0.10425260663032532 4724328 0 -1
-5.236186981201172 4.390931606292725 0.15712712705135345 4456788 0 -1
-4.898829936981201 4.718101978302002 0.6808842420578003 4456788 0 -1
6.362767219543457 2.417186975479126 -0.6285085082054138 4456788 0 -1
-5.227721214294434 4.3838324546813965 0.41900569200515747 4456788 0 -1
-5.444514751434326 4.127468109130859 -0.20950284600257874 4456788 0 -1
-5.445634365081787 4.128316879272461 0.15712712705135345 4724328 0 -1
-5.523041248321533 4.076808452606201 -0.21050047874450684 4456788 0 -1
-5.523041248321533 4.076808452606201 -0.21050047874450684 4456788 0 -1
-5.525475025177002 4.078604698181152 0.05262511968612671 4724328 0 -1
-5.8100481033325195 4.172924995422363 -0.3292187452316284 4456788 0 -1
-5.644944667816162 4.505603790283203 -0.22147442400455475 4456788 0 -1
-4.481564521789551 5.661612510681152 -0.27684304118156433 4456788 0 -1
-5.7010931968688965 4.094671249389648 -1.7164268493652344 4456788 0 -1
-5.40304708480835 4.640927791595459 -1.218109369277954 4456788 0 -1
-4.3187456130981445 5.566427230834961 -1.6056896448135376 4456788 0 -1
-4.434867858886719 6.442493915557861 -0.6010736227035522 4456788 0 -1
-4.943093776702881 5.759032726287842 -1.9835429191589355 4456788 0 -1
-4.478176593780518 6.377155303955078 -0.9016104340553284 4456788 0 -1
-4.5159807205200195 6.430990219116211 -0.5432109236717224 4456788 0 -1
-2.716054677963257 7.393906116485596 0 4456788 0 -1
-0.3017041087150574 7.869115829467773 0.18107031285762787 4456788 4 -1
-4.777096271514893 6.1571946144104 -1.1467785835266113 4456788 0 -1
-4.444186687469482 6.456031799316406 -0.784637987613678 4456788 0 -1
-3.0089662075042725 7.25455904006958 -0.6035677194595337 4456788 0 -1
-2.7756776809692383 7.369506359100342 -0.18107031285762787 4456788 0 -1
-0.4887825548648834 7.958695888519287 0.12220998853445053 2199437 4 -1
-0.6719773411750793 7.944150447845459 0.1833149790763855 2072968 4 -1
-0.7332383990287781 7.940611362457275 0.061104994267225266 2666112 4 -1
-0.6720759868621826 7.945316791534424 -0.12220998853445053 3651704 4 -1
-0.7331738471984863 7.93991231918335 -0.12220998853445053 4045940 4 -1
-6.39745569229126 4.340028285980225 -2.086049795150757 4456788 0 -1
-5.300571918487549 5.448938369750977 -2.515530586242676 4456788 0 -1
-4.453026294708252 6.599062442779541 -0.8589616417884827 4456788 0 -1
-0.24541041254997253 8.003180503845215 -0.06135440245270729 4456788 4 -1
-4.474135398864746 6.630345344543457 -0.36812642216682434 4456788 0 -1
-0.4907055199146271 7.990006923675537 0.18406321108341217 2199437 4 -1
-0.42946821451187134 7.995416164398193 0.06135440245270729 2134668 4 -1
-0.4904748499393463 7.986251354217529 0.30677202343940735 2070155 4 -1
-0.4907775819301605 7.991180419921875 0.12270880490541458 2006409 4 -1
-0.6747201085090637 7.9765753746032715 -0.18406321108341217 3651704 4 -1
-0.6130935549736023 7.977774620056152 -0.30677202343940735 8705099 4 -1
-0.6745813488960266 7.974935531616211 -0.24541760981082916 9360965 4 -1
-0.6747201085090637 7.9765753746032715 -0.18406321108341217 10016830 4 -1
-0.6745813488960266 7.974935531616211 -0.24541760981082916 10672695 4 -1
-4.49232292175293 6.6572980880737305 -0.3696228563785553 4456788 0 -1
-0.4927002489566803 8.022486686706543 0.18481142818927765 2523534 4 -1
-0.4925989508628845 8.02083683013916 0.24641524255275726 2458766 4 -1
-0.4924686551094055 8.018715858459473 0.3080190420150757 2070155 4 -1
-0.4925989508628845 8.02083683013916 0.24641524255275726 2070922 4 -1
-0.4928160309791565 8.024371147155762 0.061603810638189316 2006409 4 -1
-0.4925989508628845 8.02083683013916 0.24641524255275726 2139270 4 -1
-0.6776220202445984 8.010882377624512 0.061603810638189316 3651704 4 -1
-0.6776419281959534 8.011117935180664 0 5949540 4 -1
-0.6775623559951782 8.010176658630371 -0.12320762127637863 8705099 4 -1
-0.6774628758430481 8.009000778198242 -0.18481142818927765 10016830 4 -1
-0.6775623559951782 8.010176658630371 -0.12320762127637863 10672695 4 -1
-0.6771444082260132 8.00523567199707 -0.3080190420150757 11197490 4 -1
-0.7392240166664124 8.005433082580566 0.061603810638189316 11918891 4 -1
-0.6774628758430481 8.009000778198242 -0.18481142818927765 13164576 4 -1
-0.7343305349349976 7.9524383544921875 -1.1752111911773682 4728182 0 -1
-0.7421514391899109 8.037135124206543 0.12370643764734268 4471684 4 -1
-0.43295982480049133 8.060419082641602 0.06185321882367134 2977934 4 -1
-0.43295982480049133 8.060419082641602 0.06185321882367134 2912910 4 -1
-0.4329216778278351 8.059709548950195 0.12370643764734268 2523534 4 -1
-0.49430254101753235 8.048576354980469 0.37111932039260864 2458766 4 -1
-0.7414537668228149 8.029580116271973 0.37111932039260864 2070155 4 -1
-0.4941134452819824 8.045496940612793 0.4329725205898285 2070155 4 -1
-0.4946950078010559 8.05496597290039 0.18555966019630432 2070922 4 -1
-0.8039973974227905 8.031184196472168 0.12370643764734268 2006409 4 -1
-0.4948257505893707 8.057095527648926 0 2006409 4 -1
-0.7411701679229736 8.026508331298828 0.4329725205898285 2072968 4 -1
-0.4944624602794647 8.051179885864258 0.3092660903930664 2072968 4 -1
-0.680305540561676 8.042606353759766 0.12370643764734268 2666112 4 -1
-0.6800657510757446 8.039772033691406 0.24741287529468536 2994813 4 -1
-0.6803654432296753 8.043314933776855 0.06185321882367134 3651704 4 -1
-0.680305540561676 8.042606353759766 -0.12370643764734268 10016830 4 -1
-0.6802056431770325 8.041425704956055 -0.18555966019630432 10672695 4 -1
-0.6802056431770325 8.041425704956055 -0.18555966019630432 11918891 4 -1
-0.6802056431770325 8.041425704956055 -0.18555966019630432 13164576 4 -1
-0.8044613003730774 8.035818099975586 -0.6831288933753967 4726897 4 -1
-0.8058158755302429 8.049349784851074 -0.49682101607322693 4728182 4 -1
-0.8044613003730774 8.035818099975586 -0.6831288933753967 4664956 4 -1
-0.8058158755302429 8.049349784851074 -0.49682101607322693 4471684 4 -1
-0.7420744895935059 8.03630256652832 -0.7452315092086792 4341894 4 -1
-0.8054121136665344 8.045315742492676 -0.5589236617088318 4212104 4 -1
-0.7381092309951782 7.99336051940918 -1.1178473234176636 3562893 0 -1
-0.8071208000183105 8.062384605407715 0.1863078773021698 2070155 4 -1
-0.49680644273757935 8.089345932006836 -0.062102627009153366 2070155 4 -1
-0.7420744895935059 8.03630256652832 0.7452315092086792 2070922 4 -1
-0.49680644273757935 8.089345932006836 0.062102627009153366 2070922 4 -1
-0.7450346350669861 8.068358421325684 0.1863078773021698 2006409 4 -1
-0.7446843981742859 8.064565658569336 0.31051313877105713 2072968 4 -1
-0.6831088662147522 8.0757474899292 0.062102627009153366 2666112 4 -1
-0.5589072108268738 8.08529281616211 0.062102627009153366 3257723 4 -1
-0.4965876042842865 8.085783004760742 0.24841050803661346 3651704 4 -1
-0.5588580369949341 8.084580421447754 0.12420525401830673 4045940 4 -1
-0.6831288933753967 8.075984954833984 0 8180304 4 -1
-0.6821455359458923 8.064359664916992 -0.43471840023994446 11918891 4 -1
-0.6577305793762207 7.7757248878479 -2.307025194168091 4456788 0 -1
-0.7425800561904907 8.041776657104492 -0.9976325631141663 4726897 4 -1
-0.8076920509338379 8.068090438842773 -0.6858723759651184 4471684 4 -1
-0.7455618977546692 8.074069023132324 -0.6858723759651184 4341894 4 -1
-0.8094096183776855 8.085247039794922 -0.43646425008773804 4212104 4 -1
-0.7439067959785461 8.056144714355469 -0.8729285001754761 3562893 4 -1
-0.7476751208305359 8.096953392028809 0.31176018714904785 2006409 4 -1
-0.7474332451820374 8.094334602355957 0.37411221861839294 2072968 4 -1
-0.6234471201896667 8.11249828338623 0.12470407038927078 2666112 4 -1
-0.6232274174690247 8.109640121459961 0.24940814077854156 3257723 4 -1
-0.7432658076286316 8.049203872680664 0.9352805018424988 3651704 4 -1
-0.4987577199935913 8.121118545532227 0.12470407038927078 3651704 4 -1
-0.8099813461303711 8.090958595275879 0.31176018714904785 4045940 4 -1
-0.5609046816825867 8.114188194274902 0.24940814077854156 4045940 4 -1
-0.6235020756721497 8.113213539123535 0.06235203519463539 4505456 4 -1
-0.6235020756721497 8.113213539123535 0.06235203519463539 8180304 4 -1
-0.7464431524276733 8.083612442016602 0.5611683130264282 10672695 4 -1
-0.6725804209709167 7.951280117034912 -1.7528403997421265 4456788 0 -1
-0.7462388873100281 8.081400871276855 -0.939021646976471 4726897 4 -1
-0.749428927898407 8.115946769714355 -0.5634129643440247 4536450 4 -1
-0.8076795935630798 8.067965507507324 -1.0016231536865234 4471684 4 -1
-0.7474810481071472 8.094852447509766 -0.8138187527656555 3692940 4 -1
-0.746882438659668 8.088369369506836 -0.8764201998710632 3562893 4 -1
-0.8754934668540955 8.114191055297852 0.3756086528301239 2782862 4 -1
-0.8103712201118469 8.094852447509766 -0.7512173056602478 2718350 4 -1
-0.813221275806427 8.123322486877441 -0.3130072057247162 2588302 4 -1
-0.938773512840271 8.11363697052002 0.18780432641506195 2006409 4 -1
-0.6881102919578552 8.134875297546387 0.3130072057247162 2006409 4 -1
-0.49832069873809814 8.11400318145752 0.8138187527656555 2006409 4 -1
-0.81264728307724 8.11758804321289 0.4382100999355316 2072968 4 -1
-0.6255548000335693 8.139925003051758 0.3130072057247162 2666112 4 -1
-0.8060410022735596 8.051597595214844 1.1268259286880493 3651704 0 -1
-0.9380287528038025 8.107199668884277 0.3756086528301239 4505456 4 -1
-0.6259960532188416 8.145666122436523 -0.06260144710540771 4505456 4 -1
-0.9973798990249634 8.073944091796875 0.7512173056602478 8180304 4 -1
-0.8789815306663513 8.14651870727539 -0.37710511684417725 3692940 4 -1
-0.8158848881721497 8.14992904663086 -0.4399559497833252 2588302 4 -1
-0.942513644695282 8.14596176147461 0.18855255842208862 2072968 4 -1
-0.6728452444076538 7.954411029815674 -1.8855255842208862 2072968 0 -1
-1.0041660070419312 8.128878593444824 0.4399559497833252 8180304 4 -1
-0.24998880922794342 8.152488708496094 1.1358046531677246 4456788 0 -1
-0.8817423582077026 8.17210578918457 -0.5048021078109741 3887499 4 -1
-0.8821319937705994 8.1757173538208 -0.44170182943344116 3757452 4 -1
-0.8829886317253113 8.183656692504883 -0.25240105390548706 3692940 4 -1
-0.8191225528717041 8.182270050048828 -0.44170182943344116 3238030 4 -1
-0.8832998871803284 8.186541557312012 0.12620052695274353 2006409 4 -1
-0.946253776550293 8.178287506103516 0.1893007755279541 8180304 4 -1
-0.8211244940757751 8.20226764678955 -0.6334967017173767 4017546 4 -1
-0.8859575390815735 8.211173057556152 -0.38009801506996155 3757452 4 -1
-0.8223602175712585 8.214611053466797 -0.44344767928123474 3238030 4 -1
-0.8223602175712585 8.214611053466797 -0.44344767928123474 2912910 4 -1
-0.8856186866760254 8.208032608032227 0.44344767928123474 3257723 4 -1
-0.9502171277999878 8.212541580200195 0.06334967166185379 6343264 4 -1
-0.9502171277999878 8.212541580200195 0.06334967166185379 10016830 4 -1
-0.9502171277999878 8.212541580200195 -0.06334967166185379 10672695 4 -1
-0.887769341468811 8.227965354919434 0.6359907388687134 3257723 4 -1
-0.9539581537246704 8.244874000549316 0.06359907984733582 9360965 4 -1
-0.9539861679077148 8.245116233825684 0 10016830 4 -1
-0.9539861679077148 8.245116233825684 0 10672695 4 -1
-0.6342535018920898 8.253114700317383 0.9577272534370422 3107982 4 -1
-1.2155697345733643 8.260531425476074 0.5127831101417542 4456788 0 -1
0.2561204731464386 8.352450370788574 0.3845873475074768 4456788 0 -1
-1.664783000946045 8.188865661621094 -0.3845873475074768 4456788 0 -1
0.2562711238861084 8.357362747192383 0.2563915550708771 4456788 0 -1
-0.7025678157806396 8.305792808532715 0.7050768136978149 3107982 4 -1
-0.24998146295547485 8.15224838256836 1.8588389158248901 3107982 0 -1
2.7651126384735107 8.134963035583496 -0.1316874921321869 2328718 5 -1
2.765437364578247 8.135918617248535 0 2264205 5 -1
2.831198215484619 8.113001823425293 -0.06584374606609344 2134668 5 -1
2.7758312225341797 8.166497230529785 0.06609315425157547 2328718 5 -1
2.7758312225341797 8.166497230529785 0.06609315425157547 2264205 5 -1
2.7755866050720215 8.165777206420898 -0.13218630850315094 2199437 5 -1
2.7759125232696533 8.166736602783203 0 2134668 5 -1
2.7043492794036865 8.17237377166748 -0.9287959337234497 2328718 5 -1
2.9766385555267334 8.103292465209961 -0.6634256839752197 2328718 5 -1
2.785078763961792 8.193702697753906 -0.26537024974823 2264205 5 -1
2.7860605716705322 8.1965913772583 -0.132685124874115 2199437 5 -1
2.7863876819610596 8.197554588317871 0 2134668 5 -1
2.7863059043884277 8.197314262390137 0.0663425624370575 2070155 5 -1
-5.562999248504639 6.349806785583496 -2.0643510818481445 4456788 0 -1
-5.078577041625977 6.949808120727539 -1.1986554861068726 4456788 0 -1
-3.967517852783203 7.504046440124512 -1.8645752668380737 4456788 0 -1
-3.5688397884368896 7.852178573608398 -1.0654715299606323 4456788 0 -1
2.6617233753204346 8.266372680664062 0.3329598605632782 2458766 5 -1
2.996638774871826 8.157739639282227 0 2458766 5 -1
2.78691029548645 8.199091911315918 -0.7325116991996765 2264205 5 -1
2.794809579849243 8.222331047058105 -0.3329598605632782 2199437 5 -1
2.796780824661255 8.228130340576172 -0.06659197062253952 2134668 5 -1
2.796123743057251 8.226198196411133 0.19977591931819916 2070155 5 -1
2.9240496158599854 8.165146827697754 -0.935779333114624 4664956 5 -1
2.937911033630371 8.203853607177734 0.40104830265045166 2588302 5 -1
2.783418655395508 8.188819885253906 -1.1363035440444946 2199437 5 -1
2.6049001216888428 8.318543434143066 -0.3342069089412689 7589974 5 -1
2.9373128414154053 8.20218276977539 -0.8721802830696106 4725613 5 -1
2.93496036529541 8.195613861083984 -0.9392710328102112 4729209 5 -1
2.93243145942688 8.188551902770996 -1.0063618421554565 4664956 5 -1
2.87642240524292 8.242595672607422 -0.6709079146385193 4536450 5 -1
2.8780357837677 8.24721908569336 -0.6038171052932739 3757452 5 -1
2.7314276695251465 7.8271026611328125 2.8178131580352783 2912910 0 -1
2.9498274326324463 8.237129211425781 0.33545395731925964 2523534 5 -1
2.683631658554077 8.334412574768066 0 2134668 5 -1
2.682370901107788 8.330496788024902 -0.2683631479740143 7589974 5 -1
2.9482321739196777 8.232673645019531 -0.8754225969314575 4724328 5 -1
2.885324478149414 8.268105506896973 -0.7407422065734863 4725613 5 -1
2.945870876312256 8.226080894470215 -0.9427627921104431 4729209 5 -1
2.9346511363983154 8.194750785827637 -1.2121235132217407 4664956 5 -1
2.8647773265838623 8.20922565460205 -1.279463768005371 4600703 5 -1
2.888734817504883 8.277877807617188 -0.6060617566108704 4536450 5 -1
2.88336181640625 8.262480735778809 -0.8080824017524719 4017546 5 -1
2.8901829719543457 8.282027244567871 -0.5387215614318848 3757452 5 -1
2.693528890609741 8.36514949798584 0.0673401951789856 2523534 5 -1
2.9615767002105713 8.269937515258789 0.2693607807159424 2523534 5 -1
2.693291664123535 8.364412307739258 -0.1346803903579712 2134668 5 -1
2.693528890609741 8.36514949798584 -0.0673401951789856 2070155 5 -1
2.7543752193450928 8.323549270629883 -0.6060617566108704 2994813 5 -1
2.7492518424987793 8.308067321777344 -0.8080824017524719 3257723 5 -1
2.75575590133667 8.32772159576416 -0.5387215614318848 5424489 5 -1
2.6856887340545654 8.340801239013672 -0.6734020113945007 8180304 5 -1
3.0238215923309326 7.832985877990723 2.7035841941833496 4456788 0 -1
2.8960108757019043 8.298727989196777 -0.743485689163208 4725613 5 -1
2.9567816257476807 8.256547927856445 -0.9462544918060303 4729209 5 -1
2.9455204010009766 8.225101470947266 -1.2166129350662231 4664956 5 -1
