VERSION .7
FIELDS x y z rgb label object
SIZE 4 4 4 4 4 4
TYPE F F F I I I
COUNT 1 1 1 1 1 1
WIDTH 686
HEIGHT 1
POINTS 686
VIEWPOINT 0 0 0 1 0 0 0
DATA ascii
-1.9586215019226074 2.6802871227264404 0.05087926238775253 4456788 0 -1
-2.7798142433166504 1.7747517824172974 0.3815944492816925 4657508 0 -1
3.009068012237549 1.2864689826965332 -0.5596718788146973 4600703 0 -1
-1.932130217552185 2.4903206825256348 1.0430248975753784 4212104 0 -1
-1.716062307357788 2.70024037361145 -1.0018725395202637 4456788 0 -1
-2.431774377822876 2.290532350540161 -0.2825794219970703 4456788 0 -1
-1.9976693391799927 2.626810312271118 -0.590847909450531 4456788 0 -1
-2.7588181495666504 1.7059245109558105 -0.8477382659912109 4456788 0 -1
-2.402759552001953 2.3141167163848877 -0.3339574933052063 4456788 0 -1
-1.8430290222167969 2.786271572113037 -0.2825794219970703 4456788 0 -1
-1.6695914268493652 2.906843900680542 -0.05137807875871658 4456788 0 -1
-1.256950855255127 3.102846145629883 -0.17982326447963715 4456788 0 -1
-2.6095597743988037 1.8223001956939697 -1.0532505512237549 4456788 0 -1
-1.873784065246582 2.722029685974121 -0.5651588439941406 4456788 0 -1
-2.6164352893829346 1.8271015882492065 -1.0275615453720093 4456788 0 -1
-2.503408432006836 2.1502935886383057 -0.590847909450531 4456788 0 -1
-1.99185049533844 2.619158983230591 -0.642225980758667 4456788 0 -1
-2.724107503890991 1.629430890083313 -1.07893967628479 4456788 0 -1
-2.422048568725586 2.281371593475342 -0.41102463006973267 4456788 0 -1
-1.99482262134552 2.6230671405792236 -0.6165369153022766 4456788 0 -1
-1.7692102193832397 2.8403480052948 -0.20551231503486633 4456788 0 -1
-1.952279806137085 2.6716086864471436 -0.539469838142395 4456788 0 -1
-1.7948509454727173 2.8242151737213135 -0.20551231503486633 4456788 0 -1
-2.670055627822876 1.8645455837249756 -0.796360194683075 4456788 0 -1
-1.8915340900421143 2.7478151321411133 -0.3339574933052063 4456788 0 -1
-2.783672571182251 1.6650598049163818 -0.8477382659912109 4456788 0 -1
-1.9823962450027466 2.659283399581909 -0.48809173703193665 4456788 0 -1
-1.8185595273971558 2.8047754764556885 -0.2568903863430023 4456788 0 -1
-2.7861785888671875 1.8345565795898438 0.3339574933052063 4456788 0 -1
-1.8452074527740479 2.789564847946167 -0.23120135068893433 4456788 0 -1
-2.8473784923553467 1.7606861591339111 0.17982326447963715 4523353 0 -1
-2.839679718017578 1.6985607147216797 0.539469838142395 4590430 0 -1
-2.6359450817108154 1.8407255411148071 -0.9504944086074829 4590430 0 -1
-2.728213310241699 1.7418075799942017 -0.8734273314476013 4657508 0 -1
-2.866934061050415 1.7148629426956177 0.2825794219970703 4726897 0 -1
-2.0272881984710693 2.665757417678833 -0.15413422882556915 4212104 0 -1
-2.4537136554718018 2.311197280883789 -0.3112613558769226 4456788 0 -1
-1.9993001222610474 2.6819591522216797 -0.5187689065933228 4456788 0 -1
-2.7923922538757324 1.6702755689620972 -0.9337840676307678 4456788 0 -1
-2.560044050216675 2.146787166595459 -0.5447073578834534 4456788 0 -1
-2.4499330520629883 2.3076364994049072 -0.36313825845718384 4456788 0 -1
-2.001642942428589 2.6851017475128174 -0.4928304851055145 4456788 0 -1
-1.8122767210006714 2.8516347408294678 -0.20750758051872253 4456788 0 -1
-2.6418375968933105 1.844840407371521 -1.0375378131866455 4456788 0 -1
-1.8967719078063965 2.7554240226745605 -0.5187689065933228 4456788 0 -1
-2.782646417617798 1.6078321933746338 -1.063476324081421 4456788 0 -1
-2.553245782852173 2.1410863399505615 -0.5965842604637146 4456788 0 -1
-1.8967719078063965 2.7554240226745605 -0.5187689065933228 4456788 0 -1
-2.758021116256714 1.6497164964675903 -1.063476324081421 4456788 0 -1
-2.0141899585723877 2.648533821105957 -0.6225227117538452 4456788 0 -1
-1.7863870859146118 2.867924213409424 -0.20750758051872253 4456788 0 -1
-1.811368703842163 2.850205898284912 -0.23344601690769196 4456788 0 -1
-2.704615354537964 1.834808588027954 -0.8819071650505066 4456788 0 -1
-1.911313772201538 2.7765488624572754 -0.3112613558769226 4456788 0 -1
-2.8106985092163086 1.6812254190444946 -0.855968713760376 4456788 0 -1
-1.9093564748764038 2.719022512435913 -0.6484611630439758 4456788 0 -1
-1.9439553022384644 2.7682926654815674 -0.1296922266483307 4456788 0 -1
-1.8362153768539429 2.8320062160491943 -0.2593844532966614 4456788 0 -1
-2.8153135776519775 1.8537404537200928 0.3112613558769226 4456788 0 -1
-1.8620775938034058 2.8150689601898193 -0.2593844532966614 4456788 0 -1
-2.875023126602173 1.7777801752090454 0.18156912922859192 4523353 0 -1
-2.883190870285034 1.7245869636535645 0.41501516103744507 4590430 0 -1
-2.667731761932373 1.8629227876663208 -0.9337840676307678 4590430 0 -1
-2.7661290168762207 1.766014575958252 -0.8300303220748901 4657508 0 -1
-2.758021116256714 1.6497164964675903 -1.063476324081421 4724328 0 -1
-2.894768238067627 1.7315120697021484 0.285322904586792 4726897 0 -1
-2.805953025817871 1.6783870458602905 -0.9951384663581848 4456788 0 -1
-2.801797389984131 1.618897795677185 -1.099889874458313 4456788 0 -1
-1.904850959777832 2.767160415649414 -0.6285085082054138 4456788 0 -1
-2.7770025730133057 1.6610702276229858 -1.099889874458313 4456788 0 -1
-2.0273687839508057 2.665863513946533 -0.6808842420578003 4456788 0 -1
-1.9150100946426392 2.781918525695801 -0.5237571001052856 4456788 0 -1
-1.8799822330474854 2.842137098312378 -0.2618785500526428 4456788 0 -1
-2.8640410900115967 1.8285259008407593 0.366629958152771 4657508 0 -1
-2.9845540523529053 2.3821702003479004 -0.41202226281166077 4456788 0 -1
-2.9173989295959473 2.387364625930786 -0.7357540130615234 4523353 0 -1
-3.0512466430664062 2.3741674423217773 0.23743654787540436 4456788 0 -1
-3.021622896194458 2.411757230758667 0.23743654787540436 4456788 0 -1
-2.94500994682312 2.2915050983428955 1.0387848615646362 4456788 0 -1
-2.9756860733032227 2.375092029571533 0.7123096585273743 4456788 0 -1
-2.92366361618042 2.511270046234131 0.38583439588546753 4456788 0 -1
-2.953195571899414 2.476473808288574 0.38583439588546753 4456788 0 -1
-2.988823413848877 2.445812702178955 0.29679569602012634 4523353 0 -1
-3.016543388366699 2.407702922821045 0.32647526264190674 4590430 0 -1
-3.007253646850586 2.4002881050109863 0.4451935291290283 4724328 0 -1
-3.043780565261841 2.429442882537842 0.2992897629737854 4456788 0 -1
-3.0418925285339355 2.427935838699341 0.3292187452316284 4456788 0 -1
-3.043780565261841 2.429442882537842 0.2992897629737854 4456788 0 -1
-3.0375723838806152 2.424487590789795 0.38907670974731445 4456788 0 -1
-3.020230293273926 2.4106457233428955 0.5686505436897278 4456788 0 -1
-2.9756271839141846 2.4952845573425293 0.41900569200515747 4456788 0 -1
-3.0053834915161133 2.459364175796509 0.41900569200515747 4456788 0 -1
-3.0418925285339355 2.427935838699341 0.3292187452316284 4523353 0 -1
-3.039823293685913 2.426284074783325 0.35914772748947144 4590430 0 -1
-2.9939370155334473 2.4499974250793457 0.5387215614318848 4657508 0 -1
-3.035139799118042 2.422545909881592 0.41900569200515747 4724328 0 -1
-3.065155029296875 2.446503162384033 0.36214062571525574 4456788 0 -1
-3.065155029296875 2.446503162384033 0.36214062571525574 4456788 0 -1
-3.0604326725006104 2.4427337646484375 0.42249739170074463 4456788 0 -1
-3.0004241466522217 2.516078472137451 0.42249739170074463 4456788 0 -1
-3.030428409576416 2.479858875274658 0.42249739170074463 4456788 0 -1
-3.0328571796417236 2.481846570968628 0.392318993806839 4523353 0 -1
-3.0604326725006104 2.4427337646484375 0.42249739170074463 4590430 0 -1
-2.9889965057373047 2.506495714187622 0.5432109236717224 4657508 0 -1
-3.0604326725006104 2.4427337646484375 0.42249739170074463 4724328 0 -1
-3.1159775257110596 2.424534559249878 0.4259890913963318 4456788 0 -1
-2.9166319370269775 2.625274896621704 0.6085558533668518 4456788 0 -1
-3.088198661804199 2.464895725250244 0.3955613076686859 4456788 0 -1
-2.8830034732818604 2.655021905899048 0.6389836668968201 4456788 0 -1
-3.083066701889038 2.4607994556427 0.45641690492630005 4456788 0 -1
-2.9011590480804443 2.6113476753234863 0.7302670478820801 4456788 0 -1
-3.077191114425659 2.4561097621917725 0.5172724723815918 4456788 0 -1
-2.87534761428833 2.6479713916778564 0.6998392343521118 4456788 0 -1
-2.9835619926452637 2.5627198219299316 0.5477002859115601 4456788 0 -1
-2.8154444694519043 2.7115767002105713 0.6998392343521118 4456788 0 -1
-3.0438361167907715 2.490830659866333 0.5477002859115601 4456788 0 -1
-2.845396041870117 2.6801300048828125 0.6998392343521118 4456788 0 -1
-3.0802221298217773 2.458528995513916 0.4868446886539459 4523353 0 -1
-2.879265069961548 2.6515791416168213 0.6694114804267883 4523353 0 -1
-3.1073596477508545 2.4178287982940674 0.5172724723815918 4590430 0 -1
-2.905299186706543 2.6150741577148438 0.6998392343521118 4590430 0 -1
-2.8326950073242188 2.6681668758392334 0.7911226153373718 4657508 0 -1
-3.0857253074645996 2.462921619415283 0.4259890913963318 4724328 0 -1
-2.8830034732818604 2.655021905899048 0.6389836668968201 4724328 0 -1
-3.1161348819732666 2.3623313903808594 -0.8589616417884827 4456788 0 -1
-2.9312028884887695 2.577850580215454 0.8896388411521912 4456788 0 -1
-3.163245439529419 2.398045778274536 -0.5215124487876892 4456788 0 -1
-2.9113099575042725 2.6204845905303955 0.8282844424247742 4456788 0 -1
-3.1161348819732666 2.3623313903808594 0.8589616417884827 4456788 0 -1
-2.8789870738983154 2.59139084815979 1.01234769821167 4456788 0 -1
-3.190321683883667 2.354921579360962 0.5521896481513977 4456788 0 -1
-2.825368642807007 2.6612658500671387 0.9816704392433167 4456788 0 -1
-3.186598539352417 2.288696765899658 0.7976072430610657 4456788 0 -1
-3.0991694927215576 2.4736523628234863 -0.5521896481513977 4456788 0 -1
-2.860722064971924 2.634502410888672 0.9509932398796082 4456788 0 -1
-3.1440365314483643 2.446367025375366 -0.39880362153053284 4523353 0 -1
-2.971405029296875 2.6745765209198 -0.21474041044712067 4523353 0 -1
-3.1663613319396973 2.4004077911376953 -0.4908352196216583 4590430 0 -1
-2.9063949584960938 2.616060733795166 0.8589616417884827 4590430 0 -1
-3.184429168701172 2.41410493850708 -0.24541760981082916 4724328 0 -1
-2.854154109954834 2.510089874267578 1.257765293121338 4724328 0 -1
-2.4329943656921387 2.892953872680664 1.3191196918487549 4724328 0 -1
-3.0573270320892334 2.626079797744751 -0.21648626029491425 4456788 0 -1
-3.242619514465332 2.3935251235961914 0.21648626029491425 4456788 0 -1
-3.2781243324279785 2.3544328212738037 0.03092660941183567 4456788 0 -1
-3.302924156188965 2.306488513946533 0.24741287529468536 4523353 0 -1
-3.29512882232666 2.3010447025299072 0.37111932039260864 4590430 0 -1
-3.0616445541381836 2.629788398742676 -0.03092660941183567 4590430 0 -1
-2.4097249507904053 3.23252272605896 -0.18555966019630432 4657508 0 -1
-2.1971843242645264 3.256068468093872 0.9277982711791992 4726897 0 -1
3.455195903778076 1.6324352025985718 -1.2989176511764526 4726897 0 -1
3.7676150798797607 1.4313002824783325 -0.21648626029491425 4726897 0 -1
-3.3333847522735596 2.3277597427368164 0.15588009357452393 4456788 0 -1
-2.4582736492156982 3.2324764728546143 0.24940814077854156 4456788 0 -1
-3.0856101512908936 2.650373697280884 -0.09352805465459824 4456788 0 -1
3.73624587059021 1.5098925828933716 -0.5611683130264282 4456788 0 -1
-2.4245800971984863 3.252450466156006 0.31176018714904785 4456788 0 -1
-2.2741785049438477 3.3701679706573486 0.15588009357452393 4456788 0 -1
3.568678855895996 1.7635762691497803 -0.8417524695396423 4456788 0 -1
-2.2769622802734375 3.3077232837677 0.6546963453292847 4456788 0 -1
-3.2110354900360107 2.4984989166259766 0.031176017597317696 4456788 0 -1
-3.2687697410583496 2.412827730178833 -0.21823212504386902 4456788 0 -1
-3.0904648303985596 2.5289878845214844 0.7794004678726196 4523353 0 -1
-2.307732105255127 3.286329746246338 0.6546963453292847 4590430 0 -1
-2.199676990509033 3.3254480361938477 0.8105764389038086 4657508 0 -1
-2.963453531265259 2.66741943359375 0.8105764389038086 4724328 0 -1
-3.1469249725341797 2.575190305709839 0.5342322587966919 4456788 0 -1
-3.115767240524292 2.612802267074585 0.5342322587966919 4456788 0 -1
-2.403721809387207 3.2893869876861572 0.47138139605522156 4456788 0 -1
-2.3541531562805176 3.2863550186157227 -0.6913593411445618 4456788 0 -1
-2.3156301975250244 3.3638956546783447 0.37710511684417725 4456788 0 -1
-2.3007049560546875 3.3422138690948486 0.5970830917358398 4456788 0 -1
-3.291814088821411 2.429837942123413 -0.28282883763313293 4456788 0 -1
-2.307938814163208 3.352722644805908 -0.5028068423271179 4456788 0 -1
-3.1326076984405518 2.563474416732788 0.6599339246749878 4523353 0 -1
-2.289449691772461 3.2602949142456055 0.9741882085800171 4590430 0 -1
-2.310718297958374 3.2257208824157715 1.037039041519165 4657508 0 -1
-2.2020390033721924 3.329019069671631 0.9427627921104431 4657508 0 -1
-2.9823174476623535 2.684398889541626 0.8484864830970764 4724328 0 -1
-3.1613688468933105 2.587009906768799 0.6334967017173767 4456788 0 -1
-2.372192859649658 3.3781251907348633 0.22172383964061737 4456788 0 -1
-3.140495538711548 2.6335387229919434 0.5384721755981445 4456788 0 -1
-2.430283308029175 3.325735330581665 0.34842318296432495 4456788 0 -1
-2.4633734226226807 3.304489850997925 0.31674835085868835 4456788 0 -1
-2.332279920578003 3.38808274269104 0.41177284717559814 4456788 0 -1
-3.130068063735962 2.6247944831848145 0.6334967017173767 4456788 0 -1
-2.347551107406616 3.343034029006958 0.6334967017173767 4456788 0 -1
-3.316079616546631 2.447749376296997 -0.31674835085868835 4456788 0 -1
-3.1533753871917725 2.5804688930511475 0.6968463659286499 4523353 0 -1
-3.4516446590423584 2.2727320194244385 -0.09502450376749039 4590430 0 -1
-3.175732135772705 2.534761905670166 0.7601960301399231 4590430 0 -1
-2.2984118461608887 3.273057460784912 1.04526948928833 4590430 0 -1
-2.946972131729126 2.591718912124634 1.2986681461334229 4657508 0 -1
-2.3597028255462646 3.229149103164673 1.04526948928833 4725613 0 -1
-3.4094700813293457 2.3808913230895996 0.255393922328949 4456788 0 -1
-2.4812300205230713 3.3284432888031006 0.35116666555404663 4456788 0 -1
-3.126826763153076 2.685776472091675 0.6065605878829956 4456788 0 -1
-3.4461982250213623 2.337897777557373 0.1276969611644745 4456788 0 -1
-3.3122169971466064 2.5109803676605225 -0.2873181700706482 4456788 0 -1
-3.351947069168091 2.47422456741333 0.03192424029111862 4523353 0 -1
-2.9780023097991943 2.6190085411071777 1.2769696712493896 4657508 0 -1
-3.243023633956909 2.9190618991851807 1.0669680833816528 4456788 0 -1
-3.2696170806884766 3.8877408504486084 -1.4141441583633423 4456788 0 -1
-3.2696170806884766 3.8877408504486084 -1.4141441583633423 4456788 0 -1
-4.39841365814209 2.541433572769165 -1.4141441583633423 4456788 0 -1
-3.716742515563965 3.7395219802856445 -0.08080823719501495 4523353 0 -1
-3.411590099334717 3.974729061126709 0.6060617566108704 4523353 0 -1
-4.667064666748047 1.7729971408843994 1.6969729661941528 4590430 0 -1
-4.201536655426025 3.017651081085205 1.1789523363113403 4456788 0 -1
-4.89675760269165 1.6070375442504883 1.2602593898773193 4456788 0 -1
-3.2200565338134766 3.9072399139404297 1.5854876041412354 4456788 0 -1
-4.593713760375977 2.6542794704437256 0.0406535267829895 4456788 0 -1
-3.3742427825927734 4.094330787658691 0 4523353 0 -1
-4.695873737335205 1.783941626548767 1.707448124885559 4590430 0 -1
5.033916473388672 1.1911394596099854 1.1789523363113403 4590430 0 -1
-3.79229998588562 3.335143804550171 1.62614107131958 4664956 0 -1
-3.801180124282837 3.742286205291748 -0.20451468229293823 4456788 0 -1
-3.4236202239990234 4.070858478546143 0.4499322772026062 4456788 0 -1
-3.713305711746216 3.8172433376312256 -0.36812642216682434 4456788 0 -1
-3.6502106189727783 3.5155465602874756 1.6770203113555908 4456788 0 -1
-3.3724448680877686 4.092148780822754 -0.6135440468788147 4456788 0 -1
-4.6220316886901855 2.6706416606903076 0 4456788 0 -1
-3.554792642593384 3.9747607707977295 0.24541760981082916 4523353 0 -1
-3.3940465450286865 4.11836051940918 -0.12270880490541458 4523353 0 -1
-3.205470323562622 4.0495076179504395 1.3497968912124634 4590430 0 -1
-3.931596040725708 3.2969353199005127 1.4725056886672974 4726897 0 -1
-3.735947847366333 3.8405191898345947 -0.37037110328674316 4456788 0 -1
-3.854555130004883 3.7123522758483887 -0.45267578959465027 4456788 0 -1
-3.375297784805298 4.095610618591309 -0.823046863079071 4456788 0 -1
-4.650214672088623 2.6869261264801025 0 4456788 0 -1
-3.577625274658203 4.000290870666504 0.20576171576976776 4456788 0 -1
-3.6134629249572754 3.5574774742126465 1.7695508003234863 4523353 0 -1
-3.8752779960632324 3.7323107719421387 -0.49682101607322693 4456788 0 -1
-3.808513879776001 3.8318560123443604 0.08280350267887115 4456788 0 -1
-4.676199913024902 2.7019405364990234 0.1656070053577423 4456788 0 -1
-3.8485538959503174 3.788926124572754 -0.1656070053577423 4523353 0 -1
-3.7244069576263428 3.9110255241394043 -0.1656070053577423 4590430 0 -1
-3.873444080352783 3.8134305477142334 0.0416511595249176 4456788 0 -1
-4.704370021820068 2.718217134475708 0.1666046380996704 4456788 0 -1
-3.9558145999908447 3.726053476333618 0.12495347857475281 4456788 0 -1
-3.95500111579895 3.725287437438965 -0.1666046380996704 4523353 0 -1
-4.105773448944092 3.610828399658203 -0.08380113542079926 4456788 0 -1
-4.536921501159668 2.896563768386841 -0.9637130498886108 4456788 0 -1
-4.148034572601318 3.562938928604126 0.04190056771039963 4456788 0 -1
-4.148034572601318 3.562938928604126 -0.04190056771039963 4523353 0 -1
-4.128756999969482 3.6310412883758545 -0.1685999035835266 4456788 0 -1
-4.471313953399658 2.9441323280334473 -1.264499306678772 4456788 0 -1
-3.8573243618011475 3.9652931690216064 0.12719815969467163 4456788 0 -1
-3.578819513320923 4.0849928855896 1.059984564781189 4456788 0 -1
-3.3493874073028564 4.147058486938477 -1.4839783906936646 4456788 0 -1
-4.5123677253723145 2.880887746810913 -1.3991796970367432 4456788 0 -1
-3.900285243988037 3.924189805984497 0.08479876816272736 4523353 0 -1
-3.4643776416778564 4.289434432983398 0.46639323234558105 4523353 0 -1
-3.5534329414367676 4.399698257446289 0.30377912521362305 4729209 0 -1
-3.5316221714019775 4.461539268493652 0.2618785500526428 4729209 0 -1
-4.259846210479736 4.193845748901367 -0.36712878942489624 4456788 0 -1
-3.244464874267578 5.003958225250244 -0.550693154335022 4456788 0 -1
-3.7496793270111084 4.64268159866333 0.5048021078109741 4456788 0 -1
-3.503507137298584 4.794394493103027 -0.7801486849784851 4456788 0 -1
-3.708329439163208 4.684775352478027 -0.41301989555358887 4456788 0 -1
-3.531020164489746 4.832045078277588 -0.22945548593997955 4456788 0 -1
-3.7170698642730713 4.695817470550537 -0.04589109867811203 4523353 0 -1
-3.4580070972442627 4.827314853668213 -0.7801486849784851 4523353 0 -1
-3.4465253353118896 4.811286926269531 -0.9178219437599182 4590430 0 -1
-4.321774005889893 4.162334442138672 -0.5075455904006958 4456788 0 -1
-3.220339775085449 5.067235469818115 -0.46140506863594055 4456788 0 -1
-3.5903913974761963 4.81632661819458 0.4152645468711853 4456788 0 -1
-4.4900054931640625 3.8566739559173584 -1.1073721647262573 4456788 0 -1
-4.059887886047363 4.44625186920166 -0.09228101372718811 4456788 0 -1
-3.7158143520355225 4.6942315101623535 -0.6459670662879944 4456788 0 -1
-3.522547960281372 4.820451259613037 -0.7843886017799377 4456788 0 -1
-3.721548318862915 4.701475143432617 -0.5536860823631287 4456788 0 -1
-3.4942002296447754 4.877840042114258 -0.5075455904006958 4456788 0 -1
-3.69026517868042 4.756379127502441 -0.13842152059078217 4523353 0 -1
-3.4731645584106445 4.848474979400635 -0.8305290937423706 4590430 0 -1
-3.701662302017212 4.6763529777526855 -0.8305290937423706 4657508 0 -1
-3.6673552989959717 4.726850509643555 -0.9277982711791992 4456788 0 -1
-3.449599504470825 4.912407875061035 -0.7886285185813904 4456788 0 -1
-3.683197021484375 4.747269153594971 -0.7422386407852173 4456788 0 -1
-3.4591665267944336 4.926032066345215 -0.6494588255882263 4456788 0 -1
-2.131876230239868 5.803598880767822 -0.14216263592243195 4899181 0 -1
-2.1435999870300293 5.835515022277832 0.047636955976486206 4045940 4 -1
-2.190720796585083 5.8164286613464355 0.14291086792945862 4505456 4 -1
-2.1912355422973633 5.817795276641846 0.047636955976486206 4899181 4 -1
-2.19104266166687 5.817282676696777 0.09527391195297241 6343264 4 -1
-2.1912999153137207 5.817965984344482 0 7589974 4 -1
-2.2027080059051514 5.848254680633545 0.04788636416196823 4899181 4 -1
-2.202190637588501 5.846880912780762 0.1436590850353241 5424489 4 -1
-2.1546332836151123 5.865550518035889 0.09577272832393646 5949540 4 -1
-2.1543169021606445 5.864689350128174 0.1436590850353241 6343264 4 -1
-2.153873920440674 5.863483428955078 0.19154545664787292 6933851 4 -1
-2.2027080059051514 5.848254680633545 0.04788636416196823 7589974 4 -1
-2.154886245727539 5.866239547729492 0 8705099 4 -1
-2.099928140640259 5.863861560821533 -0.8183081150054932 4664956 4 -1
-2.1497693061828613 5.852309226989746 -0.7701723575592041 4600703 4 -1
-2.057894229888916 5.897043704986572 -0.6739007830619812 4147337 4 -1
-2.1057522296905518 5.880124092102051 -0.6739007830619812 4017546 4 -1
-2.1074399948120117 5.884837627410889 -0.6257650256156921 3887499 4 -1
-2.1057522296905518 5.880124092102051 -0.6739007830619812 3757452 4 -1
-2.1057522296905518 5.880124092102051 -0.6739007830619812 3692940 4 -1
-2.1174142360687256 5.912689685821533 -0.14440731704235077 2994813 4 -1
-2.1174142360687256 5.912689685821533 -0.14440731704235077 3257723 4 -1
-2.1658554077148438 5.8961005210876465 -0.09627154469490051 3651704 4 -1
-2.1174142360687256 5.912689685821533 0.14440731704235077 4899181 4 -1
-2.1658554077148438 5.8961005210876465 0.09627154469490051 6343264 4 -1
-2.069838285446167 5.931270122528076 0 8180304 4 -1
-2.069777488708496 5.931096076965332 0.048135772347450256 9360965 4 -1
-2.1166627407073975 5.910591125488281 -0.6773925423622131 4664956 4 -1
-2.1166627407073975 5.910591125488281 -0.6773925423622131 4600703 4 -1
-2.0731592178344727 5.940786838531494 -0.5322369933128357 4147337 4 -1
-2.119929075241089 5.919712066650391 -0.580622136592865 4017546 4 -1
-2.119929075241089 5.919712066650391 -0.580622136592865 3887499 4 -1
-2.118359327316284 5.9153289794921875 -0.6290073394775391 3757452 4 -1
-2.119929075241089 5.919712066650391 -0.580622136592865 3692940 4 -1
-2.1750307083129883 5.921078681945801 -0.2903110682964325 2328718 4 -1
-2.172149419784546 5.913234710693359 -0.43546661734580994 2264205 4 -1
-2.224672555923462 5.906571388244629 -0.19354072213172913 2070155 4 -1
-2.0756094455718994 5.947808265686035 -0.43546661734580994 2994813 4 -1
-2.0731592178344727 5.940786838531494 -0.5322369933128357 3651704 4 -1
-2.1750307083129883 5.921078681945801 -0.2903110682964325 4045940 4 -1
-2.1279478073120117 5.942103385925293 -0.19354072213172913 4505456 4 -1
-2.1286978721618652 5.944198131561279 0.09677036106586456 4899181 4 -1
-2.0775678157806396 5.9534196853637695 0.33869627118110657 7589974 4 -1
-2.0800130367279053 5.9604268074035645 0.14515553414821625 8180304 4 -1
-2.1238794326782227 5.930743217468262 0.43546661734580994 8705099 4 -1
-2.1279478073120117 5.942103385925293 0.19354072213172913 10016830 4 -1
-2.1226887702941895 5.9274187088012695 0.4838517904281616 10672695 4 -1
-2.079585313796997 5.959201335906982 0.19354072213172913 11918891 4 -1
-2.2740366458892822 5.890723705291748 0.04838518053293228 12640037 4 -1
-2.0800130367279053 5.9604268074035645 0.14515553414821625 12640037 4 -1
-2.172046661376953 5.912954807281494 -0.7781534194946289 4590430 4 -1
-2.1292786598205566 5.945820331573486 -0.632249653339386 4600703 4 -1
-2.130856513977051 5.950225830078125 -0.5836150646209717 4017546 4 -1
-2.182122230529785 5.940383434295654 -0.48634588718414307 3887499 4 -1
-2.1807684898376465 5.9366984367370605 -0.5349804759025574 3757452 4 -1
-2.182122230529785 5.940383434295654 -0.48634588718414307 3692940 4 -1
-2.135897636413574 5.9643025398254395 -0.38907670974731445 3107982 4 -1
-2.085139036178589 5.975115776062012 -0.48634588718414307 2264205 4 -1
-2.1348273754119873 5.9613142013549805 -0.43771129846572876 2199437 4 -1
-2.138916492462158 5.9727325439453125 -0.19453835487365723 2134668 4 -1
-2.1368415355682373 5.966938495635986 -0.34044212102890015 2070155 4 -1
-2.1348273754119873 5.9613142013549805 -0.43771129846572876 2070922 4 -1
-2.1396706104278564 5.9748382568359375 -0.09726917743682861 2994813 4 -1
-2.1396706104278564 5.9748382568359375 -0.09726917743682861 3257723 4 -1
-2.089751958847046 5.9883341789245605 -0.24317294359207153 3651704 4 -1
-2.089751958847046 5.9883341789245605 -0.24317294359207153 4045940 4 -1
-2.0421128273010254 6.00789737701416 0.14590376615524292 7589974 4 -1
-2.236140012741089 5.937017440795898 0.19453835487365723 8180304 4 -1
-2.236599922180176 5.938238620758057 0.14590376615524292 9360965 4 -1
-2.1396706104278564 5.9748382568359375 0.09726917743682861 10016830 4 -1
-2.172046661376953 5.912954807281494 0.7781534194946289 10672695 4 -1
-2.1348273754119873 5.9613142013549805 0.43771129846572876 11918891 4 -1
-2.1882994174957275 5.957199573516846 0.09726917743682861 12640037 4 -1
-2.2857584953308105 5.921088218688965 0.04863458871841431 13164576 4 -1
-2.0395214557647705 6.00027322769165 -0.733259916305542 4536450 4 -1
-2.1432418823242188 5.984811305999756 -0.537723958492279 4017546 4 -1
-2.193312644958496 5.970847129821777 -0.4888399541378021 3757452 4 -1
-2.19454288482666 5.974195957183838 -0.4399559497833252 3692940 4 -1
-2.0980589389801025 6.012138366699219 -0.39107197523117065 2264205 4 -1
-2.0997891426086426 6.017096996307373 -0.2933039665222168 2199437 4 -1
-2.100468635559082 6.019043922424316 -0.24441997706890106 2134668 4 -1
-2.1486215591430664 5.999833106994629 -0.2933039665222168 2070155 4 -1
-2.147799491882324 5.997538089752197 -0.3421879708766937 2070922 4 -1
-2.053067445755005 6.040125846862793 -0.04888399690389633 2139270 4 -1
-2.1010241508483887 6.020636081695557 -0.19553598761558533 3651704 4 -1
-2.1020119190216064 6.023466110229492 0 4505456 4 -1
-2.150895833969116 6.006184101104736 0 5949540 4 -1
-2.198164701461792 5.984055995941162 0.24441997706890106 10016830 4 -1
-2.2907931804656982 5.9341301918029785 0.4888399541378021 10672695 4 -1
-2.2972779273986816 5.950928688049316 0.09776799380779266 13164576 4 -1
-2.147542715072632 5.99682092666626 -0.7370010614395142 4471684 4 -1
-1.9555613994598389 6.0732831954956055 -0.6387342214584351 4471684 4 -1
-2.207820415496826 6.010341644287109 -0.3439338207244873 3757452 4 -1
-2.007301092147827 6.0659379959106445 -0.5404674410820007 3757452 4 -1
-2.1567230224609375 6.02245569229126 -0.442200630903244 2977934 4 -1
-2.2093799114227295 6.014586925506592 -0.24566702544689178 2199437 4 -1
-2.2109382152557373 6.018829345703125 -0.04913340508937836 2134668 4 -1
-2.1105024814605713 6.047796249389648 -0.29480043053627014 2070155 4 -1
-2.210418939590454 6.017415523529053 -0.14740021526813507 2072968 4 -1
-2.210418939590454 6.017415523529053 -0.14740021526813507 2072968 4 -1
-2.112178087234497 6.052598476409912 -0.14740021526813507 2994813 4 -1
-2.260070323944092 6.000553131103516 0.04913340508937836 4045940 4 -1
-2.0633606910705566 6.070408344268799 -0.09826681017875671 5949540 4 -1
-2.2107434272766113 6.018299102783203 0.09826681017875671 6343264 4 -1
-2.2093799114227295 6.014586925506592 0.24566702544689178 10016830 4 -1
-2.160282611846924 6.032395362854004 0.24566702544689178 10672695 4 -1
-2.2099645137786865 6.016178131103516 0.19653362035751343 11197490 4 -1
-2.303772211074829 5.967751979827881 0.442200630903244 11918891 4 -1
-2.0633606910705566 6.070408344268799 0.09826681017875671 11918891 4 -1
-2.0679802894592285 6.0839996337890625 -0.4938281178474426 3692940 4 -1
-2.2713425159454346 6.030481815338135 -0.09876562654972076 2588302 4 -1
-2.020887613296509 6.106996059417725 -0.39506250619888306 2588302 4 -1
-2.26920747756958 6.024812698364258 -0.2962968647480011 2523534 4 -1
-2.0198750495910645 6.103935718536377 -0.44444531202316284 2523534 4 -1
-2.2710092067718506 6.029596328735352 -0.14814843237400055 2134668 4 -1
-2.073103666305542 6.099072456359863 -0.19753125309944153 2070155 4 -1
-2.269941568374634 6.026762008666992 -0.2469140589237213 2006409 4 -1
-2.018742799758911 6.100513935089111 -0.4938281178474426 2006409 4 -1
-2.2190277576446533 6.04085111618042 -0.3456796705722809 2072968 4 -1
-2.0174906253814697 6.096729755401611 -0.5432109236717224 2072968 4 -1
-1.9416207075119019 5.867455959320068 1.8271640539169312 3651704 0 -1
-2.4655861854553223 5.9444804191589355 -0.3456796705722809 4045940 4 -1
-2.2713425159454346 6.030481815338135 -0.09876562654972076 4045940 4 -1
-2.0237441062927246 6.115627765655518 -0.19753125309944153 4045940 4 -1
-2.123398542404175 6.084751605987549 -0.04938281327486038 5949540 4 -1
-2.222226619720459 6.049559593200684 0 6343264 4 -1
-2.2219655513763428 6.048849105834961 -0.09876562654972076 6933851 4 -1
-2.221639394760132 6.0479607582092285 -0.14814843237400055 7589974 4 -1
-2.2190277576446533 6.04085111618042 0.3456796705722809 10672695 4 -1
-2.220595121383667 6.0451178550720215 0.2469140589237213 11197490 4 -1
-2.0646309852600098 6.074145317077637 -0.8933799862861633 4456788 4 -1
-2.0840024948120117 6.131136417388916 -0.14889666438102722 2070155 4 -1
-2.4815380573272705 5.982940196990967 -0.04963222146034241 3651704 4 -1
-2.4815380573272705 5.982940196990967 -0.04963222146034241 3651704 4 -1
-2.0784246921539307 6.114727020263672 -0.4963222146034241 3651704 4 -1
-2.478038787841797 5.974503040313721 -0.34742555022239685 4045940 4 -1
-2.233187675476074 6.0793986320495605 -0.09926444292068481 6343264 4 -1
-2.2292497158050537 6.068678855895996 0.39705777168273926 12640037 4 -1
-2.0949668884277344 6.163393974304199 0.04988162964582443 2134668 4 -1
-2.0402779579162598 6.165591716766357 0.4489346444606781 2468738 4 -1
-2.493422269821167 6.011592864990234 0.1496448814868927 3651704 4 -1
-2.4424052238464355 6.029199600219727 0.24940814077854156 4045940 4 -1
-2.1924707889556885 6.122278690338135 -0.2992897629737854 5949540 4 -1
-2.193760395050049 6.125879764556885 -0.19952651858329773 6343264 4 -1
-2.1924707889556885 6.122278690338135 0.2992897629737854 11197490 4 -1
-2.604057550430298 5.994335651397705 0.30078622698783875 2468738 4 -1
-2.095031499862671 6.163584232330322 0.6517034769058228 2468738 4 -1
-2.505889415740967 6.041650772094727 0.15039311349391937 2994813 4 -1
-2.2516541481018066 6.129670143127441 -0.40104830265045166 2994813 4 -1
-2.4557716846466064 6.062195301055908 0.15039311349391937 4045940 4 -1
-2.390342950820923 6.043546676635742 0.7519655227661133 9360965 4 -1
-2.1947951316833496 6.128768444061279 0.6517034769058228 9360965 4 -1
-2.053199052810669 6.204638957977295 0.30078622698783875 9360965 4 -1
-2.3049442768096924 6.11969518661499 0.20052415132522583 10016830 4 -1
-2.566685914993286 6.045772075653076 0.3022826611995697 2468738 4 -1
-2.366142511367798 6.129316806793213 0.2519022226333618 2468738 4 -1
-2.518726348876953 6.072600364685059 0.10076089203357697 2994813 4 -1
-2.195553779602051 6.130887508392334 0.9068480134010315 8705099 4 -1
-2.1084489822387695 6.203058242797852 0.5541849136352539 9360965 4 -1
-2.1157302856445312 6.224479675292969 0.10076089203357697 10672695 4 -1
-2.5311954021453857 6.102663040161133 -0.10125970840454102 2134668 4 -1
-2.5303032398223877 6.1005120277404785 0.20251941680908203 2468738 4 -1
-2.5311954021453857 6.102663040161133 0.10125970840454102 2994813 4 -1
-2.48078989982605 6.1239542961120605 0.05062985420227051 3257723 4 -1
-2.206423044204712 6.161238670349121 0.9113373756408691 8705099 4 -1
-2.164520740509033 6.202589988708496 0.7088179588317871 9360965 4 -1
-2.158534288406372 6.1854352951049805 0.8607075214385986 10016830 4 -1
-2.12020206451416 6.237636089324951 0.5062985420227051 10672695 4 -1
-2.117445468902588 6.229526042938232 0.6075582504272461 12640037 4 -1
-2.173309326171875 6.227774143218994 0.763188898563385 8705099 4 -1
-2.1751835346221924 6.233144760131836 0.7123096585273743 9360965 4 -1
-2.133852958679199 6.277796268463135 0.35615482926368713 10016830 4 -1
-2.126300811767578 6.25557804107666 0.6614304184913635 10672695 4 -1
-3.7764062881469727 5.485952377319336 -0.40902936458587646 4456788 0 -1
-3.7795207500457764 5.490477085113525 -0.30677202343940735 4456788 0 -1
-2.3419554233551025 6.217960357666016 0.6135440468788147 10016830 4 -1
-1.8395280838012695 6.043923854827881 -2.147404193878174 10016830 0 -1
-2.183962821960449 6.258302688598633 0.7669300436973572 10672695 4 -1
-2.281186819076538 6.210066318511963 0.8691873550415039 11197490 4 -1
-2.351642608642578 6.243680477142334 -0.10225734114646912 11918891 4 -1
-3.7991864681243896 5.519044876098633 -0.2568903863430023 4456788 0 -1
-3.7452006340026855 5.550116539001465 -0.3596465289592743 4456788 0 -1
-3.8991129398345947 5.443090915679932 -0.3596465289592743 4523353 0 -1
-3.6883459091186523 5.57600212097168 -0.5137807726860046 4523353 0 -1
-2.076355218887329 6.274615287780762 1.1303176879882812 6343264 4 -1
-2.192591428756714 6.2830281257629395 0.8220492601394653 10672695 4 -1
-2.289917230606079 6.2338337898254395 0.9248054027557373 11197490 4 -1
-3.9742658138275146 5.438607215881348 -0.15488246083259583 4456788 0 -1
-3.763381242752075 5.577058792114258 -0.36139240860939026 4456788 0 -1
-2.244776487350464 6.268336772918701 1.0325497388839722 10672695 4 -1
-2.2522544860839844 6.289219379425049 0.877667248249054 11197490 4 -1
-2.2474067211151123 6.275681972503662 0.9809222221374512 12640037 4 -1
-2.261986255645752 6.316393852233887 0.6195298433303833 13164576 4 -1
-2.1267027854919434 6.426762580871582 0.10375379025936127 2134668 4 -1
-2.1267027854919434 6.426762580871582 0.10375379025936127 2468738 4 -1
-2.126890182495117 6.427328586578369 -0.051876895129680634 5949540 4 -1
-2.2631349563598633 6.319602012634277 0.8819071650505066 10672695 4 -1
-2.3839733600616455 6.329519271850586 -0.7297682166099548 4471684 4 -1
-2.1356093883514404 6.453677177429199 0.2606315016746521 2468738 4 -1
-2.714425563812256 5.841022491455078 -2.1893045902252197 4899181 0 -1
-2.4430882930755615 6.328639984130859 -0.8380113840103149 4471684 0 -1
-2.3887548446655273 6.342214584350586 -0.8903870582580566 3692940 0 -1
-2.042412757873535 6.522284984588623 0.10475142300128937 3692940 0 -1
-2.343306303024292 6.379174709320068 -0.733259916305542 9360965 4 -1
-2.456989049911499 6.364648342132568 -0.7893767952919006 4471684 0 -1
-2.1050047874450684 6.53740119934082 0 3692940 4 -1
-2.052379608154297 6.554113388061523 0 3432845 0 -1
-2.261218786239624 6.479684829711914 0.26312559843063354 2006409 4 -1
-3.840618371963501 5.691518783569336 0.15787535905838013 11197490 0 -1
-2.379470109939575 6.317563533782959 1.263002872467041 11197490 0 -1
-0.8111572265625 6.566442489624023 1.84187912940979 11197490 0 -1
-5.735413074493408 3.6617321968078613 -1.3280982971191406 8180304 0 -1
-5.613058567047119 4.031442642211914 -1.2929317951202393 11197490 0 -1
-5.662128448486328 4.066685676574707 -1.1365529298782349 6933851 0 -1
-5.718670845031738 3.8795411586761475 -1.4612822532653809 13164576 0 -1
-5.665031433105469 4.068770885467529 -1.3049033880233765 6933851 0 -1
-5.76331901550293 3.9098305702209473 -1.3592743873596191 13164576 0 -1
-4.508769512176514 5.811348915100098 0.11273247748613358 4456788 0 -1
-4.442331790924072 5.841389179229736 0.5072961449623108 4523353 0 -1
-4.528719902038574 5.837062835693359 -0.11323129385709763 4456788 0 -1
-4.469352722167969 5.876919269561768 0.28307825326919556 4523353 0 -1
-4.547067165374756 5.860710620880127 -0.22746022045612335 4456788 0 -1
-4.548670291900635 5.862776756286621 0.11373011022806168 4523353 0 -1
-6.284963607788086 4.1383280754089355 -1.8401333093643188 2006409 0 -1
-1.711682677268982 7.24681282043457 2.1369290351867676 2006409 0 -1
-6.544165134429932 3.9144070148468018 -1.365260124206543 2139270 0 -1
-2.2302017211914062 7.121974468231201 2.0775697231292725 2468738 0 -1
-6.346031188964844 4.178537845611572 -1.669039249420166 2006409 0 -1
-1.6615787744522095 7.290556907653809 2.1459076404571533 2006409 0 -1
-6.41508150100708 4.095661640167236 -1.6094307899475098 2994813 0 -1
-6.520692348480225 3.9003665447235107 -1.669039249420166 3257723 0 -1
-1.6722909212112427 7.337558746337891 2.0950284004211426 2006409 0 -1
-6.431047439575195 4.1058549880981445 -1.6760227680206299 2994813 0 -1
-6.536479949951172 3.9098100662231445 -1.7358806133270264 3257723 0 -1
-2.412320852279663 7.289882183074951 1.4365909099578857 4899181 0 -1
-6.493247985839844 4.0151214599609375 -1.8032208681106567 2994813 0 -1
-6.480959892272949 4.007523059844971 -1.863328218460083 3257723 0 -1
-6.551745414733887 3.918941020965576 -1.8032208681106567 4505456 0 -1
-6.4365692138671875 4.10938024520874 -1.931416630744934 2199437 0 -1
-1.4711943864822388 7.537816047668457 1.750346302986145 2199437 0 -1
-6.110722541809082 4.7547383308410645 -1.448562502861023 2271109 0 -1
-1.7798221111297607 7.53529691696167 1.448562502861023 2271109 0 -1
-6.590950965881348 3.942391872406006 -1.750346302986145 4505456 0 -1
-6.560819625854492 4.188706874847412 1.2071354389190674 6933851 0 -1
-6.355559825897217 4.311605930328369 -1.750346302986145 7589974 0 -1
-6.6410369873046875 3.972350835800171 -1.636366844177246 4505456 0 -1
-6.4291672706604 4.233278751373291 -1.8181853294372559 7589974 0 -1
-4.570549488067627 6.639597415924072 -0.4329725205898285 4456788 0 -1
-4.452908992767334 6.731860160827637 0.12370643764734268 4456788 0 -1
-4.469288349151611 6.756622791290283 0.24841050803661346 4456788 0 -1
3.1153128147125244 7.510958671569824 0.31176018714904785 4456788 5 -1
3.252885103225708 7.487885475158691 0.3130072057247162 4456788 0 -1
3.189297676086426 7.5123209953308105 0.3756086528301239 4456788 5 -1
3.189297676086426 7.5123209953308105 0.3756086528301239 4456788 5 -1
3.188077688217163 7.50944709777832 0.4382100999355316 4456788 5 -1
3.189297676086426 7.5123209953308105 0.3756086528301239 4456788 5 -1
-4.5699052810668945 6.772269248962402 0 4456788 0 -1
3.136066436767578 7.056771278381348 -2.765437364578247 4456788 0 -1
3.2020041942596436 7.542250633239746 0.37710511684417725 4456788 5 -1
3.1392197608947754 7.568597793579102 0.37710511684417725 4456788 5 -1
3.2007791996002197 7.539365291595459 0.4399559497833252 4456788 5 -1
3.2007791996002197 7.539365291595459 0.4399559497833252 4456788 5 -1
3.2020041942596436 7.542250633239746 0.37710511684417725 4456788 5 -1
3.1977622509002686 7.532258987426758 0.5656576752662659 4456788 5 -1
3.195969820022583 7.528036594390869 0.6285085082054138 4456788 5 -1
3.2635395526885986 7.512411594390869 0.4399559497833252 4456788 5 -1
-4.336581230163574 6.962089538574219 -0.06285085529088974 4456788 0 -1
-4.5240654945373535 6.8394341468811035 -0.18855255842208862 4456788 0 -1
2.9702935218811035 7.161320209503174 2.776411533355713 4456788 0 -1
3.154179334640503 7.6046648025512695 0.1893007755279541 4456788 5 -1
3.2796719074249268 7.549546718597412 0.25240105390548706 4456788 5 -1
3.2147104740142822 7.572179794311523 0.3786015510559082 4456788 5 -1
3.2147104740142822 7.572179794311523 0.3786015510559082 4456788 5 -1
3.2134807109832764 7.569283485412598 0.44170182943344116 4456788 5 -1
3.2120614051818848 7.565939903259277 0.5048021078109741 4456788 5 -1
3.21045184135437 7.5621490478515625 0.5679023265838623 4456788 5 -1
3.2764902114868164 7.542222499847412 0.44170182943344116 4456788 5 -1
3.0244524478912354 7.646777153015137 0.44170182943344116 4456788 5 -1
3.3394997119903564 7.514536380767822 0.44170182943344116 4456788 5 -1
3.0874619483947754 7.621554374694824 0.44170182943344116 4456788 5 -1
3.1659953594207764 7.633152961730957 0.25339868664741516 4456788 5 -1
3.1666464805603027 7.63472318649292 0.19004900753498077 4456788 5 -1
3.100851535797119 7.65460729598999 0.38009801506996155 4456788 5 -1
3.1641340255737305 7.628665924072266 0.38009801506996155 4456788 5 -1
3.226182222366333 7.599201679229736 0.44344767928123474 4456788 5 -1
3.224757194519043 7.595844745635986 0.5067973732948303 4456788 5 -1
3.28798770904541 7.568689346313477 0.5067973732948303 4456788 5 -1
3.3539822101593018 7.547124862670898 0.38009801506996155 4456788 5 -1
3.099665403366089 7.651679039001465 0.44344767928123474 4456788 5 -1
3.1641340255737305 7.628665924072266 0.38009801506996155 4456788 5 -1
3.051321506500244 7.714710235595703 -0.25439631938934326 4456788 5 -1
3.048361301422119 7.707225799560547 0.4451935291290283 4456788 5 -1
2.9883666038513184 7.741142749786377 0.19079722464084625 4456788 5 -1
2.9241831302642822 7.763792037963867 0.25439631938934326 4456788 5 -1
3.176591396331787 7.658699989318848 0.3815944492816925 4456788 5 -1
3.173973560333252 7.652389049530029 0.5087926387786865 4456788 5 -1
3.1130595207214355 7.684743404388428 0.3815944492816925 4456788 5 -1
3.3671867847442627 7.57683801651001 0.3815944492816925 4456788 5 -1
3.0494844913482666 7.710065841674805 -0.8300303220748901 4456788 0 -1
3.0574309825897217 7.730157375335693 -0.5746363401412964 4456788 5 -1
3.053821563720703 7.721031188964844 -0.7023333311080933 4456788 5 -1
2.93565034866333 7.794238567352295 0.255393922328949 4456788 5 -1
3.0624771118164062 7.742915630340576 0.3192424178123474 4456788 5 -1
2.9300379753112793 7.779337406158447 0.5746363401412964 4456788 5 -1
3.187828779220581 7.685792922973633 0.4469393789768219 4456788 5 -1
3.0603156089782715 7.737450122833252 0.4469393789768219 4456788 5 -1
2.936944007873535 7.797673225402832 -0.06384848058223724 4456788 5 -1
3.192049264907837 7.695969104766846 0.1276969611644745 4456788 5 -1
3.0247905254364014 7.647631645202637 1.340818166732788 4456788 0 -1
3.122692108154297 7.708521842956543 -0.510787844657898 4456788 5 -1
3.0589447021484375 7.733984470367432 -0.8973705172538757 4456788 0 -1
3.061396598815918 7.740183353424072 -0.8332725763320923 4456788 5 -1
3.0693740844726562 7.760353088378906 -0.5768810510635376 4456788 5 -1
3.0676534175872803 7.756002902984619 -0.6409789323806763 4456788 5 -1
3.14070463180542 7.752986431121826 0.06409788876771927 4456788 5 -1
3.0752532482147217 7.775217533111572 0.2563915550708771 4456788 5 -1
3.0734455585479736 7.770647048950195 0.3845873475074768 4456788 5 -1
3.0744400024414062 7.7731614112854 0.32048946619033813 4456788 5 -1
3.0763375759124756 7.777958869934082 0.12819577753543854 4456788 5 -1
3.012512445449829 7.8036909103393555 -0.06409788876771927 4456788 5 -1
3.264286756515503 7.688955783843994 -0.44868525862693787 4456788 5 -1
2.9484164714813232 7.828132629394531 0.06409788876771927 4456788 5 -1
3.13489031791687 7.738633632659912 -0.5127831101417542 4456788 5 -1
3.065370559692383 7.75023078918457 -1.0295567512512207 4456788 0 -1
3.08286190032959 7.794454574584961 -0.5147783756256104 4456788 5 -1
3.149683713912964 7.775152206420898 0.38608381152153015 4456788 5 -1
3.0883076190948486 7.808223247528076 0.1286945939064026 4456788 5 -1
3.15301775932312 7.783381938934326 0 4456788 5 -1
2.9598889350891113 7.858592510223389 -0.0643472969532013 4456788 5 -1
3.0883076190948486 7.808223247528076 0.1286945939064026 4456788 5 -1
3.023967981338501 7.833365440368652 0.1286945939064026 4456788 5 -1
3.022902250289917 7.830604553222656 0.2573891878128052 4456788 5 -1
2.829951047897339 7.9023847579956055 -0.2573891878128052 4456788 5 -1
3.149683713912964 7.775152206420898 -0.38608381152153015 4456788 5 -1
2.993569850921631 7.568696022033691 -2.1962881088256836 4456788 0 -1
3.160682439804077 7.802302837371826 -0.452176958322525 4456788 5 -1
3.099822759628296 7.837337017059326 -0.19379012286663055 4456788 5 -1
3.035688877105713 7.86372709274292 0.12919341027736664 4456788 5 -1
3.2909486293792725 7.7517571449279785 0.3875802457332611 4456788 5 -1
3.165238618850708 7.8135504722595215 0 4456788 5 -1
2.8421716690063477 7.93651008605957 -0.06459670513868332 4456788 5 -1
3.1648669242858887 7.8126325607299805 0.12919341027736664 4456788 5 -1
2.9713613986968994 7.889051914215088 -0.06459670513868332 4456788 5 -1
3.100550889968872 7.839178085327148 0.06459670513868332 4456788 5 -1
3.035243034362793 7.86257266998291 0.19379012286663055 4456788 5 -1
3.032835006713867 7.856334686279297 0.3875802457332611 4456788 5 -1
2.971099615097046 7.888357162475586 0.12919341027736664 4456788 5 -1
2.842255115509033 7.936742782592773 0 4456788 5 -1
3.1644022464752197 7.811485767364502 -0.19379012286663055 4456788 5 -1
3.1661529541015625 7.815806865692139 -0.71330726146698 4456788 5 -1
3.0463356971740723 7.8913068771362305 0.2593844532966614 4456788 5 -1
3.0369222164154053 7.866922378540039 -0.71330726146698 4456788 5 -1
3.1728856563568115 7.832427501678467 0.4539228081703186 4456788 5 -1
3.303654909133911 7.781686782836914 0.38907670974731445 4456788 5 -1
3.1766200065612793 7.84164571762085 0.19453835487365723 4456788 5 -1
3.177459716796875 7.843718528747559 0 4456788 5 -1
2.917304277420044 7.941766738891602 0.19453835487365723 4456788 5 -1
3.2423057556152344 7.817136287689209 0 4456788 5 -1
3.0474095344543457 7.894089221954346 0.1296922266483307 4456788 5 -1
2.9828338623046875 7.919511795043945 -0.06484611332416534 4456788 5 -1
2.917989492416382 7.94363260269165 0.06484611332416534 4456788 5 -1
3.1773664951324463 7.8434882164001465 0.06484611332416534 4456788 5 -1
3.1125221252441406 7.869445323944092 -0.06484611332416534 4456788 5 -1
2.9872653484344482 7.931277751922607 0.5858597159385681 4456788 5 -1
3.1600916385650635 7.443526744842529 -2.603821039199829 4456788 0 -1
3.176168203353882 7.8405303955078125 0.7811462879180908 4456788 5 -1
3.1873388290405273 7.868105888366699 0.32547762989997864 4456788 5 -1
3.1893062591552734 7.87296199798584 0.13019104301929474 4456788 5 -1
3.254680633544922 7.8469719886779785 0.06509552150964737 4456788 5 -1
3.189587116241455 7.873655319213867 0.06509552150964737 4456788 5 -1
3.124218225479126 7.899016380310059 -0.13019104301929474 4456788 5 -1
3.1836822032928467 7.859078884124756 -0.520764172077179 4456788 5 -1
3.317434310913086 7.814144134521484 -0.32547762989997864 4456788 5 -1
3.318312168121338 7.816211223602295 -0.2603820860385895 4456788 5 -1
3.332200288772583 7.84892463684082 0.1306898593902588 4456788 5 -1
3.20190167427063 7.904054641723633 0 4456788 5 -1
3.201807737350464 7.903822898864746 -0.0653449296951294 4456788 5 -1
3.200397491455078 7.900341510772705 -0.2613797187805176 4456788 5 -1
3.265711545944214 7.873567581176758 -0.2613797187805176 4456788 5 -1
3.3310258388519287 7.846158504486084 -0.2613797187805176 4456788 5 -1
3.3301448822021484 7.844083309173584 -0.32672467827796936 4456788 5 -1
3.263791799545288 7.86893892288208 -0.39206960797309875 4456788 5 -1
3.327794313430786 7.8385467529296875 -0.45741453766822815 4456788 5 -1
3.263791799545288 7.86893892288208 -0.39206960797309875 4456788 5 -1
3.134253978729248 7.9243903160095215 -0.32672467827796936 4456788 5 -1
3.39304518699646 7.81052303314209 -0.45741453766822815 4456788 5 -1
3.395441770553589 7.8160400390625 -0.32672467827796936 4456788 5 -1
3.0121047496795654 7.61555814743042 2.4925849437713623 4456788 0 -1
3.1470491886138916 7.956740379333496 0.2623773515224457 4456788 5 -1
3.1470491886138916 7.956740379333496 0.2623773515224457 4456788 5 -1
3.1451990604400635 7.952063083648682 0.3935660421848297 4456788 5 -1
3.214122772216797 7.93422269821167 0 4456788 5 -1
3.0829341411590576 7.986112594604492 0 4456788 5 -1
3.1485283374786377 7.960480213165283 0 4456788 5 -1
3.2788503170013428 7.905244827270508 -0.19678302109241486 4456788 5 -1
3.2788503170013428 7.905244827270508 -0.19678302109241486 4456788 5 -1
3.3437397480010986 7.876105785369873 -0.2623773515224457 4456788 5 -1
3.3417742252349854 7.871475696563721 -0.3935660421848297 4456788 5 -1
3.210724115371704 7.925833225250244 -0.3935660421848297 4456788 5 -1
3.2781763076782227 7.903619289398193 -0.2623773515224457 4456788 5 -1
3.2735493183135986 7.892463684082031 -0.5247547030448914 4456788 5 -1
3.4714956283569336 7.811553478240967 -0.45916038751602173 4456788 5 -1
3.143996000289917 7.949021339416504 -0.45916038751602173 4456788 5 -1
3.143996000289917 7.949021339416504 -0.45916038751602173 4456788 5 -1
3.0374481678009033 7.4980926513671875 -2.897125005722046 4456788 0 -1
3.4897186756134033 7.8525590896606445 0 4456788 5 -1
