VERSION .7
FIELDS x y z rgb label object
SIZE 4 4 4 4 4 4
TYPE F F F I I I
COUNT 1 1 1 1 1 1
WIDTH 682
HEIGHT 1
POINTS 682
VIEWPOINT 0 0 0 1 0 0 0
DATA ascii
-1.6838241815567017 1.8058903217315674 -0.1516401469707489 4505456 0 -1
-1.4722281694412231 1.9749188423156738 0.22746022045612335 4505456 0 -1
-1.45327627658844 1.949495792388916 0.4549204409122467 8705099 0 -1
-1.4627389907836914 1.9621896743774414 0.36014536023139954 10672695 0 -1
-1.5334649085998535 1.9764814376831055 0.1536354124546051 4456788 0 -1
-1.6897910833358765 1.850602149963379 -0.038408853113651276 4456788 0 -1
-1.5308871269226074 1.973158836364746 0.21124869585037231 4456788 0 -1
-2.092298984527588 1.3776723146438599 -0.07681770622730255 4456788 0 -1
-1.6882026195526123 1.8488624095916748 -0.11522655934095383 4456788 0 -1
-1.5334649085998535 1.9764814376831055 0.1536354124546051 4456788 0 -1
-1.6899399757385254 1.8507651090621948 -0.019204426556825638 4456788 0 -1
-1.5308871269226074 1.973158836364746 0.21124869585037231 4456788 0 -1
-1.6611438989639282 1.857393741607666 0.2688619792461395 4456788 0 -1
-1.6529839038848877 1.8482698202133179 0.3648841083049774 4456788 0 -1
-1.6565495729446411 1.8522566556930542 0.32647526264190674 4456788 0 -1
-1.639121651649475 1.8709521293640137 0.3072708249092102 4456788 0 -1
-1.6420502662658691 1.8742949962615967 0.2688619792461395 4523353 0 -1
-1.633984088897705 1.865087866783142 0.3648841083049774 4657508 0 -1
-1.6420502662658691 1.8742949962615967 0.2688619792461395 4724328 0 -1
-2.0510094165802 1.4322549104690552 0.1536354124546051 4536450 0 -1
-1.5261725187301636 1.9670822620391846 0.28806641697883606 4536450 0 -1
-1.3715927600860596 2.0326013565063477 0.5185195207595825 4536450 0 -1
-1.7259104251861572 1.8123904466629028 0.13443098962306976 3757452 0 -1
-1.7259104251861572 1.8123904466629028 -0.13443098962306976 2666112 0 -1
-1.476508378982544 1.9806605577468872 0.42249739170074463 10672695 0 -1
-1.5162850618362427 2.0340189933776855 0.09726917743682861 4456788 0 -1
-1.6329224109649658 1.9416277408599854 0.09726917743682861 4456788 0 -1
-1.5546611547470093 2.0038013458251953 0.11672300845384598 4456788 0 -1
-1.7301201820373535 1.855542540550232 -0.09726917743682861 4456788 0 -1
-1.7301201820373535 1.855542540550232 -0.09726917743682861 4456788 0 -1
-1.5517313480377197 2.0000250339508057 0.19453835487365723 4456788 0 -1
-1.5360264778137207 1.9797829389572144 0.4085305333137512 4456788 0 -1
-1.61506986618042 1.8816636800765991 0.5447073578834534 4456788 0 -1
-1.6570404767990112 1.8914052248001099 0.35016903281211853 4456788 0 -1
-1.678063154220581 1.876312017440796 0.33071520924568176 4456788 0 -1
-1.6718015670776367 1.9082540273666382 0.09726917743682861 4456788 0 -1
-1.6647088527679443 1.9001582860946655 -0.2528998553752899 4456788 0 -1
-1.6552046537399292 1.8893098831176758 0.3696228563785553 4523353 0 -1
-1.6251459121704102 1.8549996614456177 0.6030688881874084 4590430 0 -1
-1.6092942953109741 1.8749347925186157 0.5836150646209717 4657508 0 -1
-1.5894196033477783 1.8517794609069824 0.7003380656242371 4729209 0 -1
-1.64404296875 1.8382725715637207 0.6030688881874084 4341894 0 -1
-1.7341121435165405 1.8210030794143677 0.35016903281211853 3887499 0 -1
-1.743428111076355 1.830785870552063 -0.23344601690769196 2199437 0 -1
-1.57329523563385 2.0278186798095703 0.1576259434223175 4456788 0 -1
-1.585386037826538 2.0028364658355713 0.2955486476421356 4456788 0 -1
-1.6682775020599365 1.8653701543807983 0.5910972952842712 4456788 0 -1
-1.6550203561782837 1.8890994787216187 0.5516908168792725 4456788 0 -1
-1.6655800342559814 1.9011527299880981 0.4728778302669525 4456788 0 -1
-1.6832493543624878 1.9213210344314575 0.2955486476421356 4456788 0 -1
-1.7090719938278198 1.8717178106307983 0.43347135186195374 4456788 0 -1
-1.6651204824447632 1.8618401288986206 0.610800564289093 4456788 0 -1
-1.6605116128921509 1.8953673839569092 0.5122843384742737 4523353 0 -1
-1.642751693725586 1.8750956058502197 0.63050377368927 4590430 0 -1
-1.649101972579956 1.8823440074920654 0.5910972952842712 4725613 0 -1
-1.7056565284729004 1.9071651697158813 -0.25614216923713684 4728182 0 -1
-1.6169419288635254 1.8838447332382202 0.6699102520942688 4729209 0 -1
-1.6723648309707642 1.9484161138534546 -0.13792270421981812 4471684 0 -1
-1.6584761142730713 1.8544108867645264 0.6502070426940918 4341894 0 -1
-1.7080823183059692 1.9098775386810303 -0.21673567593097687 3302798 0 -1
-1.6828895807266235 1.8817086219787598 0.6384848356246948 4456788 0 -1
-1.6699765920639038 1.9061710834503174 0.5985795259475708 4456788 0 -1
-1.6730276346206665 1.909653663635254 0.5786268711090088 4456788 0 -1
-1.8728493452072144 1.8037559986114502 0.1396685540676117 4456788 0 -1
-1.6717044115066528 1.9476466178894043 0.4389583170413971 4456788 0 -1
-1.7764090299606323 1.826131820678711 0.5387215614318848 4456788 0 -1
-1.7764090299606323 1.826131820678711 0.5387215614318848 4456788 0 -1
-1.6861978769302368 1.8854076862335205 0.6185321807861328 4456788 0 -1
-1.8887568712234497 1.7790542840957642 0.21947915852069855 4523353 0 -1
-1.7785764932632446 1.8676954507827759 0.35914772748947144 4523353 0 -1
-1.6730276346206665 1.909653663635254 0.5786268711090088 4523353 0 -1
-1.6668163537979126 1.9025638103485107 0.6185321807861328 4590430 0 -1
-1.6730276346206665 1.909653663635254 0.5786268711090088 4657508 0 -1
-1.6408610343933105 1.9117120504379272 0.6584374904632568 4725613 0 -1
-1.6952004432678223 1.856526255607605 0.6783901453018188 4726897 0 -1
-1.664656400680542 1.861321210861206 0.7382481098175049 4728182 0 -1
-1.7107343673706055 1.8347514867782593 0.6983428001403809 4729209 0 -1
-1.5493768453598022 2.0373337268829346 0.4788636267185211 11197490 0 -1
-1.5930360555648804 2.012500762939453 0.4389583170413971 11918891 0 -1
-1.5658133029937744 2.0589468479156494 0.2992897629737854 12640037 0 -1
-1.896985650062561 1.8270018100738525 0.12121235579252243 4456788 0 -1
-1.650551199913025 1.9230016469955444 0.7272741198539734 4456788 0 -1
-1.896985650062561 1.8270018100738525 0.12121235579252243 4456788 0 -1
-1.8768049478530884 1.8477264642715454 0.12121235579252243 4456788 0 -1
-1.8357410430908203 1.8871245384216309 0.14141441881656647 4456788 0 -1
-1.8962600231170654 1.8263028860092163 0.14141441881656647 4523353 0 -1
-1.9155864715576172 1.8043255805969238 0.1616164743900299 4590430 0 -1
-1.7971385717391968 1.9274193048477173 0.08080823719501495 4657508 0 -1
-1.8173311948776245 1.9083919525146484 0.08080823719501495 4724328 0 -1
-1.650551199913025 1.9230016469955444 0.7272741198539734 4725613 0 -1
-1.85858952999115 1.8699805736541748 0 4726897 0 -1
-1.595104455947876 2.0559284687042236 -0.4242432415485382 11197490 0 -1
-1.5989454984664917 2.0608792304992676 0.38383913040161133 11918891 0 -1
-1.505454182624817 2.1438446044921875 -0.5112866759300232 4456788 0 -1
-1.8801536560058594 1.891676902770996 0.10225734114646912 4456788 0 -1
-1.7893438339233398 1.9596288204193115 0.2863205373287201 4456788 0 -1
-1.8779966831207275 1.8895066976547241 0.1636117398738861 4456788 0 -1
-1.798407793045044 1.9695554971694946 0.10225734114646912 4456788 0 -1
-1.921929955482483 1.8510258197784424 0.06135440245270729 4456788 0 -1
-1.8158472776412964 1.9474843740463257 0.18406321108341217 4456788 0 -1
-1.8984096050262451 1.868996500968933 0.1636117398738861 4523353 0 -1
-1.776276707649231 1.9453182220458984 0.42948082089424133 4590430 0 -1
-1.856652855873108 1.9086216688156128 0.18406321108341217 4724328 0 -1
-1.7907780408859253 1.9611995220184326 0.2658690810203552 4725613 0 -1
-1.7907780408859253 1.9611995220184326 0.2658690810203552 4725613 0 -1
-1.6283165216445923 2.0570712089538574 0.4908352196216583 11197490 0 -1
-1.6186854839324951 2.08632230758667 0.3885778784751892 11918891 0 -1
-1.695399522781372 2.015916347503662 0.6003254055976868 4456788 0 -1
-1.8404297828674316 1.9738489389419556 0.12420525401830673 4456788 0 -1
-1.8423779010772705 1.975938320159912 0 4456788 0 -1
-1.8490242958068848 1.9416731595993042 -0.3312140107154846 4523353 0 -1
-1.7777125835418701 2.029144763946533 0.14490613341331482 4523353 0 -1
-1.7177187204360962 2.08429217338562 0.062102627009153366 4523353 0 -1
-1.816011905670166 1.9476608037948608 -0.45541927218437195 4590430 0 -1
-1.8410253524780273 1.974487543106079 0.10350438207387924 4724328 0 -1
-1.8317464590072632 1.9645360708236694 0.28981226682662964 4725613 0 -1
-1.8227485418319702 1.9548858404159546 -0.3933166265487671 4726897 0 -1
-1.7330862283706665 2.019160509109497 0.6285085082054138 4456788 0 -1
-1.7362525463104248 2.0228495597839355 0.6075582504272461 4456788 0 -1
-1.586722731590271 2.305018186569214 -0.4339701533317566 4456788 0 -1
-1.713260293006897 2.208219528198242 -0.45566868782043457 4456788 0 -1
-1.4835257530212402 2.3343420028686523 0.6075582504272461 4456788 0 -1
-1.0326542854309082 2.6108782291412354 -0.3688746392726898 4456788 0 -1
-0.8892208933830261 2.6871697902679443 -0.08679403364658356 4456788 0 -1
-1.1433846950531006 2.5728423595428467 -0.30377912521362305 4456788 0 -1
-1.7861377000808716 2.1238083839416504 -0.5641612410545349 4456788 0 -1
-1.6421005725860596 2.2923426628112793 -0.2603820860385895 4456788 0 -1
-1.6333260536193848 2.2800934314727783 -0.3905731439590454 4456788 0 -1
-1.5160391330718994 2.3855020999908447 -0.17358806729316711 4456788 0 -1
-1.5152795314788818 2.3843069076538086 -0.1952865719795227 4456788 0 -1
-2.106131076812744 1.852239966392517 -0.3905731439590454 4456788 0 -1
-1.61183500289917 2.2953362464904785 -0.3905731439590454 4456788 0 -1
-1.4936326742172241 2.3979268074035645 -0.1952865719795227 4456788 0 -1
-1.7223470211029053 2.17586088180542 -0.5641612410545349 4456788 0 -1
-1.5545223951339722 2.3501102924346924 -0.28208062052726746 4456788 0 -1
-1.4319334030151367 2.4427058696746826 0.04339701682329178 4456788 0 -1
-1.4116069078445435 2.4080312252044678 -0.47736719250679016 4456788 0 -1
-1.5303843021392822 2.360321283340454 -0.32547762989997864 4590430 0 -1
-1.5072635412216187 2.32466197013855 -0.5858597159385681 4657508 0 -1
-1.6824368238449097 2.212299346923828 0.5424627065658569 4726897 0 -1
-1.8225868940353394 2.1234347820281982 0.4339701533317566 2977934 0 -1
-1.6086236238479614 2.3368334770202637 -0.39506250619888306 4456788 0 -1
-1.7448581457138062 2.2042994499206543 -0.5486978888511658 4456788 0 -1
-1.6147736310958862 2.3457677364349365 -0.3072708249092102 4456788 0 -1
-1.578579068183899 2.386478900909424 -0.1316874921321869 4456788 0 -1
-1.5450248718261719 2.382901430130005 -0.37311458587646484 4456788 0 -1
-1.046518325805664 2.645930767059326 -0.3292187452316284 4456788 0 -1
-1.5505516529083252 2.391425371170044 -0.285322904586792 4456788 0 -1
-1.5505516529083252 2.391425371170044 -0.285322904586792 4456788 0 -1
-1.155530571937561 2.600172996520996 -0.3292187452316284 4456788 0 -1
-1.7956072092056274 2.178802728652954 -0.4828541576862335 4456788 0 -1
-1.7956072092056274 2.178802728652954 -0.4828541576862335 4456788 0 -1
-1.554592251777649 2.3976571559906006 -0.19753125309944153 4456788 0 -1
-1.6569873094558716 2.313124179840088 -0.3292187452316284 4456788 0 -1
-1.4262375831604004 2.483152389526367 0.06584374606609344 4456788 0 -1
-1.6103075742721558 2.339279890060425 -0.37311458587646484 4456788 0 -1
-1.5711311101913452 2.3752193450927734 -0.3072708249092102 4456788 0 -1
-1.766399621963501 2.18707537651062 -0.5486978888511658 4456788 0 -1
-1.6569873094558716 2.313124179840088 -0.3292187452316284 4456788 0 -1
-1.5596576929092407 2.3578736782073975 -0.4609062373638153 4456788 0 -1
-1.448562502861023 2.4710731506347656 0 4456788 0 -1
-1.6263384819030762 2.270339012145996 -0.6364895701408386 4456788 0 -1
-1.4238576889038086 2.428929567337036 -0.5267499685287476 4456788 0 -1
-1.5555158853530884 2.3516123294830322 -0.5048021078109741 4456788 0 -1
-1.5485725402832031 2.3411154747009277 -0.570645809173584 4523353 0 -1
-1.5465466976165771 2.3852484226226807 -0.35116666555404663 4590430 0 -1
-1.5460615158081055 2.3373193740844727 -0.5925937294960022 4657508 0 -1
-1.4670048952102661 2.40311598777771 -0.5267499685287476 4725613 0 -1
-1.6963731050491333 2.2306246757507324 -0.5925937294960022 4726897 0 -1
-1.5711311101913452 2.3752193450927734 -0.3072708249092102 4726897 0 -1
-1.6955763101577759 2.274528980255127 -0.39506250619888306 2977934 0 -1
-1.5942292213439941 2.362532377243042 -0.285322904586792 2977934 0 -1
-1.792104959487915 2.218902587890625 -0.2633749842643738 4505456 0 -1
-1.6890044212341309 2.3113279342651367 -0.4439464807510376 4456788 0 -1
-1.548283576965332 2.436239004135132 -0.24417057633399963 4456788 0 -1
-1.6302107572555542 2.3681929111480713 -0.35515719652175903 4456788 0 -1
-2.102546215057373 1.9804264307022095 -0.2219732403755188 4456788 0 -1
-1.7673192024230957 2.2326748371124268 -0.5327357649803162 4456788 0 -1
-1.6772618293762207 2.3414270877838135 -0.31076255440711975 4456788 0 -1
-1.7018629312515259 2.2829623222351074 -0.5327357649803162 4456788 0 -1
-1.5876158475875854 2.4001407623291016 -0.3329598605632782 4456788 0 -1
-1.5876158475875854 2.4001407623291016 -0.3329598605632782 4456788 0 -1
-1.5731922388076782 2.3783352375030518 -0.5105384588241577 4456788 0 -1
-1.8278676271438599 2.3559367656707764 0.275346577167511 2977934 0 -1
-1.8312737941741943 2.3603270053863525 0.20650994777679443 2912910 0 -1
-2.786787271499634 1.7792037725448608 0.7262765169143677 4212104 0 -1
-2.5310842990875244 2.020225763320923 0.985660970211029 4212104 0 -1
-3.1181817054748535 1.023337483406067 0.8300303220748901 8180304 0 -1
-2.92061448097229 1.7469719648361206 0.3142542541027069 4456788 0 -1
-2.8983936309814453 1.7336806058883667 0.5237571001052856 4657508 0 -1
-2.874244451522827 1.7192356586456299 0.6808842420578003 4212104 0 -1
-2.819242000579834 1.6863359212875366 0.9427627921104431 2264205 0 -1
-2.879981517791748 1.66407310962677 0.7856356501579285 8180304 0 -1
-2.3202342987060547 2.488436222076416 1.005863070487976 4657508 0 -1
-2.3359572887420654 2.5052990913391113 0.9243065714836121 4724328 0 -1
-2.3359081745147705 2.505246162414551 1.0425260066986084 4657508 0 -1
-2.346971035003662 2.51711106300354 0.9876562356948853 4724328 0 -1
-2.3469738960266113 2.570326328277588 0.968950629234314 4657508 0 -1
-2.3041741847991943 2.576392650604248 1.0520035028457642 4724328 0 -1
-2.0750060081481934 2.954915761947632 0.5028068423271179 4456788 0 -1
-2.4372222423553467 2.669163465499878 0.4748730957508087 4523353 0 -1
-2.66323184967041 2.452629327774048 0.6482117772102356 4456788 0 -1
-2.372652769088745 2.598449230194092 1.0709586143493652 4456788 0 -1
-3.096865177154541 1.9771705865859985 0.16909871995449066 4456788 0 -1
-2.880963087081909 2.2416703701019287 0.4509299099445343 4456788 0 -1
-2.7502453327178955 2.4187073707580566 0.3381974399089813 4456788 0 -1
-2.437816858291626 2.6698145866394043 0.6763948798179626 4456788 0 -1
-2.861318826675415 2.2263851165771484 0.6200286149978638 4456788 0 -1
-2.7538256645202637 2.421856164932251 0.28183120489120483 4456788 0 -1
-2.7538256645202637 2.421856164932251 0.28183120489120483 4456788 0 -1
-2.8085267543792725 2.185307741165161 -0.9300429821014404 4523353 0 -1
-2.8400583267211914 2.2098424434661865 0.7609442472457886 4590430 0 -1
-2.629228353500366 2.5322306156158447 0.4509299099445343 4657508 0 -1
-2.756751775741577 2.424429178237915 0.22546495497226715 4728182 0 -1
-2.8144898414611816 2.4174957275390625 0.05686505511403084 4456788 0 -1
-2.612990617752075 2.5725061893463135 0.5686505436897278 4456788 0 -1
-2.7679219245910645 2.434252977371216 0.42648792266845703 4456788 0 -1
-2.7626469135284424 2.4296138286590576 0.48335298895835876 4456788 0 -1
-2.9514219760894775 2.2374629974365234 0.22746022045612335 4456788 0 -1
-2.6344094276428223 2.5372204780578613 0.6255156397819519 4456788 0 -1
-2.7626469135284424 2.4296138286590576 0.48335298895835876 4456788 0 -1
-2.81349778175354 2.4166436195373535 0.11373011022806168 4456788 0 -1
-2.8048038482666016 2.4091761112213135 0.31275781989097595 4456788 0 -1
-2.8028957843780518 2.4075372219085693 0.3411903381347656 4456788 0 -1
-2.796165943145752 2.401756525039673 0.42648792266845703 4456788 0 -1
-2.7745378017425537 2.383178949356079 0.6255156397819519 4523353 0 -1
-2.7703089714050293 2.436352252960205 0.39805540442466736 4590430 0 -1
-2.7388668060302734 2.4087002277374268 0.6823806762695312 4657508 0 -1
-2.812753677368164 2.4160044193267822 0.14216263592243195 4728182 0 -1
-2.808119058609009 2.4120235443115234 0.2558927536010742 4471684 0 -1
-2.8095266819000244 2.4132328033447266 0.22746022045612335 3302798 0 -1
-2.9562015533447266 2.241086483001709 0.0852975845336914 2199437 0 -1
-2.9514219760894775 2.2374629974365234 -0.22746022045612335 2070922 0 -1
-2.69465970993042 2.538148880004883 0.2558927536010742 2666112 0 -1
-2.798922300338745 2.4615161418914795 0.3441832363605499 4456788 0 -1
-2.953892469406128 2.2984166145324707 0.05736387148499489 4456788 0 -1
-2.839428424835205 2.4389166831970215 -0.028681935742497444 4456788 0 -1
-2.664254903793335 2.565964698791504 0.5736387372016907 4456788 0 -1
-2.8231263160705566 2.4249141216278076 0.4015471041202545 4456788 0 -1
-2.8153181076049805 2.4182074069976807 0.4875929057598114 4456788 0 -1
-2.8365092277526855 2.4364092350006104 0.17209161818027496 4456788 0 -1
-2.8354241847991943 2.4354772567749023 0.20077355206012726 4456788 0 -1
-2.8231263160705566 2.4249141216278076 0.4015471041202545 4456788 0 -1
-2.8123741149902344 2.4156785011291504 0.5162748694419861 4456788 0 -1
-2.809258460998535 2.4130022525787354 0.5449568033218384 4523353 0 -1
-2.81809139251709 2.4205892086029053 0.4589109718799591 4590430 0 -1
-2.7825913429260254 2.390096664428711 0.7457303404808044 4657508 0 -1
-2.8365092277526855 2.4364092350006104 0.17209161818027496 4728182 0 -1
-2.8311636447906494 2.4318177700042725 0.28681936860084534 4471684 0 -1
-2.834171772003174 2.434401512145996 0.22945548593997955 3302798 0 -1
-2.952070474624634 2.2969987392425537 0.14340968430042267 2782862 0 -1
-2.952070474624634 2.2969987392425537 0.14340968430042267 2199437 0 -1
-2.979767322540283 2.258951425552368 -0.17209161818027496 2070922 0 -1
-2.809258460998535 2.4130022525787354 0.5449568033218384 2070922 0 -1
-2.818910837173462 2.479095220565796 0.40503883361816406 4456788 0 -1
-2.8352718353271484 2.493483781814575 0 4456788 0 -1
-2.648501396179199 2.607466697692871 0.6654209494590759 4456788 0 -1
-2.9728341102600098 2.313154935836792 0.2603820860385895 4456788 0 -1
-2.7980899810791016 2.5185747146606445 0.2893134355545044 4456788 0 -1
-2.8111143112182617 2.472238540649414 0.4918328523635864 4456788 0 -1
-2.8425965309143066 2.4416377544403076 0.4629015028476715 4456788 0 -1
-2.82326078414917 2.4829206466674805 0.34717613458633423 4456788 0 -1
-2.8269362449645996 2.4861531257629395 0.2893134355545044 4456788 0 -1
-2.8164820671081543 2.476959228515625 0.4339701533317566 4456788 0 -1
-2.833686590194702 2.4339847564697266 0.5496955513954163 4456788 0 -1
-2.836829423904419 2.4366843700408936 0.520764172077179 4523353 0 -1
-2.8081746101379395 2.469653367996216 0.520764172077179 4590430 0 -1
-2.7827646732330322 2.4473063945770264 0.723283588886261 4657508 0 -1
-2.957448720932007 2.3011837005615234 0.4629015028476715 4728182 0 -1
-2.8211703300476074 2.4810822010040283 0.37610748410224915 4728182 0 -1
-2.854011058807373 2.451442241668701 0.3182447850704193 3302798 0 -1
-2.9795784950256348 2.3184027671813965 0.05786268785595894 2199437 0 -1
-2.963827610015869 2.3656270503997803 0.35016903281211853 4456788 0 -1
-2.99678111076355 2.3317880630493164 0.29180753231048584 4456788 0 -1
-2.9882736206054688 2.3251683712005615 0.4085305333137512 4456788 0 -1
-2.84076189994812 2.49831223487854 0.43771129846572876 4456788 0 -1
-2.99678111076355 2.3317880630493164 0.29180753231048584 4456788 0 -1
-2.8381409645080566 2.496007204055786 0.4668920338153839 4456788 0 -1
-2.9882736206054688 2.3251683712005615 0.4085305333137512 4456788 0 -1
-2.829245090484619 2.4881837368011475 0.5544342994689941 4456788 0 -1
-2.990668773651123 2.3270320892333984 0.37934979796409607 4523353 0 -1
-2.835348129272461 2.493551015853882 0.49607279896736145 4523353 0 -1
-2.803481101989746 2.5234274864196777 0.5252535343170166 4590430 0 -1
-2.5936121940612793 2.6662089824676514 0.8170610666275024 4590430 0 -1
-2.980008840560913 2.318737506866455 0.49607279896736145 4657508 0 -1
-2.84076189994812 2.49831223487854 0.43771129846572876 4657508 0 -1
-2.6635522842407227 2.622284412384033 0.7295188307762146 4657508 0 -1
-2.9768924713134766 2.316312789916992 0.5252535343170166 4724328 0 -1
-2.8495376110076904 2.5060300827026367 0.320988267660141 4729209 0 -1
-2.9500229358673096 2.4140615463256836 0.4708825647830963 4456788 0 -1
-2.234776735305786 2.938591957092285 1.0594857931137085 4456788 0 -1
3.224865674972534 1.9289605617523193 -0.794614315032959 4456788 0 -1
-3.2606043815612793 2.0162057876586914 0.23544128239154816 4456788 0 -1
-2.9208149909973145 2.4493203163146973 0.4708825647830963 4456788 0 -1
-3.705477714538574 0.9999203681945801 0.14715079963207245 4456788 0 -1
-3.031217575073242 2.3585829734802246 -0.02943016029894352 4456788 0 -1
-3.031217575073242 2.3585829734802246 -0.02943016029894352 4456788 0 -1
-2.7357189655303955 2.6933329105377197 0.11772064119577408 4456788 0 -1
-2.7357189655303955 2.6933329105377197 0.11772064119577408 4456788 0 -1
-2.3721156120300293 2.937045097351074 0.7063238620758057 4456788 0 -1
3.261059045791626 1.9506096839904785 -0.559173047542572 4456788 0 -1
-2.8854079246520996 2.303035020828247 -1.0594857931137085 4456788 0 -1
-2.5014901161193848 2.9144022464752197 0.02943016029894352 4456788 0 -1
-2.3510236740112305 3.0302321910858154 0.20601113140583038 4456788 0 -1
-2.49322247505188 2.673964738845825 1.1772063970565796 4523353 0 -1
-2.7136847972869873 2.671640157699585 0.5003127455711365 4590430 0 -1
-3.008439302444458 2.3408591747283936 0.4708825647830963 4657508 0 -1
-2.9032180309295654 2.493708610534668 0.32373178005218506 4657508 0 -1
-2.7303855419158936 2.6296558380126953 0.6180333495140076 4657508 0 -1
-2.7691447734832764 2.6083078384399414 0.5297428965568542 4724328 0 -1
-2.639817953109741 2.7137081623077393 0.6474635601043701 4724328 0 -1
-3.696744441986084 1.1093460321426392 0.32647526264190674 4456788 0 -1
-3.4565517902374268 1.6330758333206177 0.6232709288597107 4456788 0 -1
-3.2957892417907715 1.9713836908340454 0.5045526623725891 4456788 0 -1
-2.9363350868225098 2.4623351097106934 0.5639117956161499 4456788 0 -1
-2.3377926349639893 3.0740513801574707 0.29679569602012634 4456788 0 -1
-2.965698480606079 2.426888942718506 -0.5639117956161499 4456788 0 -1
-2.77345609664917 2.496401786804199 -1.0387848615646362 4456788 0 -1
-2.5167574882507324 2.932189464569092 0.26711612939834595 4456788 0 -1
-2.3737380504608154 3.059508800506592 0.08903870731592178 4456788 0 -1
-2.8807997703552246 2.5335235595703125 0.5342322587966919 4523353 0 -1
-2.5370495319366455 2.7784907817840576 0.9200666546821594 4523353 0 -1
-2.739377737045288 2.6969351768493652 0.4748730957508087 4590430 0 -1
-2.771472215652466 2.6105000972747803 0.7123096585273743 4728182 0 -1
-2.6689376831054688 2.743642807006836 0.5935913920402527 4728182 0 -1
-3.514054536819458 1.6602433919906616 0.38907670974731445 4456788 0 -1
-2.303448438644409 3.152167558670044 -0.11971590667963028 4456788 0 -1
-3.3420255184173584 1.9310452938079834 0.5985795259475708 4456788 0 -1
-2.7119991779327393 2.787909746170044 0.35914772748947144 4456788 0 -1
-2.6019093990325928 2.9093027114868164 0.1496448814868927 4456788 0 -1
-2.8176698684692383 2.362825393676758 -1.3168749809265137 4456788 0 -1
-2.7486886978149414 2.5313284397125244 -1.1373010873794556 4456788 0 -1
-3.2323296070098877 2.1928093433380127 0 4523353 0 -1
-2.922602653503418 2.5702872276306152 0.3292187452316284 4523353 0 -1
-2.7155299186706543 2.791539192199707 0.2992897629737854 4523353 0 -1
-2.5632200241088867 2.8071517944335938 0.8978692889213562 4523353 0 -1
-2.90234375 2.6124141216278076 0.08978693187236786 4590430 0 -1
-2.6409835815429688 2.832437515258789 -0.5087926387786865 4657508 0 -1
-2.624285936355591 2.9343228340148926 0.12071353942155838 4456788 0 -1
-3.3173844814300537 1.9843008518218994 0.7544596195220947 4523353 0 -1
-2.891676664352417 2.6630091667175293 0.24142707884311676 4523353 0 -1
-2.5552098751068115 2.857085943222046 0.9053515791893005 4523353 0 -1
-3.2154078483581543 2.2453744411468506 -0.36214062571525574 4590430 0 -1
-2.8628196716308594 2.6965417861938477 0.21124869585037231 4590430 0 -1
-2.6400694847106934 2.8314571380615234 0.7242812514305115 4590430 0 -1
-2.9052207469940186 2.6150035858154297 0.4828541576862335 4657508 0 -1
-2.760867118835449 2.899205446243286 0.030677201226353645 4590430 0 -1
-2.461958646774292 2.868345260620117 1.3191196918487549 4590430 0 -1
-1.5684398412704468 3.4508888721466064 1.2884424924850464 4590430 0 -1
3.4396767616271973 1.845504641532898 -0.8896388411521912 4590430 0 -1
-2.5270514488220215 3.3229148387908936 -0.45043110847473145 4456788 0 -1
-2.5390307903289795 3.3386669158935547 0.19304190576076508 4456788 0 -1
-2.5410468578338623 3.341317892074585 0.09652095288038254 4523353 0 -1
-2.5607447624206543 3.3672194480895996 0.09726917743682861 4456788 0 -1
-1.9709798097610474 4.336559295654297 1.662305235862732 4456788 0 -1
-1.878115177154541 4.636221408843994 -0.6571904420852661 4456788 4 -1
-2.681432008743286 4.053760528564453 1.3530391454696655 4456788 0 -1
-1.5649807453155518 4.484565258026123 1.7009634971618652 4456788 0 -1
-2.488912343978882 4.077113151550293 1.6236469745635986 4456788 0 -1
-4.139519214630127 2.80824613571167 -0.6571904420852661 4456788 0 -1
-3.1106860637664795 3.774528980255127 1.2370643615722656 4456788 0 -1
-1.0671333074569702 4.682291507720947 -1.546330451965332 4456788 0 -1
0.11265546083450317 4.899479389190674 -1.1984061002731323 4456788 0 -1
1.1136599779129028 4.886437892913818 -0.5798739194869995 4456788 0 -1
1.8897452354431152 4.664930820465088 -0.3479243516921997 4456788 0 -1
2.706078290939331 4.258039951324463 0 4456788 5 -1
3.308075189590454 3.7759554386138916 0.5025573968887329 4456788 0 -1
3.964932918548584 3.085104465484619 -0.4638991355895996 4456788 0 -1
-2.0739660263061523 4.365756988525391 1.5563068389892578 4456788 0 -1
-2.561954975128174 4.113046169281006 1.5173991918563843 4456788 0 -1
-3.124392509460449 3.7911603450775146 1.283953070640564 4456788 0 -1
-1.762016773223877 4.796731948852539 0.03915707767009735 4456788 4 -1
-1.7229114770889282 4.811075687408447 0 4456788 4 -1
-1.7228608131408691 4.810934543609619 0.03915707767009735 4456788 4 -1
-1.1492918729782104 4.699925899505615 -1.6445972919464111 4456788 0 -1
-2.0074265003204346 4.416749477386475 1.6054402589797974 4456788 0 -1
-3.1065359115600586 3.8463711738586426 1.2921836376190186 4456788 0 -1
-1.6683268547058105 4.541680335998535 1.6445972919464111 4456788 0 -1
-3.4290709495544434 3.450087547302246 1.566283106803894 4456788 0 -1
-2.396193504333496 4.1718950271606445 1.7229114770889282 4456788 0 -1
2.5694539546966553 4.383179187774658 -0.5481991171836853 4456788 0 -1
-1.7338345050811768 4.841577529907227 0.039406485855579376 4456788 4 -1
-1.7338345050811768 4.841577529907227 0.039406485855579376 4456788 4 -1
-1.7728233337402344 4.826150417327881 0.11821945756673813 4456788 4 -1
-1.8122193813323975 4.811495780944824 0.11821945756673813 4456788 4 -1
-2.6135525703430176 4.195882320404053 1.4186334609985352 4456788 0 -1
-1.6879462003707886 4.595089912414551 1.5762594938278198 4456788 0 -1
-1.7446544170379639 4.871791362762451 0.0793117880821228 4456788 4 -1
-1.7843056917190552 4.8574090003967285 0.0793117880821228 4456788 4 -1
-1.832191824913025 4.864523410797119 0.3192424178123474 4456788 4 -1
-1.7948949337005615 4.886236190795898 0.1596212089061737 4456788 4 -1
-1.7948949337005615 4.886236190795898 0.1596212089061737 4456788 4 -1
-1.7938398122787476 4.883363723754883 0.23943181335926056 4456788 4 -1
-1.7931536436080933 4.881495952606201 0.2793371081352234 4456788 4 -1
-1.7938398122787476 4.883363723754883 0.23943181335926056 4456788 4 -1
-2.4674761295318604 4.4764628410339355 0.9976325631141663 4456788 0 -1
-1.9086384773254395 4.825644493103027 0.4389583170413971 4456788 4 -1
-1.6146256923675537 4.750229835510254 1.3966856002807617 4456788 0 -1
-1.6146256923675537 4.750229835510254 1.3966856002807617 4456788 0 -1
-1.1646368503570557 4.762678146362305 1.7558332681655884 4456788 0 -1
-1.647438645362854 4.846765518188477 0.9577272534370422 4456788 0 -1
-2.455490827560425 4.454719543457031 1.1173484325408936 4341894 0 -1
-2.002464532852173 4.505942344665527 1.6760227680206299 4341894 0 -1
-1.0956881046295166 4.807582378387451 -1.6760227680206299 4341894 0 -1
-1.2468175888061523 4.770620822906494 -1.6760227680206299 4212104 0 -1
-1.2739295959472656 5.036918640136719 0.35914772748947144 3562893 0 -1
-1.8462488651275635 4.901845455169678 0.1606188416481018 4456788 4 -1
-1.844457745552063 4.897089958190918 0.28108298778533936 4456788 4 -1
-1.799307107925415 4.898247718811035 0.4818565249443054 4456788 4 -1
-1.9655003547668457 4.851935863494873 -0.2409282624721527 4456788 4 -1
-1.604490041732788 4.982979774475098 0.2409282624721527 4456788 4 -1
-1.686448335647583 4.961532115936279 -0.04015471041202545 4456788 4 -1
-2.9431040287017822 4.027507781982422 1.606188416481018 4341894 0 -1
-2.030951499938965 4.570043087005615 1.5660337209701538 4341894 0 -1
-1.9771720170974731 4.6571855545043945 1.365260124206543 2271109 0 -1
-1.8566242456436157 4.929391860961914 0.24242471158504486 4456788 4 -1
-1.7643702030181885 4.926845550537109 0.6464658975601196 4456788 4 -1
-1.737173080444336 4.977994441986084 -0.08080823719501495 4456788 4 -1
-1.6969231367111206 4.992349147796631 0.04040411859750748 4456788 4 -1
-1.6969231367111206 4.992349147796631 0.04040411859750748 4456788 4 -1
-1.6969231367111206 4.992349147796631 -0.04040411859750748 4456788 4 -1
-1.6961756944656372 4.990149974822998 -0.1616164743900299 4456788 4 -1
-1.6961756944656372 4.990149974822998 -0.1616164743900299 4456788 4 -1
-1.6957271099090576 4.988830089569092 -0.20202060043811798 4456788 4 -1
-1.6957271099090576 4.988830089569092 -0.20202060043811798 4456788 4 -1
3.0246102809906006 4.307201385498047 0.3232329487800598 3238030 5 -1
3.021399974822998 4.3026299476623535 0.40404120087623596 3107982 5 -1
-1.910659670829773 4.949422359466553 -0.0406535267829895 4456788 4 -1
-1.8698426485061646 4.964487552642822 0.081307053565979 4456788 4 -1
-1.7868638038635254 4.989656925201416 0.243921160697937 4456788 4 -1
-1.7874419689178467 4.991271495819092 0.2032676339149475 4456788 4 -1
-1.7874419689178467 4.991271495819092 0.2032676339149475 4456788 4 -1
-1.7072476148605347 5.02272367477417 0.081307053565979 4456788 4 -1
-1.6667946577072144 5.0369486808776855 0 4456788 4 -1
-1.7072476148605347 5.02272367477417 -0.081307053565979 4456788 4 -1
-1.7072476148605347 5.02272367477417 -0.081307053565979 4456788 4 -1
-1.7066459655761719 5.02095365524292 -0.162614107131958 4456788 4 -1
-1.7069969177246094 5.02198600769043 -0.1219605803489685 4456788 4 -1
-1.7468183040618896 5.005633354187012 -0.2032676339149475 4456788 4 -1
-3.820929527282715 3.2819736003875732 1.6667946577072144 4456788 0 -1
-4.53390645980835 2.711966037750244 -0.487842321395874 4456788 0 -1
-1.6166123151779175 4.75607442855835 1.707448124885559 4590430 0 -1
3.0417556762695312 4.33161735534668 0.3658817410469055 3302798 5 -1
3.043280601501465 4.333788871765137 0.325228214263916 3238030 5 -1
3.0417556762695312 4.33161735534668 0.3658817410469055 3107982 5 -1
3.043280601501465 4.333788871765137 0.325228214263916 2977934 5 -1
-0.9576157331466675 5.118504047393799 -1.0163382291793823 2199437 0 -1
-1.7995177507400513 5.0249924659729 0.08180586993694305 4456788 4 -1
-1.622177243232727 5.037909507751465 0.6953498721122742 4456788 4 -1
-1.6356850862503052 5.079860210418701 0.12270880490541458 4456788 4 -1
-1.6361174583435059 5.081202983856201 0 4456788 4 -1
-1.4697364568710327 5.121357440948486 -0.3272234797477722 4456788 4 -1
-1.7177215814590454 5.053537845611572 -0.08180586993694305 4456788 4 -1
-1.7178728580474854 5.053982734680176 -0.04090293496847153 4456788 4 -1
-1.716662049293518 5.050420761108398 -0.20451468229293823 4456788 4 -1
-1.717469334602356 5.052795886993408 -0.12270880490541458 4456788 4 -1
-1.7555185556411743 5.030564785003662 -0.3272234797477722 4456788 4 -1
-1.7015048265457153 5.005828380584717 -0.7362528443336487 4456788 4 -1
-4.537346363067627 2.7140235900878906 -0.7362528443336487 4456788 0 -1
3.019611358642578 4.386562824249268 0.36812642216682434 3107982 5 -1
3.0633041858673096 4.362303733825684 0.2863205373287201 2977934 5 -1
-1.8885011672973633 5.014026165008545 0.37037110328674316 4456788 4 -1
-1.515063762664795 5.124690055847168 -0.5349804759025574 4456788 4 -1
-1.4762126207351685 5.143923759460449 -0.45267578959465027 4456788 4 -1
-1.596959114074707 5.0997633934021 0.5349804759025574 4456788 4 -1
-1.5219213962554932 5.147885799407959 -0.1646093726158142 4456788 4 -1
-1.6365948915481567 5.082685947418213 0.5761328339576721 4456788 4 -1
-1.7259104251861572 5.077629566192627 0.28806641697883606 4456788 4 -1
-1.6864533424377441 5.096356391906738 0.1646093726158142 4456788 4 -1
-1.4814844131469727 5.162293434143066 0 4456788 4 -1
-1.4793517589569092 5.154862403869629 -0.28806641697883606 4456788 4 -1
-1.4807883501052856 5.159868240356445 -0.1646093726158142 4456788 4 -1
-1.6872460842132568 5.098752021789551 0 4456788 4 -1
-1.7279417514801025 5.083605766296387 -0.12345702946186066 4456788 4 -1
-1.7242835760116577 5.072843551635742 -0.37037110328674316 4456788 4 -1
-1.7676796913146973 5.065413475036621 -0.2469140589237213 4456788 4 -1
-4.533451080322266 2.8032748699188232 -0.6584374904632568 4456788 0 -1
-1.7153599262237549 5.0465898513793945 -0.6584374904632568 4590430 4 -1
3.1230759620666504 4.359757423400879 0.28806641697883606 3107982 5 -1
3.126751661300659 4.364888668060303 0.12345702946186066 2977934 5 -1
-1.4745830297470093 5.138245582580566 -0.7866332530975342 4456788 4 -1
-1.9422229528427124 5.031184673309326 0.3312140107154846 4456788 4 -1
-1.5242459774017334 5.1557488441467285 -0.5382227897644043 4456788 4 -1
-1.4851592779159546 5.175098896026611 -0.45541927218437195 4456788 4 -1
-1.5273611545562744 5.166285991668701 -0.41401752829551697 4456788 4 -1
-1.8197509050369263 5.081490993499756 0.24841050803661346 4456788 4 -1
-1.5716030597686768 5.163633346557617 0.24841050803661346 4456788 4 -1
-1.7760369777679443 5.089361667633057 0.3726157546043396 4456788 4 -1
-1.7273497581481934 5.081864356994629 0.6210262775421143 4456788 4 -1
-1.7337613105773926 5.100727081298828 0.41401752829551697 4456788 4 -1
-1.6560214757919312 5.143017768859863 0.04140175133943558 4456788 4 -1
-1.6560701131820679 5.143168926239014 0 4456788 4 -1
-1.4904192686080933 5.193427562713623 -0.04140175133943558 4456788 4 -1
-1.7783929109573364 5.0961127281188965 -0.24841050803661346 4456788 4 -1
-1.7183334827423096 5.055337905883789 -0.8280350565910339 4456788 4 -1
-4.582083702087402 2.8333468437194824 -0.41401752829551697 4456788 0 -1
-1.7273497581481934 5.081864356994629 -0.6210262775421143 4590430 4 -1
3.0960023403167725 4.408867359161377 0.41401752829551697 3107982 5 -1
3.1043107509613037 4.420699119567871 0.12420525401830673 2977934 5 -1
3.104766607284546 4.421348571777344 0.08280350267887115 2912910 5 -1
-1.5228890180587769 5.151158809661865 -0.833023190498352 4456788 4 -1
-1.4907891750335693 5.194716453552246 -0.5831162333488464 4456788 4 -1
-1.4834660291671753 5.169198989868164 -0.7913720607757568 4456788 4 -1
-1.4950335025787354 5.209505558013916 -0.416511595249176 4456788 4 -1
-1.4834660291671753 5.169198989868164 -0.7913720607757568 4456788 4 -1
-1.4950335025787354 5.209505558013916 -0.416511595249176 4456788 4 -1
-1.8687918186187744 5.087405204772949 0.416511595249176 4456788 4 -1
-1.8321667909622192 5.116161346435547 -0.12495347857475281 4456788 4 -1
-1.6931474208831787 5.1165852546691895 0.7080697417259216 4456788 4 -1
-1.786736011505127 5.120020866394043 0.3748604357242584 4456788 4 -1
-1.6226775646209717 5.181893825531006 0.24990695714950562 4456788 4 -1
-1.7791306972503662 5.098227024078369 0.6247674226760864 4456788 4 -1
-1.737755537033081 5.112477779388428 0.6247674226760864 4456788 4 -1
-1.665606141090393 5.172784805297852 -0.12495347857475281 4456788 4 -1
-1.6243475675582886 5.187226295471191 -0.0416511595249176 4456788 4 -1
-1.6659975051879883 5.173999786376953 0.0416511595249176 4456788 4 -1
-1.7891061305999756 5.126811981201172 0.24990695714950562 4456788 4 -1
-1.58232581615448 5.198863983154297 -0.12495347857475281 4456788 4 -1
-1.8321667909622192 5.116161346435547 -0.12495347857475281 4456788 4 -1
-1.786736011505127 5.120020866394043 -0.3748604357242584 4456788 4 -1
-1.7307103872299194 5.0917510986328125 -0.7913720607757568 4456788 4 -1
-4.616623401641846 2.8547046184539795 0.2915581166744232 4456788 0 -1
-1.4556920528411865 5.229102611541748 -0.2915581166744232 4590430 4 -1
-1.7460589408874512 5.136906623840332 -0.3332092761993408 4724328 4 -1
-1.409096121788025 5.2219557762146 -0.5414651036262512 4724328 4 -1
2.898756742477417 4.561221599578857 0.5831162333488464 3238030 5 -1
3.0763895511627197 4.469044208526611 0.3332092761993408 3238030 5 -1
3.0789268016815186 4.4727301597595215 0.24990695714950562 2977934 5 -1
3.23923921585083 4.345273971557617 0.416511595249176 2977934 5 -1
-1.503052830696106 5.237449645996094 -0.4609062373638153 4456788 4 -1
-1.5448042154312134 5.225286960601807 0.4609062373638153 4456788 4 -1
-1.837064504623413 5.129837989807129 0.4609062373638153 4456788 4 -1
-1.8401578664779663 5.1384758949279785 0.335204541683197 4456788 4 -1
-1.6676868200302124 5.179246425628662 0.5447073578834534 4456788 4 -1
-1.6663511991500854 5.175098419189453 0.5866079330444336 4456788 4 -1
-1.6340742111206055 5.218287467956543 -0.04190056771039963 4456788 4 -1
-1.8008779287338257 5.160545349121094 0.1676022708415985 4456788 4 -1
-1.736891508102417 5.109935760498047 0.8799118995666504 4456788 4 -1
-1.7991307973861694 5.155539035797119 -0.2933039665222168 4456788 4 -1
-1.884141206741333 5.129190921783447 -0.20950284600257874 4456788 4 -1
-1.7465482950210571 5.138346195220947 -0.670409083366394 4456788 4 -1
-4.647548198699951 2.8738272190093994 0.20950284600257874 4456788 0 -1
-1.4185842275619507 5.25711727142334 -0.5028068423271179 4657508 4 -1
-1.419549822807312 5.260695934295654 -0.4609062373638153 4724328 4 -1
-1.4175338745117188 5.253224849700928 -0.5447073578834534 4725613 4 -1
2.9326953887939453 4.6146240234375 0.08380113542079926 3887499 5 -1
2.974591016769409 4.5877299308776855 0.08380113542079926 3757452 5 -1
2.974154233932495 4.5870561599731445 0.12570171058177948 3692940 5 -1
-1.6732803583145142 5.19661808013916 -0.6743996143341064 4456788 4 -1
-1.5145455598831177 5.277496337890625 -0.3371998071670532 4456788 4 -1
-1.5122618675231934 4.968663215637207 -1.8124489784240723 4456788 0 -1
-1.55936598777771 5.274541854858398 -0.0842999517917633 4456788 4 -1
-1.7134246826171875 5.17786169052124 0.7165495753288269 4456788 4 -1
-1.7552155256271362 5.163845062255859 0.7165495753288269 4456788 4 -1
-1.7166962623596191 5.187748432159424 0.632249653339386 4456788 4 -1
-1.674825668334961 5.201416969299316 0.632249653339386 4456788 4 -1
-1.6438008546829224 5.2493486404418945 0.04214997589588165 4456788 4 -1
-1.475205898284912 5.299199104309082 -0.04214997589588165 4456788 4 -1
-1.7514375448226929 5.1527299880981445 -0.8008495569229126 4456788 4 -1
-1.5129380226135254 5.271894931793213 -0.42149975895881653 4456788 4 -1
-1.747230052947998 5.14035177230835 0.8851494789123535 4456788 4 -1
-4.676449298858643 2.891698122024536 0.1685999035835266 4456788 0 -1
-1.7097365856170654 5.166716575622559 -0.8008495569229126 4657508 4 -1
-1.4296873807907104 5.298264503479004 -0.37934979796409607 4657508 4 -1
-1.4270281791687012 5.28840970993042 -0.5057997107505798 4724328 4 -1
-1.425971508026123 5.284493923187256 -0.5479496717453003 4725613 4 -1
2.9922969341278076 4.61503791809082 0.0842999517917633 4212104 5 -1
2.9922969341278076 4.61503791809082 0.0842999517917633 4147337 5 -1
2.9922969341278076 4.61503791809082 0.0842999517917633 4017546 5 -1
2.9918575286865234 4.614360332489014 0.12644992768764496 3887499 5 -1
2.9918575286865234 4.614360332489014 0.12644992768764496 3757452 5 -1
2.9922969341278076 4.61503791809082 0.0842999517917633 3692940 5 -1
2.9918575286865234 4.614360332489014 0.12644992768764496 3107982 5 -1
-1.6831814050674438 5.227367401123047 -0.6783901453018188 4456788 4 -1
-1.7637550830841064 5.188968181610107 0.763188898563385 4456788 4 -1
-1.684735894203186 5.232194900512695 0.6359907388687134 4456788 4 -1
-1.5241806507110596 5.311070442199707 0.29679569602012634 4456788 4 -1
-1.48288893699646 5.326798439025879 0.211996927857399 4456788 4 -1
-1.6947301626205444 5.263233661651611 -0.211996927857399 4456788 4 -1
-1.526332974433899 5.318570613861084 0.04239938408136368 4456788 4 -1
-1.6909892559051514 5.251615524291992 -0.423993855714798 4456788 4 -1
-1.524763822555542 5.313102722167969 -0.25439631938934326 4456788 4 -1
-1.708727240562439 5.163666725158691 1.017585277557373 4456788 4 -1
-4.543811321258545 2.8096811771392822 -1.4415791034698486 4456788 0 -1
3.010267972946167 4.642754554748535 0.04239938408136368 4341894 5 -1
3.0095608234405518 4.641664028167725 0.12719815969467163 4212104 5 -1
3.010267972946167 4.642754554748535 0.04239938408136368 4147337 5 -1
3.010002851486206 4.642345905303955 0.08479876816272736 4017546 5 -1
3.008146047592163 4.639482498168945 0.211996927857399 3887499 5 -1
3.05275559425354 4.615123271942139 0 3757452 5 -1
3.010002851486206 4.642345905303955 0.08479876816272736 3692940 5 -1
3.0519490242004395 4.613903999328613 -0.12719815969467163 3107982 5 -1
3.3447296619415283 4.398110866546631 0.29679569602012634 3107982 5 -1
3.303654909133911 4.431684494018555 0.25439631938934326 2977934 5 -1
-1.6189404726028442 5.319164752960205 -0.2558927536010742 4456788 4 -1
-1.5757337808609009 5.329905986785889 0.2985415458679199 4456788 4 -1
-1.5742485523223877 5.3248820304870605 0.38383913040161133 4456788 4 -1
-1.5757337808609009 5.329905986785889 0.2985415458679199 4456788 4 -1
-1.5324691534042358 5.339951992034912 0.3411903381347656 4456788 4 -1
-1.7399036884307861 5.257879734039307 -0.5544342994689941 4456788 4 -1
-4.64749002456665 3.0601351261138916 0.1279463768005371 4456788 0 -1
3.02797532081604 4.670064926147461 0.0426487922668457 4017546 5 -1
3.0662927627563477 4.635588645935059 0.2985415458679199 3887499 5 -1
3.070352554321289 4.641726016998291 -0.0852975845336914 3757452 5 -1
2.98506498336792 4.697028160095215 -0.0852975845336914 3692940 5 -1
2.938530445098877 4.7176127433776855 0.2985415458679199 3302798 5 -1
3.1978142261505127 4.553852558135986 0.1279463768005371 3107982 5 -1
2.935760736465454 4.713166236877441 0.38383913040161133 2977934 5 -1
2.8095266819000244 4.7927141189575195 0.3411903381347656 2588302 5 -1
3.155640125274658 4.584170818328857 0.0852975845336914 2588302 5 -1
-1.6300837993621826 5.355776786804199 -0.04289820045232773 4456788 4 -1
-1.5842485427856445 5.358706951141357 0.3431856036186218 4456788 4 -1
-1.6262507438659668 5.3431830406188965 0.38608381152153015 4456788 4 -1
-1.6262507438659668 5.3431830406188965 0.38608381152153015 4456788 4 -1
-1.5860681533813477 5.364861488342285 0.21449099481105804 4456788 4 -1
-1.5834547281265259 5.356021881103516 0.38608381152153015 4456788 4 -1
-1.5825669765472412 5.3530192375183105 0.4289819896221161 4456788 4 -1
-1.625339150428772 5.340188026428223 0.4289819896221161 4456788 4 -1
-1.5849485397338867 5.361074924468994 0.3002873957157135 4456788 4 -1
-1.5815852880477905 5.349698543548584 0.4718801975250244 4456788 4 -1
-1.6300837993621826 5.355776786804199 0.04289820045232773 4456788 4 -1
2.9921884536743164 4.708237171173096 -0.4718801975250244 4471684 5 -1
2.947436571121216 4.731910705566406 -0.5147783756256104 4212104 5 -1
2.9996988773345947 4.720054626464844 -0.2573891878128052 3692940 5 -1
3.171110153198242 4.606644153594971 -0.2573891878128052 3692940 5 -1
3.1743736267089844 4.611384868621826 0.04289820045232773 3562893 5 -1
3.173628091812134 4.610301971435547 0.1286945939064026 3432845 5 -1
2.9578027725219727 4.748553276062012 0.21449099481105804 3302798 5 -1
2.8728291988372803 4.8021626472473145 0.1715928018093109 2588302 5 -1
3.1740939617156982 4.610978603363037 -0.08579640090465546 2199437 5 -1
3.1740939617156982 4.610978603363037 -0.08579640090465546 2134668 5 -1
3.172975540161133 4.609353542327881 -0.1715928018093109 2070155 5 -1
3.1651339530944824 4.597962379455566 -0.4289819896221161 2070922 5 -1
3.1610188484191895 4.591984748840332 -0.5147783756256104 2468738 5 -1
-1.5934592485427856 5.389862060546875 0.345180869102478 4456788 4 -1
-1.6347887516021729 5.371235370635986 0.43147608637809753 4456788 4 -1
-1.5896984338760376 5.37714147567749 0.517771303653717 4456788 4 -1
-1.6337746381759644 5.367903709411621 0.4746236801147461 4456788 4 -1
-1.5917680263519287 5.384141445159912 0.43147608637809753 4456788 4 -1
-1.5934592485427856 5.389862060546875 0.345180869102478 4456788 4 -1
-1.5896984338760376 5.37714147567749 0.517771303653717 4456788 4 -1
2.970097303390503 4.768290996551514 -0.3883284628391266 4725613 5 -1
2.970097303390503 4.768290996551514 -0.3883284628391266 4726897 5 -1
2.9645726680755615 4.7594218254089355 -0.517771303653717 4728182 5 -1
2.9665908813476562 4.762661933898926 -0.4746236801147461 4212104 5 -1
2.9684321880340576 4.765617847442627 -0.43147608637809753 4147337 5 -1
2.9336929321289062 4.805712699890137 -0.0862952172756195 3432845 5 -1
2.8878328800201416 4.827242851257324 0.2588856518268585 3302798 5 -1
2.8908050060272217 4.832211017608643 0.04314760863780975 2588302 5 -1
2.977097511291504 4.779529571533203 0.04314760863780975 2523534 5 -1
3.1496829986572266 4.6676025390625 -0.04314760863780975 2523534 5 -1
3.191422939300537 4.636152267456055 -0.172590434551239 2199437 5 -1
3.191422939300537 4.636152267456055 -0.172590434551239 2070155 5 -1
3.1835360527038574 4.62469482421875 -0.43147608637809753 2070922 5 -1
3.147462844848633 4.664312362670898 -0.21573804318904877 2994813 5 -1
3.1925480365753174 4.637786865234375 0.0862952172756195 8180304 5 -1
-1.6408847570419312 5.39126443862915 0.5641612410545349 4456788 4 -1
-1.5977035760879517 5.404218673706055 0.5641612410545349 4456788 4 -1
-1.599975824356079 5.411904335021973 0.47736719250679016 4456788 4 -1
-1.6009689569473267 5.415263652801514 0.4339701533317566 4456788 4 -1
-1.6018669605255127 5.418301105499268 0.3905731439590454 4456788 4 -1
2.9817090034484863 4.786932945251465 -0.520764172077179 4212104 5 -1
2.9872653484344482 4.795853614807129 -0.3905731439590454 4147337 5 -1
2.8972535133361816 4.842990398406982 0.47736719250679016 3302798 5 -1
2.902132034301758 4.851145267486572 0.34717613458633423 2912910 5 -1
3.165656328201294 4.6912736892700195 -0.2169850766658783 2199437 5 -1
3.1646323204040527 4.689756393432617 -0.2603820860385895 2070922 5 -1
3.165656328201294 4.6912736892700195 -0.2169850766658783 2994813 5 -1
3.163421869277954 4.687962532043457 -0.30377912521362305 8705099 5 -1
3.1646323204040527 4.689756393432617 -0.2603820860385895 12640037 5 -1
3.163421869277954 4.687962532043457 -0.30377912521362305 13164576 5 -1
-1.604215383529663 5.426244735717773 0.6546963453292847 4456788 4 -1
2.903745651245117 4.756656169891357 -1.1784534454345703 4600703 0 -1
2.953195571899414 4.837660312652588 -0.5674034953117371 4212104 5 -1
2.998845338821411 4.814444065093994 -0.5237571001052856 4147337 5 -1
2.966562509536743 4.859557151794434 0.17458570003509521 3562893 5 -1
2.9139044284820557 4.870823383331299 0.48011067509651184 3302798 5 -1
2.8663368225097656 4.889625072479248 0.5674034953117371 2977934 5 -1
2.9363350868225098 4.8100409507751465 0.8292820453643799 2912910 5 -1
2.9229366779327393 4.885921478271484 0.17458570003509521 2718350 5 -1
2.9235377311706543 4.886926174163818 0.1309392750263214 2458766 5 -1
3.096621036529541 4.775937557220459 -0.21823212504386902 2458766 5 -1
