VERSION .7
FIELDS x y z rgb label object
SIZE 4 4 4 4 4 4
TYPE F F F I I I
COUNT 1 1 1 1 1 1
WIDTH 486
HEIGHT 1
POINTS 486
VIEWPOINT 0 0 0 1 0 0 0
DATA ascii
-1.4681766033172607 2.219573736190796 -0.20451468229293823 4456788 0 -1
-1.3293453454971313 2.314458131790161 0 4456788 0 -1
-1.4662630558013916 2.2614266872406006 -0.1863078773021698 4456788 0 -1
-1.3455173969268799 2.3426144123077393 -0.02070087566971779 4456788 0 -1
-1.8188331127166748 2.0760812759399414 -0.19079722464084625 4456788 0 -1
-1.821834921836853 2.07950758934021 -0.1059984639286995 4456788 0 -1
-1.8430191278457642 2.060755968093872 0.1059984639286995 4017546 0 -1
-1.8426721096038818 2.1032919883728027 -0.1286945939064026 4456788 0 -1
-1.8484625816345215 2.739287853240967 -0.5651588439941406 4147337 0 -1
-2.7646586894989014 1.7650758028030396 0.693604052066803 4017546 0 -1
-1.8143579959869385 2.6887471675872803 -0.8477382659912109 4017546 0 -1
-1.8688322305679321 2.7694742679595947 -0.5447073578834534 4147337 0 -1
-2.848491668701172 1.7613744735717773 0.4928304851055145 4017546 0 -1
-1.8023751974105835 2.670989751815796 -1.0375378131866455 4017546 0 -1
-2.887587785720825 1.7855496406555176 0.39281782507896423 4147337 0 -1
-1.9022053480148315 2.8189306259155273 -0.34044212102890015 4147337 0 -1
-2.887587785720825 1.7855496406555176 0.39281782507896423 4017546 0 -1
-1.9114888906478882 2.832688331604004 0.052375711500644684 4017546 0 -1
-4.193874359130859 3.012148141860962 1.219605803489685 4212104 0 -1
4.7475175857543945 2.346137046813965 0.325228214263916 4212104 0 -1
-1.9416637420654297 7.195592880249023 0.11422892659902573 10672695 4 -1
-1.9416637420654297 7.195592880249023 0.11422892659902573 11197490 4 -1
-1.884777307510376 7.211606979370117 0 11918891 4 -1
-1.8847219944000244 7.211395263671875 -0.05711446329951286 12640037 4 -1
-1.716819167137146 7.268558979034424 0.5162748694419861 2006409 4 -1
-1.7176798582077026 7.272202968597412 0.4589109718799591 2072968 4 -1
-1.8355900049209595 7.257636070251465 0.05736387148499489 6933851 4 -1
-1.8355900049209595 7.257636070251465 -0.05736387148499489 7589974 4 -1
-1.8354283571243286 7.2569966316223145 -0.11472774296998978 8180304 4 -1
-1.9501426219940186 7.227014541625977 0.11472774296998978 10672695 4 -1
-1.8929522037506104 7.242886066436768 -0.05736387148499489 11197490 4 -1
-1.8356438875198364 7.257849216461182 0 11918891 4 -1
-1.8354283571243286 7.2569966316223145 -0.11472774296998978 12640037 4 -1
-1.6695585250854492 7.3255696296691895 0.28806641697883606 2977934 4 -1
-1.6700001955032349 7.327507495880127 0.23045311868190765 2782862 4 -1
-1.6700001955032349 7.327507495880127 0.23045311868190765 2718350 4 -1
-1.6690185070037842 7.323200225830078 0.3456796705722809 2523534 4 -1
-1.72514808177948 7.303821086883545 0.4609062373638153 2070155 4 -1
-1.7259104251861572 7.307048797607422 0.4032929539680481 2006409 4 -1
-1.7817597389221191 7.286346435546875 0.5185195207595825 4505456 4 -1
-1.8435708284378052 7.289190769195557 -0.05761327967047691 7589974 4 -1
-1.843408465385437 7.288548946380615 -0.11522655934095383 8180304 4 -1
-1.6197271347045898 7.373687267303467 0.17358806729316711 4017546 4 -1
-1.677229642868042 7.359228134155273 0.23145075142383575 3562893 4 -1
-1.6762436628341675 7.354902267456055 0.34717613458633423 3302798 4 -1
-1.6767860651016235 7.357281684875488 0.2893134355545044 2977934 4 -1
-1.677229642868042 7.359228134155273 0.23145075142383575 2782862 4 -1
-1.6767860651016235 7.357281684875488 0.2893134355545044 2718350 4 -1
-1.677229642868042 7.359228134155273 0.23145075142383575 2523534 4 -1
-1.6730846166610718 7.341041564941406 0.5786268711090088 2070155 4 -1
-1.7924264669418335 7.329967021942139 0.2893134355545044 2666112 4 -1
-1.8450171947479248 7.294909477233887 0.6364895701408386 4045940 4 -1
-1.8461624383926392 7.299437522888184 0.5786268711090088 4505456 4 -1
-1.9094126224517822 7.305867671966553 -0.05786268785595894 4899181 4 -1
-1.9094126224517822 7.305867671966553 0.05786268785595894 5424489 4 -1
-1.8515516519546509 7.320745944976807 0.05786268785595894 5949540 4 -1
-1.8515516519546509 7.320745944976807 -0.05786268785595894 6343264 4 -1
-1.6840134859085083 7.388994216918945 0.2905604839324951 3887499 4 -1
-1.6844590902328491 7.390949249267578 0.23244838416576385 3562893 4 -1
-1.6259441375732422 7.401989459991455 0.2905604839324951 3302798 4 -1
-1.6834688186645508 7.386604309082031 0.3486725687980652 2977934 4 -1
-1.6834688186645508 7.386604309082031 0.3486725687980652 2718350 4 -1
-1.7382375001907349 7.359238624572754 0.5811209678649902 2070155 4 -1
-1.8001524209976196 7.3615617752075195 0.2905604839324951 2468738 4 -1
-1.7995702028274536 7.359180450439453 0.3486725687980652 2666112 4 -1
-1.8595324754714966 7.352300643920898 0.058112096041440964 4899181 4 -1
-1.9171924591064453 7.335635185241699 0.1743362843990326 5424489 4 -1
-1.8593686819076538 7.351653099060059 0.11622419208288193 6343264 4 -1
-1.9167982339859009 7.334126949310303 0.23244838416576385 9360965 4 -1
-1.9162912368774414 7.332187175750732 0.2905604839324951 10672695 4 -1
-1.575575590133667 7.450924396514893 0.11672300845384598 4017546 4 -1
-1.6920363903045654 7.424196720123291 0.17508451640605927 3887499 4 -1
-1.6302317380905151 7.4215087890625 0.5252535343170166 3302798 4 -1
-1.7483248710632324 7.4019455909729 0.4085305333137512 3238030 4 -1
-1.6912410259246826 7.420706748962402 0.29180753231048584 2977934 4 -1
-1.750022530555725 7.409133434295654 0.23344601690769196 2912910 4 -1
-1.6906940937042236 7.418306350708008 0.35016903281211853 2718350 4 -1
-1.6906940937042236 7.418306350708008 0.35016903281211853 2328718 4 -1
-1.7483248710632324 7.4019455909729 0.4085305333137512 2264205 4 -1
-1.7483248710632324 7.4019455909729 0.4085305333137512 2199437 4 -1
-1.8083566427230835 7.39511251449585 0.23344601690769196 2468738 4 -1
-1.8066023588180542 7.387938022613525 0.4085305333137512 2666112 4 -1
-1.8673489093780518 7.383205413818359 0.11672300845384598 4899181 4 -1
-1.8673489093780518 7.383205413818359 0.11672300845384598 5424489 4 -1
-1.9250248670578003 7.365603923797607 0.23344601690769196 6343264 4 -1
-1.9805595874786377 7.339736461639404 0.4668920338153839 9360965 4 -1
-1.9821929931640625 7.345789909362793 0.35016903281211853 10672695 4 -1
-1.6995168924331665 7.457018852233887 0.11722182482481003 3887499 4 -1
-1.6995168924331665 7.457018852233887 0.11722182482481003 3107982 4 -1
-1.7578628063201904 7.44232702255249 0.17583273351192474 2912910 4 -1
-1.697919249534607 7.450008869171143 0.3516654670238495 2718350 4 -1
-1.697919249534607 7.450008869171143 0.3516654670238495 2458766 4 -1
-1.6972697973251343 7.4471588134765625 0.4102763831615448 2328718 4 -1
-1.7557963132858276 7.433578014373779 0.4102763831615448 2264205 4 -1
-1.7557963132858276 7.433578014373779 0.4102763831615448 2199437 4 -1
-1.7564681768417358 7.436422348022461 0.3516654670238495 2666112 4 -1
-1.8746681213378906 7.412144184112549 0.23444364964962006 4045940 4 -1
-1.8753290176391602 7.414757251739502 0.11722182482481003 4505456 4 -1
-1.8750536441802979 7.413668632507324 0.17583273351192474 4899181 4 -1
-1.8720221519470215 7.4016828536987305 0.4688872992992401 5949540 4 -1
-1.9305227994918823 7.3866400718688965 0.4688872992992401 8705099 4 -1
-1.9890234470367432 7.371102809906006 0.4688872992992401 9360965 4 -1
-1.9906638860702515 7.3771820068359375 0.3516654670238495 10672695 4 -1
-2.0003106594085693 7.4129319190979 -0.23544128239154816 4017546 4 -1
-1.9991347789764404 7.40857458114624 -0.35316193103790283 3887499 4 -1
-2.0007221698760986 7.414456844329834 0.17658096551895142 2718350 4 -1
-1.7067488431930542 7.48875093460083 -0.11772064119577408 2718350 4 -1
-1.7649800777435303 7.472459316253662 0.23544128239154816 2523534 4 -1
-1.702885627746582 7.471799850463867 0.5297428965568542 2328718 4 -1
-1.7649800777435303 7.472459316253662 0.23544128239154816 2072968 4 -1
-1.6764070987701416 7.0974650382995605 2.4132730960845947 2271109 0 -1
-1.8826453685760498 7.443685531616211 0.23544128239154816 4045940 4 -1
-1.8830325603485107 7.445216178894043 0.17658096551895142 4505456 4 -1
-1.8826453685760498 7.443685531616211 0.23544128239154816 4899181 4 -1
-1.8755511045455933 7.415635585784912 0.7063238620758057 8180304 4 -1
-1.8779927492141724 7.425289630889893 0.5886031985282898 8705099 4 -1
-1.935478687286377 7.405602931976318 0.6474635601043701 9360965 4 -1
-1.8975095748901367 7.0319623947143555 2.5417184829711914 4017546 0 -1
-2.004946231842041 7.430110931396484 -0.5319875478744507 3887499 4 -1
-2.0685975551605225 7.430767059326172 0.11821945756673813 2070922 4 -1
-1.7732398509979248 7.507429122924805 0.059109728783369064 2070922 4 -1
-1.7728233337402344 7.5056657791137695 0.1773291826248169 2006409 4 -1
-1.8847805261611938 7.452127456665039 0.6502070426940918 4899181 4 -1
-1.8834983110427856 7.447057723999023 0.7093167304992676 8180304 4 -1
-1.8834983110427856 7.447057723999023 0.7093167304992676 8705099 4 -1
-1.8847805261611938 7.452127456665039 0.6502070426940918 9360965 4 -1
-2.0658624172210693 7.4209418296813965 0.41376811265945435 13164576 4 -1
-1.7788912057876587 7.531355381011963 0.35615482926368713 2072968 4 -1
-1.8851631879806519 7.453640460968018 0.9497461915016174 7589974 4 -1
-1.8900450468063354 7.47294282913208 0.7716687917709351 8180304 4 -1
-2.0745792388916016 7.452253818511963 0.4155139625072479 12640037 4 -1
-2.0753729343414307 7.455105304718018 0.35615482926368713 13164576 4 -1
-2.081332206726074 7.4765119552612305 -0.5364769101142883 3107982 4 -1
-0.41518452763557434 7.729496479034424 0.774911105632782 4899181 0 -1
-1.8372018337249756 7.5130720138549805 0.834519624710083 7589974 4 -1
-1.891221284866333 7.477592945098877 1.0133452415466309 8180304 4 -1
-2.0832958221435547 7.483565807342529 0.4172598123550415 11197490 4 -1
-2.0840930938720703 7.486429214477539 0.3576512634754181 11918891 4 -1
-2.0840930938720703 7.486429214477539 0.3576512634754181 12640037 4 -1
-2.0840930938720703 7.486429214477539 0.3576512634754181 13164576 4 -1
-2.008650064468384 7.443836688995361 -1.2570170164108276 4212104 0 -1
-1.7062757015228271 7.486674785614014 -1.4365909099578857 4212104 0 -1
-2.0291872024536133 7.51994514465332 -0.5985795259475708 4147337 4 -1
-2.087573289871216 7.498930931091309 -0.6584374904632568 3107982 4 -1
-0.4158448278903961 7.7417893409729 0.9577272534370422 4505456 0 -1
-0.7135351896286011 7.727235317230225 0.8978692889213562 4899181 0 -1
-2.086153268814087 7.493829727172852 0.7182954549789429 11197490 4 -1
3.4716594219207764 6.997818946838379 -0.05985795333981514 11197490 5 -1
-2.092813014984131 7.5177531242370605 0.35914772748947144 11918891 4 -1
-2.0678787231445312 7.428184509277344 -1.4425766468048096 4212104 0 -1
-1.6746355295181274 7.623653411865234 -0.7813957333564758 4212104 0 -1
-0.5378445982933044 7.780595779418945 0.8415030837059021 4212104 0 -1
-2.1632933616638184 7.538084506988525 -0.1803220808506012 2199437 4 -1
-0.5345761775970459 7.733314037322998 1.2021472454071045 2199437 0 -1
3.365617036819458 7.084719181060791 0.12021472305059433 7589974 5 -1
3.4145798683166504 6.595647811889648 -2.5245091915130615 7589974 0 -1
3.365617036819458 7.084719181060791 0.12021472305059433 11197490 5 -1
3.3659133911132812 7.085343360900879 0.060107361525297165 11918891 5 -1
3.3660123348236084 7.0855512619018555 0 12640037 5 -1
3.4353835582733154 7.075763702392578 0.42249739170074463 6933851 5 -1
3.379582166671753 7.114116191864014 0.12071353942155838 7589974 5 -1
3.440234899520874 7.085756301879883 0.06035676971077919 8180304 5 -1
3.3180627822875977 7.139955997467041 0.24142707884311676 11197490 5 -1
3.379879951477051 7.114742755889893 0.06035676971077919 12640037 5 -1
-2.1111390590667725 7.140909671783447 2.6666717529296875 4456788 0 -1
3.4520158767700195 7.110021114349365 0.3030308783054352 6933851 5 -1
3.393547534942627 7.1435136795043945 0.12121235579252243 7589974 5 -1
3.454450845718384 7.1150360107421875 0.060606177896261215 8180304 5 -1
3.3329484462738037 7.171987533569336 0.12121235579252243 10016830 5 -1
3.3317737579345703 7.169459819793701 0.24242471158504486 10672695 5 -1
3.3333399295806885 7.172829627990723 0 11197490 5 -1
3.657866954803467 6.775273323059082 -1.9473787546157837 4456788 0 -1
3.466221809387207 7.139280319213867 0.3042779266834259 6933851 5 -1
3.4078128337860107 7.173542499542236 0.06085558608174324 7589974 5 -1
3.407512664794922 7.172910690307617 0.12171117216348648 8180304 5 -1
3.3466641902923584 7.201501846313477 0.12171117216348648 8705099 5 -1
3.344599962234497 7.197059631347656 0.3042779266834259 10016830 5 -1
3.282726764678955 7.2226715087890625 0.36513352394104004 10672695 5 -1
3.4078128337860107 7.173542499542236 -0.06085558608174324 11197490 5 -1
3.2853333950042725 7.2284064292907715 -0.18256676197052002 11918891 5 -1
-4.374171733856201 6.612826347351074 -0.8554699420928955 4505456 0 -1
3.4820642471313477 7.171911239624023 0.1833149790763855 6343264 5 -1
3.421779155731201 7.202942371368408 0.061104994267225266 7589974 5 -1
3.482882499694824 7.173595905303955 0.061104994267225266 8180304 5 -1
3.358307361602783 7.226555824279785 0.3055249750614166 10672695 5 -1
3.4820642471313477 7.171911239624023 0.1833149790763855 11197490 5 -1
3.4746928215026855 7.1567277908325195 0.5499449372291565 11918891 5 -1
3.49627685546875 7.201184272766113 0.18406321108341217 6343264 5 -1
3.3115811347961426 7.286157131195068 0.24541760981082916 9360965 5 -1
3.3122622966766357 7.287655353546143 0.18406321108341217 10016830 5 -1
3.3729066848754883 7.25797176361084 0.24541760981082916 10672695 5 -1
3.5559427738189697 7.167708396911621 0.30677202343940735 11197490 5 -1
3.495558023452759 7.199703216552734 0.24541760981082916 11918891 5 -1
3.4967901706695557 7.20224142074585 0.12270880490541458 12640037 5 -1
3.251401424407959 7.316298007965088 0.12270880490541458 13164576 5 -1
3.3738560676574707 7.260014533996582 -0.7392457127571106 3887499 5 -1
3.557884693145752 7.1716227531433105 -0.7392457127571106 3887499 5 -1
3.496541738510132 7.201729774475098 -0.7392457127571106 3562893 5 -1
3.491154670715332 7.190633773803711 -0.8624533414840698 3432845 5 -1
3.496541738510132 7.201729774475098 -0.7392457127571106 2912910 5 -1
3.5113141536712646 7.232155799865723 0.061603810638189316 4045940 5 -1
3.1898369789123535 6.864034175872803 2.7105677127838135 4899181 0 -1
3.326508045196533 7.318999290466309 0.061603810638189316 9360965 5 -1
3.198786973953247 7.36335563659668 0.4312266707420349 10016830 5 -1
3.2033040523529053 7.373754024505615 0.061603810638189316 13164576 5 -1
3.510697841644287 7.230886459350586 -0.7422386407852173 3887499 5 -1
3.515268325805664 7.240300178527832 -0.6185321807861328 3562893 5 -1
3.513087749481201 7.235808849334717 -0.680385410785675 3432845 5 -1
3.515268325805664 7.240300178527832 -0.6185321807861328 2912910 5 -1
3.515268325805664 7.240300178527832 -0.6185321807861328 2588302 5 -1
3.515268325805664 7.240300178527832 -0.6185321807861328 2523534 5 -1
3.51900315284729 7.247992992401123 -0.4948257505893707 2458766 5 -1
3.4003288745880127 7.31697940826416 -0.24741287529468536 4505456 5 -1
3.277305841445923 7.052253246307373 2.164862632751465 4899181 0 -1
3.277305841445923 7.052253246307373 2.164862632751465 4899181 0 -1
2.787821054458618 7.221644401550293 2.288569211959839 5424489 0 -1
3.215989589691162 7.402955055236816 0.12370643764734268 10016830 5 -1
3.215989589691162 7.402955055236816 0.12370643764734268 10672695 5 -1
3.5248539447784424 7.260043621063232 -0.7452315092086792 4017546 5 -1
3.5272533893585205 7.26498556137085 -0.6831288933753967 3887499 5 -1
3.5331928730010986 7.277218818664551 -0.49682101607322693 3562893 5 -1
3.5272533893585205 7.26498556137085 -0.6831288933753967 3432845 5 -1
3.5314223766326904 7.2735724449157715 -0.5589236617088318 2588302 5 -1
3.4712069034576416 7.3069891929626465 -0.49682101607322693 2271109 5 -1
3.225921869277954 7.42581844329834 0.3726157546043396 6343264 5 -1
3.2293365001678467 7.433679103851318 0 6933851 5 -1
3.29105281829834 7.405520915985107 0.12420525401830673 8180304 5 -1
3.2898929119110107 7.402911186218262 0.24841050803661346 8705099 5 -1
3.2914392948150635 7.40639066696167 0 9360965 5 -1
3.228957414627075 7.432806015014648 0.12420525401830673 10016830 5 -1
3.2913427352905273 7.406173229217529 0.062102627009153366 10672695 5 -1
3.2292418479919434 7.433460712432861 0.062102627009153366 11197490 5 -1
3.1668620109558105 7.459474086761475 0.12420525401830673 12640037 5 -1
3.41524338722229 7.34907341003418 0.12420525401830673 12640037 5 -1
3.3510797023773193 7.3730621337890625 0.31051313877105713 13164576 5 -1
3.4814484119415283 7.328547477722168 -0.6235203742980957 4017546 5 -1
3.520099401473999 7.250250339508057 -1.1223366260528564 3432845 0 -1
3.486687660217285 7.339576244354248 -0.43646425008773804 2588302 5 -1
3.304269790649414 7.435262203216553 0.12470407038927078 6343264 5 -1
3.3046579360961914 7.436135292053223 0 6933851 5 -1
3.2414491176605225 7.4615607261657715 0.18705610930919647 8180304 5 -1
3.304269790649414 7.435262203216553 0.12470407038927078 8705099 5 -1
3.304560899734497 7.435916900634766 0.06235203519463539 9360965 5 -1
3.242210626602173 7.463314056396484 0.06235203519463539 10016830 5 -1
3.304560899734497 7.435916900634766 0.06235203519463539 10672695 5 -1
3.242210626602173 7.463314056396484 -0.06235203519463539 11197490 5 -1
3.242210626602173 7.463314056396484 -0.06235203519463539 12640037 5 -1
3.4854512214660645 7.336973667144775 -0.8764201998710632 3302798 5 -1
3.317779064178467 7.465660572052002 -0.06260144710540771 2994813 5 -1
3.628217935562134 7.313393592834473 -0.3130072057247162 2994813 5 -1
3.252885103225708 7.487885475158691 0.3130072057247162 5424489 5 -1
3.3163177967071533 7.462372303009033 0.25040578842163086 6933851 5 -1
3.6299242973327637 7.316833019256592 0.18780432641506195 6933851 5 -1
3.252885103225708 7.487885475158691 0.3130072057247162 8180304 5 -1
3.317779064178467 7.465660572052002 0.06260144710540771 8705099 5 -1
3.317779064178467 7.465660572052002 -0.06260144710540771 10016830 5 -1
3.5052690505981445 7.378690719604492 0.12520289421081543 10016830 5 -1
3.2548928260803223 7.492506980895996 -0.12520289421081543 11197490 5 -1
3.499337673187256 7.366204738616943 -0.8799118995666504 3432845 5 -1
3.54826021194458 7.308252811431885 -1.1313153505325317 3302798 0 -1
2.9533300399780273 7.290442943572998 2.325481414794922 6343264 0 -1
3.44663405418396 7.416621208190918 0.6285085082054138 8705099 5 -1
3.136066436767578 7.056771278381348 -2.765437364578247 9360965 0 -1
3.2007791996002197 7.539365291595459 0.4399559497833252 10672695 5 -1
3.268148422241211 7.523020267486572 0.06285085529088974 11197490 5 -1
4.1652655601501465 6.687053203582764 2.3978099822998047 4456788 0 -1
3.8660037517547607 7.160793781280518 1.2620052099227905 3692940 0 -1
-5.665678024291992 5.5778961181640625 -2.145408868789673 2006409 0 -1
2.422391891479492 7.735718727111816 1.4513059854507446 2006409 0 -1
3.521040439605713 7.411889553070068 0.6941028833389282 6933851 5 -1
3.521040439605713 7.411889553070068 0.6941028833389282 7589974 5 -1
3.6545467376708984 7.366464614868164 0.44170182943344116 8180304 5 -1
3.5252020359039307 7.420650005340576 0.5679023265838623 8705099 5 -1
3.0896427631378174 7.6269378662109375 0.31550130248069763 9360965 5 -1
3.462252140045166 7.450228691101074 0.5679023265838623 9360965 5 -1
3.5150766372680664 7.085334777832031 2.407287359237671 2006409 0 -1
2.9160187244415283 7.372622013092041 2.343937635421753 4899181 0 -1
3.5929718017578125 7.400343894958496 0.8235456943511963 6933851 5 -1
3.604140520095825 7.4233479499816895 0.5067973732948303 7589974 5 -1
3.4087090492248535 7.4998579025268555 0.6968463659286499 8180304 5 -1
3.4087090492248535 7.4998579025268555 0.6968463659286499 8180304 5 -1
3.6057331562042236 7.426628112792969 0.44344767928123474 8705099 5 -1
3.4739882946014404 7.475483417510986 0.6334967017173767 9360965 5 -1
-6.2325263023376465 5.481204509735107 0.06359907984733582 4456788 0 -1
-2.15161395072937 7.973644733428955 0.8267880082130432 4456788 0 -1
2.757117509841919 7.5056915283203125 2.2259676456451416 4899181 0 -1
2.7631287574768066 7.522055149078369 2.1623685359954834 5424489 0 -1
3.6674604415893555 7.3924946784973145 0.8903870582580566 6343264 5 -1
3.6674604415893555 7.3924946784973145 0.8903870582580566 6933851 5 -1
3.427891492843628 7.5420637130737305 0.5087926387786865 7589974 5 -1
3.6848459243774414 7.4275383949279785 0.3815944492816925 7589974 5 -1
3.551077365875244 7.475118637084961 0.6359907388687134 8180304 5 -1
3.6122474670410156 7.440045356750488 0.6995898485183716 8705099 5 -1
3.5548505783081055 7.483060836791992 0.5087926387786865 9360965 5 -1
3.4441723823547363 7.577885150909424 0.38309091329574585 6343264 5 -1
3.5066115856170654 7.545683860778809 0.4469393789768219 6933851 5 -1
3.560368299484253 7.494676113128662 0.7661818265914917 7589974 5 -1
3.623946189880371 7.464140892028809 0.7661818265914917 8180304 5 -1
3.626413106918335 7.469222068786621 0.7023333311080933 8705099 5 -1
3.3719279766082764 7.587506294250488 0.7023333311080933 9360965 5 -1
3.628664016723633 7.47385835647583 0.6384848356246948 9360965 5 -1
3.3746745586395264 7.593687057495117 0.9614683985710144 6343264 0 -1
3.642838478088379 7.503053188323975 0.6409789323806763 6933851 5 -1
3.6405787467956543 7.498398780822754 0.7050768136978149 7589974 5 -1
3.5687689781188965 7.512359619140625 0.8973705172538757 8705099 5 -1
3.635408401489258 7.4877495765686035 0.8332725763320923 9360965 5 -1
3.6448817253112793 7.507261753082275 0.5768810510635376 10016830 5 -1
3.7211711406707764 7.500759124755859 0.6434730291366577 6933851 5 -1
3.6522581577301025 7.522454738616943 0.7721676230430603 7589974 5 -1
3.584498643875122 7.072340965270996 -2.7669339179992676 8705099 0 -1
3.582655191421509 7.541590690612793 0.9008622169494629 9360965 5 -1
3.50480318069458 7.218745231628418 2.5838682651519775 7589974 0 -1
2.3617522716522217 7.988606929779053 1.4914606809616089 7589974 0 -1
2.697768449783325 7.730649948120117 2.1399219036102295 7589974 0 -1
4.300782680511475 6.904616832733154 2.3344602584838867 7589974 0 -1
4.220340251922607 7.054635047912598 2.0102295875549316 8180304 0 -1
2.660797119140625 7.828066825866699 1.952865719795227 7589974 0 -1
4.228260040283203 7.067873954772949 2.083056688308716 8180304 0 -1
-1.7749037742614746 8.393550872802734 2.3150062561035156 2134668 0 -1
-6.347236633300781 5.845311164855957 -2.255148410797119 2199437 0 -1
-1.7814053297042847 8.424296379089355 2.323486328125 2199437 0 -1
-1.7887955904006958 8.459245681762695 2.1868104934692383 2134668 0 -1
-6.284779071807861 6.052920341491699 -1.8451213836669922 2070155 0 -1
-1.8433643579483032 8.391778945922852 2.3918240070343018 2070155 0 -1
-6.601265907287598 5.805492877960205 -1.503432273864746 2070922 0 -1
-1.8349487781524658 8.353466987609863 2.5284998416900635 2070922 0 -1
-2.0970842838287354 8.291543006896973 2.5284998416900635 2006409 0 -1
-1.855047345161438 8.444964408874512 2.1868104934692383 2006409 0 -1
-6.352884769439697 5.983897686004639 -1.989029884338379 2199437 0 -1
-6.441923141479492 5.932509899139404 -1.8518553972244263 2134668 0 -1
-1.7988533973693848 8.50680923461914 2.126204490661621 2134668 0 -1
-6.529754638671875 5.877464771270752 -1.7146810293197632 2070922 0 -1
-2.1852192878723145 8.361169815063477 2.3319661617279053 2006409 0 -1
-2.2148163318634033 8.474414825439453 1.996262788772583 2006409 0 -1
-6.688622951507568 5.745168209075928 -1.7209161520004272 2072968 0 -1
-6.151498317718506 6.459731101989746 -1.312635064125061 2070922 0 -1
-2.210494041442871 8.739948272705078 0.13817210495471954 2070922 0 -1
-2.191385269165039 8.38476276397705 2.487097978591919 2006409 0 -1
-6.612773418426514 5.815613269805908 -1.934409499168396 2072968 0 -1
-6.64786958694458 5.846478462219238 -1.872057557106018 2072968 0 -1
-6.636646270751953 5.836608409881592 -1.9413930177688599 2139270 0 -1
-6.864412784576416 5.617283344268799 -1.9483764171600342 2072968 0 -1
-6.603703022003174 5.944025993347168 -1.8787915706634521 2072968 0 -1
-6.592554569244385 5.933991432189941 -1.9483764171600342 2139270 0 -1
-6.63813591003418 5.975019454956055 -1.8156912326812744 2139270 0 -1
-6.86799955368042 6.040072441101074 0.07008368521928787 2271109 0 -1
-3.27755069732666 8.490252494812012 -0.9110879302024841 2271109 0 -1
9.689130783081055 4.577707767486572 2.8916380405426025 4505456 0 -1
9.628999710083008 4.5492987632751465 3.2413082122802734 4505456 0 -1
10.07552719116211 4.307597637176514 -2.138674736022949 2994813 0 -1
10.148197174072266 3.3304762840270996 3.2507858276367188 2994813 0 -1
-6.322037696838379 9.183969497680664 -1.0295567512512207 2994813 0 -1
9.796607971191406 5.050340175628662 -1.973317265510559 2994813 0 -1
5.436439037322998 9.862716674804688 0.0862952172756195 2271109 6 -1
5.451671123504639 9.890351295471191 -0.17308925092220306 2006409 6 -1
5.451671123504639 9.890351295471191 -0.17308925092220306 2271109 6 -1
5.381229877471924 9.967367172241211 0 2328718 6 -1
5.380598068237305 9.96619701385498 -0.17358806729316711 2199437 6 -1
5.4550065994262695 9.896401405334473 -0.7811462879180908 2072968 6 -1
5.465455055236816 9.91535758972168 -0.34717613458633423 2271109 6 -1
5.554655075073242 9.871389389038086 -0.08679403364658356 4505456 6 -1
5.6401214599609375 9.81973934173584 -0.2603820860385895 5424489 6 -1
5.82351541519165 9.73447036743164 -0.6093040704727173 3887499 6 -1
5.736597537994385 9.785943984985352 -0.6093040704727173 3107982 6 -1
5.807204723358154 9.707205772399902 -1.0445213317871094 2977934 6 -1
5.731190204620361 9.77672004699707 -0.783390998840332 2264205 6 -1
5.736597537994385 9.785943984985352 -0.6093040704727173 2072968 6 -1
5.477938175201416 9.938004493713379 -0.5222606658935547 2666112 6 -1
5.655165672302246 9.845932006835938 -0.34817376732826233 4505456 6 -1
5.570780277252197 9.900045394897461 0 5424489 6 -1
5.657657623291016 9.85027027130127 -0.08704344183206558 5949540 6 -1
5.910767555236816 9.682490348815918 -1.0475142002105713 3887499 6 -1
5.814871311187744 9.72002124786377 -1.2220999002456665 3238030 6 -1
5.827808856964111 9.741646766662598 -0.9602213501930237 3107982 6 -1
5.8238444328308105 9.735020637512207 -1.0475142002105713 2977934 6 -1
5.8238444328308105 9.735020637512207 -1.0475142002105713 2912910 6 -1
5.814871311187744 9.72002124786377 -1.2220999002456665 2264205 6 -1
5.753034591674805 9.813983917236328 -0.6110499501228333 2070155 6 -1
5.67403507232666 9.878785133361816 0 2139270 6 -1
5.584117889404297 9.923748016357422 0.34917140007019043 3651704 6 -1
5.6725358963012695 9.876174926757812 -0.2618785500526428 4045940 6 -1
5.74439001083374 9.799237251281738 -0.8729285001754761 4505456 6 -1
5.6725358963012695 9.876174926757812 0.2618785500526428 5424489 6 -1
5.582640647888184 9.921123504638672 -0.43646425008773804 7589974 6 -1
5.4979963302612305 9.974393844604492 -0.2618785500526428 8180304 6 -1
5.8458733558654785 9.771842956542969 -0.34917140007019043 8180304 6 -1
5.848087310791016 9.775544166564941 -0.8754225969314575 3107982 6 -1
5.602046489715576 9.955610275268555 -0.17508451640605927 2264205 6 -1
5.895981311798096 9.658267974853516 -1.5757606029510498 2264205 0 -1
5.67351770401001 9.877883911132812 -0.8754225969314575 2070155 6 -1
5.690079689025879 9.906719207763672 0.08754225820302963 2139270 6 -1
5.578969955444336 9.914599418640137 -1.0505070686340332 3257723 6 -1
5.357312202453613 9.71916675567627 -2.7138099670410156 3651704 0 -1
5.602540016174316 9.956487655639648 -0.08754225820302963 4045940 6 -1
5.574839115142822 9.907258987426758 -1.1380493640899658 4505456 6 -1
5.608814239501953 9.76523208618164 -1.9259296655654907 4899181 0 -1
5.5893659591674805 9.933075904846191 -0.7878803014755249 6343264 6 -1
5.753312587738037 9.814457893371582 -1.0505070686340332 10672695 6 -1
5.757228851318359 9.821139335632324 -0.9629648327827454 11197490 6 -1
5.59216833114624 9.938055038452148 -0.7003380656242371 12640037 6 -1
5.612725734710693 9.974588394165039 0.5267499685287476 2588302 6 -1
5.001773834228516 10.302014350891113 -0.35116666555404663 2328718 0 -1
5.618501663208008 9.984853744506836 0.08779166638851166 2264205 6 -1
5.5302252769470215 10.032862663269043 -0.17558333277702332 2006409 6 -1
5.442444324493408 10.080750465393066 0.17558333277702332 2072968 6 -1
5.581430912017822 9.918973922729492 -1.3168749809265137 3257723 6 -1
5.3827619552612305 9.765336990356445 -2.6337499618530273 3651704 0 -1
5.618006706237793 9.983973503112793 0.17558333277702332 4045940 6 -1
5.447146415710449 9.680331230163574 -2.809333324432373 4505456 0 -1
5.605290412902832 9.96137523651123 -0.7901250123977661 6343264 6 -1
6.239161014556885 9.622695922851562 0.7043285965919495 4456788 0 -1
5.55399227142334 9.870210647583008 1.9369035959243774 2588302 0 -1
5.011117458343506 10.321258544921875 0.6162875294685364 2523534 0 -1
5.242615222930908 10.126705169677734 1.408657193183899 2458766 0 -1
5.369086265563965 10.154932022094727 -0.26412323117256165 2072968 6 -1
5.519001007080078 10.012499809265137 -1.1445339918136597 2666112 6 -1
5.53860330581665 10.048062324523926 0.6162875294685364 3651704 6 -1
5.462621212005615 9.707832336425781 -2.817314386367798 4505456 0 -1
5.545122146606445 10.059887886047363 -0.26412323117256165 6343264 6 -1
5.552383899688721 9.666984558105469 2.913585901260376 2588302 0 -1
5.354640960693359 10.127610206604004 1.2360666990280151 2070155 0 -1
5.469991207122803 10.13177490234375 0.44145241379737854 2070922 6 -1
5.471437931060791 10.134454727172852 0.35316193103790283 2072968 6 -1
5.545947551727295 10.061386108398438 0.8829048275947571 3651704 6 -1
5.542507171630859 10.055144309997559 0.9711952805519104 4045940 6 -1
5.415687561035156 10.031190872192383 -1.6775192022323608 4505456 0 -1
5.364278793334961 9.935969352722168 2.2955524921417236 4899181 0 -1
5.327419757843018 9.867696762084961 2.648714542388916 5949540 0 -1
5.466130256652832 10.12462329864502 0.6180333495140076 10016830 6 -1
5.629565715789795 9.603360176086426 3.0988962650299072 2782862 0 -1
5.396967887878418 10.207666397094727 0.44269946217536926 2588302 6 -1
5.505728721618652 9.58575439453125 3.364515781402588 2588302 0 -1
5.154137134552002 9.748383522033691 3.4530556201934814 2328718 0 -1
5.385054588317871 10.185133934020996 0.8853989243507385 2070155 6 -1
5.486894130706787 10.16308307647705 0.35415956377983093 2070922 6 -1
5.481571197509766 10.153223991394043 0.6197792291641235 2072968 6 -1
5.32312536239624 9.657144546508789 -3.4530556201934814 3651704 0 -1
5.373676300048828 9.74885368347168 -3.0988962650299072 4045940 0 -1
5.288379669189453 9.795385360717773 3.0988962650299072 5949540 0 -1
5.017651557922363 10.334716796875 1.239558458328247 9360965 0 -1
5.476404190063477 10.143653869628906 0.7968590259552002 9360965 6 -1
5.603864669799805 9.559517860412598 3.2759759426116943 9360965 0 -1
5.503481864929199 10.193807601928711 0.2663678824901581 2070922 6 -1
5.503481864929199 10.193807601928711 0.2663678824901581 2006409 6 -1
5.422966957092285 9.838275909423828 2.8412575721740723 2139270 0 -1
5.338119983673096 9.684348106384277 -3.462782621383667 3651704 0 -1
5.422852039337158 9.637157440185547 -3.462782621383667 4045940 0 -1
5.504936695098877 10.196502685546875 0 4505456 6 -1
5.512453079223633 10.21042537689209 0.6232709288597107 2994813 6 -1
5.605319976806641 10.169098854064941 0.4451935291290283 3651704 6 -1
5.601321220397949 10.161844253540039 -1.0714573860168457 3562893 6 -1
5.5161638259887695 10.21729850769043 -0.9821692705154419 3432845 6 -1
5.621021270751953 10.19758415222168 -0.44644057750701904 3257723 6 -1
5.614572525024414 10.185884475708008 -0.7143049240112305 5949540 6 -1
5.611759185791016 10.180781364440918 -0.8035930395126343 6343264 6 -1
5.619203090667725 10.19428539276123 -0.5357286930084229 6933851 6 -1
5.535005569458008 10.252198219299316 -0.8953752517700195 3432845 6 -1
5.531572341918945 10.245838165283203 -0.9849127531051636 3257723 6 -1
5.535005569458008 10.252198219299316 -0.8953752517700195 5424489 6 -1
5.538110256195068 10.257948875427246 -0.8058376908302307 5949540 6 -1
5.535005569458008 10.252198219299316 -0.8953752517700195 6343264 6 -1
5.624279975891113 10.203495979309082 -0.8953752517700195 6933851 6 -1
5.627434730529785 10.209218978881836 -0.8058376908302307 7589974 6 -1
5.535005569458008 10.252198219299316 -0.8953752517700195 8180304 6 -1
5.543207168579102 10.267389297485352 -1.0774431228637695 2264205 6 -1
5.546980381011963 10.274377822875977 -0.9876562356948853 5424489 6 -1
5.546980381011963 10.274377822875977 -0.9876562356948853 5949540 6 -1
5.546980381011963 10.274377822875977 -0.9876562356948853 6343264 6 -1
5.543207168579102 10.267389297485352 -1.0774431228637695 6933851 6 -1
5.546980381011963 10.274377822875977 -0.9876562356948853 7589974 6 -1
5.460524082183838 10.327874183654785 1.2605087757110596 4147337 0 -1
5.460524082183838 10.327874183654785 -1.2605087757110596 4017546 6 -1
5.476069927215576 10.357276916503906 -0.9003633856773376 3432845 6 -1
5.89475679397583 10.263072967529297 -0.5447073578834534 2134668 6 -1
5.98896598815918 10.21645450592041 -0.36313825845718384 2271109 6 -1
5.912863731384277 10.294597625732422 -0.4551698565483093 2264205 6 -1
5.912863731384277 10.294597625732422 -0.4551698565483093 2199437 6 -1
5.99694299697876 10.230062484741211 -0.7282717823982239 2134668 6 -1
6.0847554206848145 10.171154022216797 -0.8193057179450989 2139270 6 -1
6.08780574798584 10.176253318786621 -0.7282717823982239 2271109 6 -1
5.839391708374023 10.377405166625977 -0.36513352394104004 2264205 6 -1
5.9248785972595215 10.315516471862793 -0.6389836668968201 2199437 6 -1
6.013373374938965 10.258090019226074 -0.7302670478820801 2134668 6 -1
6.098005771636963 10.193302154541016 -0.9128338098526001 2139270 6 -1
5.849665641784668 10.39566421508789 -0.6407294869422913 2264205 6 -1
5.928459644317627 10.32175064086914 -1.006860613822937 2199437 6 -1
