VERSION .7
FIELDS x y z rgb label object
SIZE 4 4 4 4 4 4
TYPE F F F I I I
COUNT 1 1 1 1 1 1
WIDTH 615
HEIGHT 1
POINTS 615
VIEWPOINT 0 0 0 1 0 0 0
DATA ascii
-1.8838900327682495 2.3799400329589844 0.7422386407852173 4456788 7 -1
-1.949959397315979 2.414350748062134 0.580622136592865 4456788 7 -1
-1.9111210107803345 2.366262912750244 0.8467406630516052 4456788 7 -1
-1.9303042888641357 2.4385757446289062 0.7088179588317871 4456788 7 -1
-1.9072766304016113 2.409484624862671 0.8554699420928955 4456788 7 -1
-1.9187768697738647 2.473109722137451 0.7654336094856262 4456788 7 -1
-1.9267386198043823 2.4340713024139404 0.8641992211341858 4456788 7 -1
-1.7436716556549072 2.5330166816711426 0.9629648327827454 3107982 7 -1
-1.7938107252120972 2.5544791221618652 0.9228101372718811 3302798 7 -1
-1.7850855588912964 2.5420541763305664 0.9726917743682861 3238030 7 -1
-1.75679349899292 2.5520787239074707 0.9976325631141663 3107982 7 -1
-1.7425627708435059 2.5314056873321533 1.0724550485610962 2912910 7 -1
-1.7425627708435059 2.5314056873321533 1.0724550485610962 2782862 7 -1
-1.807405948638916 2.5738396644592285 0.957228422164917 3238030 7 -1
-1.7788972854614258 2.58418869972229 0.9824186563491821 3107982 7 -1
-1.764907956123352 2.563866376876831 1.0579893589019775 2912910 7 -1
-1.7549387216567993 2.549384117126465 1.1083698272705078 2782862 7 -1
-1.9073035717010498 2.5585503578186035 0.915826678276062 3238030 7 -1
-1.8052910566329956 2.622530698776245 0.9412662982940674 3238030 7 -1
-1.8009637594223022 2.616244316101074 0.9667059779167175 3107982 7 -1
-1.8253010511398315 2.599323034286499 0.9667059779167175 2912910 7 -1
-1.8951945304870605 2.5934898853302 0.8395078182220459 2782862 7 -1
-1.9097492694854736 2.613407611846924 0.8734273314476013 3302798 7 -1
-1.9097492694854736 2.613407611846924 0.8734273314476013 3238030 7 -1
-1.888920545578003 2.6368987560272217 0.8477382659912109 2912910 7 -1
-1.917672038078308 2.6242494583129883 0.8220492601394653 2782862 7 -1
-1.9097492694854736 2.613407611846924 0.8734273314476013 2718350 7 -1
-1.890437364578247 2.6390161514282227 0.9597225189208984 3302798 7 -1
-1.9197696447372437 2.627119779586792 0.9337840676307678 3238030 7 -1
-1.9111436605453491 2.667921781539917 0.8300303220748901 2977934 7 -1
-1.9072595834732056 2.6624999046325684 0.855968713760376 2912910 7 -1
-1.9323551654815674 2.6443426609039307 0.855968713760376 2782862 7 -1
-1.9400966167449951 2.6549365520477295 0.8040918707847595 2718350 7 -1
-1.9333131313323975 2.6988699436187744 0.8118234872817993 3107982 7 -1
-1.887885332107544 2.688446283340454 0.9427627921104431 2977934 7 -1
-1.9255986213684082 2.688100814819336 0.8641992211341858 2718350 7 -1
-1.9260450601577759 2.7427875995635986 0.8195551633834839 3107982 7 -1
-1.939848780632019 2.707993507385254 0.8988669514656067 2977934 7 -1
-1.794189453125 6.864996433258057 -0.05437097325921059 4045940 4 -1
-1.7398711442947388 6.879178524017334 0 5424489 4 -1
-1.739820122718811 6.878976821899414 -0.05437097325921059 5949540 4 -1
-1.794189453125 6.864996433258057 0.05437097325921059 6343264 4 -1
-1.7940315008163452 6.864391803741455 0.10874194651842117 6933851 4 -1
-1.693182110786438 6.924116611480713 -0.05462038144469261 2328718 4 -1
-1.6914414167404175 6.916997909545898 -0.32772231101989746 2134668 4 -1
-1.8022609949111938 6.895879745483398 -0.10924076288938522 2666112 4 -1
-1.8570384979248047 6.881980895996094 0.05462038144469261 3651704 4 -1
-1.8024725914001465 6.8966898918151855 0 4045940 4 -1
-1.7476470470428467 6.909923076629639 0.10924076288938522 5424489 4 -1
-1.8024197816848755 6.896487236022949 0.05462038144469261 5949540 4 -1
-1.8022609949111938 6.895879745483398 0.10924076288938522 6343264 4 -1
-1.6932318210601807 6.924319744110107 0 6933851 4 -1
-1.7478522062301636 6.9107346534729 0 7589974 4 -1
-1.7007638216018677 6.955121040344238 -0.10973957926034927 3107982 4 -1
-1.7558332681655884 6.942290306091309 0 2782862 4 -1
-1.7007638216018677 6.955121040344238 -0.10973957926034927 2588302 4 -1
-1.7007638216018677 6.955121040344238 -0.10973957926034927 2523534 4 -1
-1.7007638216018677 6.955121040344238 -0.10973957926034927 2134668 4 -1
-1.7005140781402588 6.954099655151367 -0.1646093726158142 2070155 4 -1
-1.810703158378601 6.9281816482543945 0 2666112 4 -1
-1.6456587314605713 6.967284679412842 0.1646093726158142 6343264 4 -1
-1.7005140781402588 6.954099655151367 0.1646093726158142 8705099 4 -1
-1.6997146606445312 6.950830936431885 0.2743489444255829 9360965 4 -1
-1.8620645999908447 6.900607109069824 0.4389583170413971 11197490 4 -1
-1.5910370349884033 6.981039047241211 0.10973957926034927 11197490 4 -1
-1.8611315488815308 6.897149562835693 0.4938281178474426 11918891 4 -1
-1.5900557041168213 6.9767327308654785 0.2743489444255829 11918891 4 -1
-1.8611315488815308 6.897149562835693 0.4938281178474426 12640037 4 -1
-1.704627275466919 6.970920085906982 -0.49607279896736145 4212104 4 -1
-1.7036716938018799 6.967012405395508 -0.5511919856071472 4147337 4 -1
-1.7026149034500122 6.962690830230713 -0.6063112020492554 4017546 4 -1
-1.6504663228988647 6.987638473510742 -0.4409535825252533 3432845 4 -1
-1.7638143301010132 6.973846435546875 0 2782862 4 -1
-1.7084945440292358 6.986734867095947 0.11023839563131332 2718350 4 -1
-1.708644986152649 6.9873504638671875 -0.05511919781565666 2588302 4 -1
-1.7638143301010132 6.973846435546875 0 2523534 4 -1
-1.7636072635650635 6.973027229309082 -0.11023839563131332 2458766 4 -1
-1.708644986152649 6.9873504638671875 -0.05511919781565666 2134668 4 -1
-1.7638143301010132 6.973846435546875 0 2070155 4 -1
-1.7633483409881592 6.97200345993042 0.16535760462284088 5424489 4 -1
-1.7629857063293457 6.970569610595703 0.22047679126262665 5949540 4 -1
-1.7054818868637085 6.974414825439453 0.4409535825252533 7589974 4 -1
-1.7604973316192627 6.960731506347656 0.4409535825252533 8180304 4 -1
-1.6523619890213013 6.995664119720459 0.2755959928035736 9360965 4 -1
-1.598034381866455 7.0117411613464355 0.16535760462284088 11197490 4 -1
-1.598034381866455 7.0117411613464355 0.16535760462284088 11918891 4 -1
-1.598034381866455 7.0117411613464355 0.16535760462284088 12640037 4 -1
-1.8705284595489502 6.931973457336426 0.4409535825252533 13164576 4 -1
-1.598034381866455 7.0117411613464355 0.16535760462284088 13164576 4 -1
-1.7113806009292603 6.998537540435791 -0.5536860823631287 4212104 4 -1
-1.7123404741287231 7.002462863922119 -0.4983174800872803 4147337 4 -1
-1.709155559539795 6.989438056945801 -0.6644232869148254 4017546 4 -1
-1.6586670875549316 7.0223588943481445 -0.3875802457332611 3432845 4 -1
-1.6610581874847412 7.032482147216797 0 2588302 4 -1
-1.771795392036438 7.005402088165283 0 2458766 4 -1
-1.7163764238357544 7.018967628479004 -0.05536860600113869 2264205 4 -1
-1.7164268493652344 7.019173622131348 0 2134668 4 -1
-1.7159732580184937 7.0173187255859375 -0.16610582172870636 2139270 4 -1
-1.716225266456604 7.0183491706848145 -0.11073721200227737 2666112 4 -1
-1.771327257156372 7.003551006317139 0.16610582172870636 5424489 4 -1
-1.7159732580184937 7.0173187255859375 0.16610582172870636 5949540 4 -1
-1.7146118879318237 7.011751651763916 0.3322116434574127 6933851 4 -1
-1.7675772905349731 6.988724231719971 0.4983174800872803 8180304 4 -1
-1.7699220180511475 6.997994422912598 0.3322116434574127 8705099 4 -1
-1.7123404741287231 7.002462863922119 0.4983174800872803 9360965 4 -1
-1.715166687965393 7.014019966125488 0.27684304118156433 10016830 4 -1
-1.6602778434753418 7.029178142547607 0.22147442400455475 10672695 4 -1
-1.6598386764526367 7.027318954467773 0.27684304118156433 11197490 4 -1
-1.60451078414917 7.040157794952393 0.27684304118156433 11918891 4 -1
-1.6049352884292603 7.042020320892334 0.22147442400455475 12640037 4 -1
-1.826305627822876 6.987880706787109 0.22147442400455475 13164576 4 -1
-1.60451078414917 7.040157794952393 0.27684304118156433 13164576 4 -1
-1.501686453819275 7.101500988006592 0 4456788 4 -1
-1.6645681858062744 7.047342300415039 -0.5005621314048767 4212104 4 -1
-1.7209160327911377 7.037531852722168 -0.4449441134929657 4147337 4 -1
-1.6117383241653442 7.07187032699585 -0.27809008955955505 3562893 4 -1
-1.6661386489868164 7.053990840911865 -0.3893260955810547 3432845 4 -1
-1.7239559888839722 7.049963474273682 -0.11123602837324142 2264205 4 -1
-1.7241078615188599 7.050584316253662 -0.05561801418662071 2134668 4 -1
-1.7241078615188599 7.050584316253662 0.05561801418662071 2072968 4 -1
-1.7241078615188599 7.050584316253662 -0.05561801418662071 2139270 4 -1
-1.7241078615188599 7.050584316253662 0.05561801418662071 2468738 4 -1
-1.7239559888839722 7.049963474273682 -0.11123602837324142 2666112 4 -1
-1.7228926420211792 7.045614719390869 0.27809008955955505 6343264 4 -1
-1.777214527130127 7.026828289031982 0.3893260955810547 8180304 4 -1
-1.776429533958435 7.023724555969238 0.4449441134929657 8705099 4 -1
-1.7209160327911377 7.037531852722168 0.4449441134929657 9360965 4 -1
-1.7216765880584717 7.040641784667969 0.3893260955810547 10016830 4 -1
-1.668344497680664 7.063330173492432 0.11123602837324142 10672695 4 -1
-1.6117383241653442 7.07187032699585 0.27809008955955505 11918891 4 -1
-1.7797242403030396 7.0367512702941895 -0.05561801418662071 12640037 4 -1
-1.7797242403030396 7.0367512702941895 -0.05561801418662071 12640037 4 -1
-1.1673808097839355 7.160286903381348 -0.7262765169143677 4456788 0 -1
-1.6197271347045898 7.1069231033325195 -0.1676022708415985 3692940 4 -1
-1.618442177772522 7.101284980773926 -0.335204541683197 3562893 4 -1
-1.7318392992019653 7.0822014808654785 0.05586742237210274 2718350 4 -1
-1.6742504835128784 7.088334560394287 -0.335204541683197 2199437 4 -1
-2.0112273693084717 7.008204460144043 0 2070155 4 -1
-1.7316867113113403 7.081577777862549 -0.11173484474420547 2070155 4 -1
-1.7306185960769653 7.07720947265625 -0.2793371081352234 2070922 4 -1
-1.7314324378967285 7.080537796020508 -0.1676022708415985 2666112 4 -1
-1.6755797863006592 7.093962669372559 -0.1676022708415985 4045940 4 -1
-1.731890082359314 7.082409381866455 0 6343264 4 -1
-1.7869176864624023 7.065192699432373 0.22346968948841095 8180304 4 -1
-1.726798415184021 7.061587333679199 0.5586742162704468 8705099 4 -1
-1.7293970584869385 7.072214126586914 0.39107197523117065 9360965 4 -1
-1.7851840257644653 7.058338642120361 0.39107197523117065 10016830 4 -1
-1.6755797863006592 7.093962669372559 0.1676022708415985 11918891 4 -1
-1.7316867113113403 7.081577777862549 -0.11173484474420547 12640037 4 -1
-1.7877050638198853 7.0683064460754395 -0.05586742237210274 13164576 4 -1
-1.6256673336029053 7.132987022399902 -0.33670100569725037 3562893 4 -1
-2.0762617588043213 7.022937774658203 0.05611683055758476 2912910 4 -1
-2.0199687480926514 7.0386643409729 0.11223366111516953 2782862 4 -1
-1.680338978767395 7.11411190032959 0.4489346444606781 2782862 4 -1
-1.7396217584609985 7.11402702331543 0 2718350 4 -1
-2.0199687480926514 7.0386643409729 0.11223366111516953 2523534 4 -1
-1.7395707368850708 7.113818168640137 0.05611683055758476 2523534 4 -1
-1.6817247867584229 7.119978904724121 -0.33670100569725037 2070155 4 -1
-1.6794970035552979 7.110547065734863 -0.5050514936447144 2070922 4 -1
-1.739417552947998 7.113191604614258 -0.11223366111516953 2666112 4 -1
-1.7952641248703003 7.098193645477295 0.16835050284862518 8180304 4 -1
-1.7904592752456665 7.079195499420166 0.5611683130264282 8705099 4 -1
-1.7371176481246948 7.103786468505859 0.39281782507896423 9360965 4 -1
-1.7944202423095703 7.0948567390441895 0.2805841565132141 10016830 4 -1
-1.6261932849884033 7.1352949142456055 0.2805841565132141 11197490 4 -1
-1.7345073223114014 7.093111991882324 0.5611683130264282 11918891 4 -1
-1.721087098121643 7.038231372833252 1.0662198066711426 12640037 0 -1
-0.844276487827301 7.29691743850708 -0.3945636749267578 4456788 0 -1
-1.1786766052246094 7.229571342468262 -0.6763948798179626 4456788 0 -1
-1.2382721900939941 7.240475654602051 0.3945636749267578 4456788 0 -1
-1.228205919265747 7.181615352630615 -1.0145922899246216 4456788 0 -1
-1.6346209049224854 7.1722731590271 0 4017546 4 -1
-2.0286483764648438 7.068909168243408 0.16909871995449066 2912910 4 -1
-2.0276949405670166 7.065586566925049 0.28183120489120483 2782862 4 -1
-1.7422163486480713 7.124637126922607 0.5636624097824097 2782862 4 -1
-2.0276949405670166 7.065586566925049 0.28183120489120483 2523534 4 -1
-1.7465325593948364 7.142287731170654 0.22546495497226715 2523534 4 -1
-1.972586750984192 7.085878849029541 -0.11273247748613358 2458766 4 -1
-1.6905403137207031 7.157301425933838 -0.16909871995449066 2458766 4 -1
-2.028231382369995 7.067455768585205 0.22546495497226715 2070155 4 -1
-2.027039051055908 7.063301086425781 0.3381974399089813 2070922 4 -1
-1.6838237047195435 7.128864765167236 -0.6763948798179626 2070922 4 -1
-1.8036667108535767 7.131416320800781 -0.05636623874306679 8180304 4 -1
-1.7994256019592285 7.114647388458252 0.5072961449623108 8705099 4 -1
-2.0276949405670166 7.065586566925049 0.28183120489120483 9360965 4 -1
-1.971369981765747 7.081508159637451 0.28183120489120483 13164576 4 -1
-1.1306829452514648 7.290947914123535 -0.3963095247745514 4456788 0 -1
-1.6418538093566895 7.204009056091309 0 3432845 4 -1
-2.035229444503784 7.091840744018555 0.3963095247745514 2523534 4 -1
-1.9810240268707275 7.116187572479248 -0.16984695196151733 2458766 4 -1
-1.6972224712371826 7.185591697692871 -0.28307825326919556 2458766 4 -1
-1.9815477132797241 7.118068218231201 0 2070922 4 -1
-1.9814895391464233 7.117859363555908 -0.05661564692854881 3257723 4 -1
-1.7550336122512817 7.177052021026611 0.05661564692854881 3257723 4 -1
-1.9806166887283325 7.114724159240723 0.22646258771419525 3651704 4 -1
-1.976830244064331 7.1011223793029785 0.509540855884552 6933851 4 -1
-1.7289149761199951 6.835859298706055 -2.208010196685791 8705099 0 -1
-2.0376248359680176 7.1001877784729 0.16984695196151733 13164576 4 -1
-1.7509067058563232 7.160175800323486 0.509540855884552 13164576 4 -1
-1.9329010248184204 7.163119316101074 -0.1705951690673828 2070922 4 -1
-1.7055009603500366 7.220640659332275 -0.1705951690673828 2070922 4 -1
-1.99004328250885 7.148585796356201 -0.11373011022806168 3257723 4 -1
-1.7619885206222534 7.205493927001953 0.22746022045612335 3257723 4 -1
3.184349775314331 6.703146457672119 0.05686505511403084 4899181 5 -1
3.2409274578094482 6.675248146057129 0.11373011022806168 5424489 5 -1
-1.589227318763733 7.234838485717773 -0.4549204409122467 8705099 4 -1
-2.0469017028808594 7.132513046264648 0.11373011022806168 9360965 4 -1
3.2397854328155518 6.672895908355713 0.22746022045612335 9360965 5 -1
-1.8119730949401855 7.164258003234863 0.6823806762695312 10672695 4 -1
-1.5921748876571655 7.248257160186768 0.05686505511403084 10672695 4 -1
-1.1990867853164673 7.35476016998291 -0.1713433861732483 4456788 0 -1
-1.879236102104187 7.190405368804932 -0.5711446404457092 4456788 4 -1
-1.6326160430908203 7.16347599029541 -1.2565182447433472 4456788 0 -1
-2.0561206340789795 7.164637565612793 0 2666112 4 -1
3.2555243968963623 6.705313205718994 0 4899181 5 -1
3.2554287910461426 6.705116271972656 0.05711446329951286 5424489 5 -1
3.250838041305542 6.6956610679626465 0.39980125427246094 9360965 5 -1
-1.5953978300094604 7.262929439544678 0.5140301585197449 11197490 0 -1
-1.6038763523101807 7.301527500152588 -0.4015471041202545 4456788 4 -1
-1.202375888824463 7.374934196472168 -0.4589109718799591 4456788 0 -1
-1.4828542470932007 7.293980121612549 -0.803094208240509 4456788 0 -1
3.2508726119995117 6.695732116699219 -0.803094208240509 4212104 5 -1
3.2558891773223877 6.706064224243164 -0.6883664727210999 3887499 5 -1
3.2696447372436523 6.734396457672119 0.05736387148499489 4899181 5 -1
3.2696447372436523 6.734396457672119 0.05736387148499489 5424489 5 -1
3.2119996547698975 6.761350154876709 0.11472774296998978 6343264 5 -1
3.212282657623291 6.761945724487305 0.05736387148499489 6933851 5 -1
-1.5553759336471558 7.3553996086120605 -0.11522655934095383 4456788 4 -1
3.210297107696533 6.7577667236328125 -0.7489726543426514 4212104 5 -1
3.216858386993408 6.771577835083008 -0.5761328339576721 3887499 5 -1
3.1687304973602295 6.818615913391113 0 4045940 5 -1
3.111117124557495 6.845095157623291 0 4899181 5 -1
3.3414721488952637 6.735400676727295 0.05761327967047691 4899181 5 -1
3.282414197921753 6.760696887969971 0.23045311868190765 5424489 5 -1
3.224828004837036 6.788354396820068 0.23045311868190765 6343264 5 -1
3.167893171310425 6.816814422607422 0.17283983528614044 6933851 5 -1
3.283571243286133 6.763080596923828 0.11522655934095383 7589974 5 -1
-1.9357129335403442 7.173540115356445 1.1522656679153442 10016830 0 -1
3.3414721488952637 6.735400676727295 0.05761327967047691 10016830 5 -1
-1.950553297996521 7.228536605834961 -0.6913593411445618 10672695 4 -1
-1.900735855102539 7.272668361663818 0.17283983528614044 11197490 4 -1
-1.4708236455917358 6.955550670623779 -2.5459582805633545 4456788 0 -1
3.2241945266723633 6.787020683288574 -0.7522149682044983 4212104 5 -1
3.2325963973999023 6.804707050323486 -0.520764172077179 3887499 5 -1
3.23878812789917 6.8177409172058105 -0.23145075142383575 3302798 5 -1
3.2356462478637695 6.811126708984375 -0.40503883361816406 2977934 5 -1
3.2325963973999023 6.804707050323486 -0.520764172077179 2912910 5 -1
3.2307841777801514 6.800892353057861 -0.5786268711090088 2328718 5 -1
3.2403106689453125 6.820945739746094 0 4505456 5 -1
3.182447910308838 6.848133563995361 0 4899181 5 -1
3.122291088104248 6.869680404663086 0.2893134355545044 5424489 5 -1
3.355149030685425 6.762969017028809 0.17358806729316711 5424489 5 -1
3.1816070079803467 6.846324443817139 0.17358806729316711 6933851 5 -1
3.4102888107299805 6.728618621826172 0.34717613458633423 6933851 5 -1
3.297785997390747 6.792357921600342 0.11572537571191788 7589974 5 -1
-1.8574776649475098 6.883608818054199 -2.48809552192688 10672695 0 -1
3.4134976863861084 6.734950065612793 0.11572537571191788 10672695 5 -1
3.4137983322143555 6.735543251037598 0.05786268785595894 11197490 5 -1
3.2841670513153076 6.764307498931885 -0.9879056215286255 4212104 5 -1
3.2518882751464844 6.8453168869018555 0.2905604839324951 3432845 5 -1
3.2495930194854736 6.840485095977783 -0.40678468346595764 2977934 5 -1
3.246530055999756 6.834037780761719 -0.5230088829994202 2912910 5 -1
3.2508363723754883 6.84310245513916 -0.3486725687980652 2782862 5 -1
3.1938188076019287 6.8726019859313965 -0.2905604839324951 5424489 5 -1
3.424988269805908 6.7576212882995605 0.3486725687980652 6933851 5 -1
3.311514139175415 6.820633888244629 0.1743362843990326 7589974 5 -1
3.3704025745391846 6.793715476989746 0.058112096041440964 11197490 5 -1
3.3696110248565674 6.792119979858398 0.1743362843990326 12640037 5 -1
3.695340633392334 6.5671305656433105 -1.1088685989379883 4456788 0 -1
3.7350265979766846 6.63765811920166 -0.05836150422692299 4456788 0 -1
3.2566144466400146 6.8552656173706055 -0.641976535320282 2912910 5 -1
3.193918228149414 6.87281608581543 -0.7586995959281921 2006409 5 -1
3.193918228149414 6.87281608581543 -0.7586995959281921 2994813 5 -1
3.267380714416504 6.877928733825684 -0.17508451640605927 7589974 5 -1
3.150688409805298 6.932159900665283 0.17508451640605927 8180304 5 -1
3.3813881874084473 6.815858840942383 0.35016903281211853 12640037 5 -1
3.220191717147827 6.929352283477783 -0.3516654670238495 4456788 5 -1
3.1927919387817383 6.870392322540283 -1.0549964904785156 2912910 5 -1
3.1731443405151367 6.828114032745361 -1.3480509519577026 2070155 5 -1
3.2075674533843994 6.902186870574951 -0.7619418501853943 2006409 5 -1
3.2075674533843994 6.902186870574951 -0.7619418501853943 2994813 5 -1
3.1649892330169678 6.963624954223633 0 8180304 5 -1
3.106013536453247 6.9891462326049805 0.11722182482481003 9360965 5 -1
3.1635024547576904 6.960353374481201 -0.23444364964962006 10016830 5 -1
3.118131399154663 7.016413688659668 0.23544128239154816 2977934 5 -1
3.190988779067993 6.866512298583984 -1.2949271202087402 2070155 5 -1
3.0592987537384033 7.042264938354492 -0.23544128239154816 2994813 5 -1
3.2797842025756836 6.904038429260254 -0.7651841640472412 2994813 5 -1
-4.318552017211914 6.273523330688477 -1.000625491142273 6343264 0 -1
3.1195054054260254 7.019505500793457 0.05886032059788704 6343264 5 -1
3.1195054054260254 7.019505500793457 -0.05886032059788704 6933851 5 -1
3.0933403968811035 6.80598258972168 -1.7658096551895142 7589974 0 -1
3.1192307472229004 7.018887519836426 0.11772064119577408 8180304 5 -1
3.0243654251098633 6.805421829223633 -1.8835302591323853 8705099 0 -1
3.118131399154663 7.016413688659668 0.23544128239154816 9360965 5 -1
3.1187727451324463 7.017856597900391 0.17658096551895142 11918891 5 -1
3.118131399154663 7.016413688659668 0.23544128239154816 12640037 5 -1
3.1187727451324463 7.017856597900391 0.17658096551895142 13164576 5 -1
3.1324477195739746 7.048628330230713 -0.11821945756673813 4899181 5 -1
3.3683643341064453 6.937726020812988 -0.1773291826248169 4899181 5 -1
3.3644044399261475 6.929570198059082 0.41376811265945435 5424489 5 -1
3.1825413703918457 7.002242565155029 0.5910972952842712 7589974 5 -1
3.424739122390747 6.9032416343688965 0.3546583652496338 7589974 5 -1
3.1313438415527344 7.046144485473633 0.23643891513347626 8180304 5 -1
3.1253573894500732 7.0326738357543945 0.5319875478744507 8705099 5 -1
3.129503011703491 7.042002201080322 0.3546583652496338 9360965 5 -1
3.1313438415527344 7.046144485473633 0.23643891513347626 11918891 5 -1
3.1319878101348877 7.047593593597412 0.1773291826248169 12640037 5 -1
3.1319878101348877 7.047593593597412 0.1773291826248169 13164576 5 -1
2.905522346496582 7.172427177429199 -0.35615482926368713 4456788 0 -1
4.326979160308838 6.412270545959473 -0.4155139625072479 4456788 0 -1
3.191814422607422 7.022645473480225 0.7123096585273743 7589974 5 -1
3.495603084564209 6.896946430206299 0.4748730957508087 7589974 5 -1
3.2007791996002197 7.042369842529297 0.4155139625072479 8180304 5 -1
3.203887462615967 7.049208641052246 0.23743654787540436 8705099 5 -1
3.2020041942596436 7.045064926147461 0.35615482926368713 9360965 5 -1
3.1437244415283203 7.074003219604492 0.29679569602012634 10016830 5 -1
3.083411455154419 7.0977702140808105 0.35615482926368713 11197490 5 -1
3.145202875137329 7.077330112457275 0.17807741463184357 11918891 5 -1
3.145202875137329 7.077330112457275 0.17807741463184357 13164576 5 -1
3.3972880840301514 6.997299671173096 -0.11921709030866623 7589974 5 -1
3.2723045349121094 7.041491508483887 0.4768683612346649 8705099 5 -1
3.2142279148101807 7.071959972381592 0.4172598123550415 9360965 5 -1
3.156933546066284 7.103725910186768 0.2980427145957947 10016830 5 -1
3.0963668823242188 7.127593040466309 0.3576512634754181 11197490 5 -1
3.157768726348877 7.105605602264404 0.23843418061733246 13164576 5 -1
3.466763734817505 6.987950325012207 -0.41900569200515747 2072968 5 -1
3.466763734817505 6.987950325012207 -0.41900569200515747 2666112 5 -1
3.4652323722839355 6.984863758087158 -0.4788636267185211 3257723 5 -1
3.409398317337036 7.022243022918701 0.2992897629737854 7589974 5 -1
3.106760025024414 7.151517391204834 0.4788636267185211 13164576 5 -1
3.4714584350585938 6.997413635253906 -0.7212883234024048 2070155 5 -1
3.481208562850952 7.017066955566406 -0.42075154185295105 2666112 5 -1
3.4779274463653564 7.010453224182129 -0.540966272354126 2994813 5 -1
3.4738214015960693 7.002176761627197 -0.6611809730529785 3257723 5 -1
3.4116055965423584 7.02678918838501 0.7212883234024048 7589974 5 -1
3.354034423828125 7.060337543487549 0.6611809730529785 8180304 5 -1
3.4139280319213867 7.031572341918945 0.6611809730529785 8705099 5 -1
2.9901533126831055 6.883098125457764 -2.2840797901153564 11918891 0 -1
3.004314661026001 6.915696144104004 -2.163865089416504 13164576 0 -1
3.4191737174987793 6.892023086547852 -1.6899895668029785 4456788 0 -1
3.4882357120513916 7.03123140335083 -0.6639244556427002 2199437 5 -1
3.4858627319335938 7.0264482498168945 -0.7242812514305115 2134668 5 -1
3.480491876602173 7.015622615814209 -0.8449947834014893 2070155 5 -1
3.407456159591675 7.018242359161377 -1.0864218473434448 2006409 0 -1
3.4956533908843994 7.0461835861206055 -0.42249739170074463 2666112 5 -1
3.4858627319335938 7.0264482498168945 -0.7242812514305115 2994813 5 -1
3.4175362586975098 7.039004325866699 0.9053515791893005 7589974 5 -1
3.428093671798706 7.060749053955078 0.6639244556427002 8180304 5 -1
3.4302215576171875 7.065131664276123 0.6035677194595337 8705099 5 -1
3.0773818492889404 7.2487053871154785 0.18107031285762787 11918891 5 -1
3.3285348415374756 6.8556904792785645 -1.9917733669281006 13164576 0 -1
3.439108371734619 6.932205677032471 -1.636366844177246 4456788 0 -1
3.5002670288085938 7.055483341217041 0.7272741198539734 7589974 5 -1
3.4443960189819336 7.094326496124268 0.6060617566108704 8180304 5 -1
3.0886456966400146 7.275237560272217 0.3030308783054352 11918891 5 -1
3.5212209224700928 7.097720146179199 0.5477002859115601 4456788 5 -1
3.514671564102173 7.084517955780029 0.7302670478820801 7589974 5 -1
3.3978936672210693 7.152662754058838 0.6085558533668518 8180304 5 -1
3.3957860469818115 7.148225784301758 0.6694114804267883 8705099 5 -1
3.572622060775757 7.04890775680542 0.7911226153373718 13164576 5 -1
-5.6598429679870605 5.331108570098877 -1.7720448970794678 8180304 0 -1
3.3559367656707764 7.221455097198486 0.42773497104644775 8180304 5 -1
3.404860734939575 7.167327880859375 0.7943649291992188 11197490 5 -1
-6.012450218200684 5.041886329650879 -1.5952144861221313 8180304 0 -1
-5.540071487426758 5.574026107788086 -1.5338600873947144 8180304 0 -1
3.3681461811065674 7.247727870941162 0.4908352196216583 8180304 5 -1
4.250164031982422 6.823351860046387 0.12320762127637863 4456788 0 -1
3.2010462284088135 7.368556976318359 0.3080190420150757 4456788 5 -1
2.4518966674804688 7.614725589752197 -0.8008495569229126 4456788 0 -1
3.2646186351776123 7.346038818359375 0.12320762127637863 4456788 5 -1
-6.659605026245117 3.847965717315674 2.340944766998291 4456788 0 -1
2.9499433040618896 7.4583940505981445 -0.5544342994689941 4456788 0 -1
-5.911903381347656 5.321333885192871 -1.1704723834991455 8705099 0 -1
-5.928891181945801 5.336624622344971 -1.2370643615722656 4456788 0 -1
3.214005947113037 7.398388862609863 0.3092660903930664 4456788 5 -1
2.5269577503204346 7.636308193206787 -0.680385410785675 4456788 0 -1
2.968169927597046 7.504477024078369 -0.18555966019630432 4456788 0 -1
3.2758138179779053 7.371230602264404 0.3092660903930664 4456788 5 -1
-6.070774555206299 5.090795516967773 -1.546330451965332 4456788 0 -1
-5.933898448944092 5.218575477600098 -1.8009761571884155 4456788 0 -1
-5.700282573699951 5.611965179443359 -1.3041552305221558 4456788 0 -1
-4.726384162902832 6.214900493621826 -2.1735918521881104 4456788 0 -1
-0.6209533214569092 8.080048561096191 -0.12420525401830673 4456788 0 -1
0.43255627155303955 8.052906036376953 -0.8073341250419617 4456788 0 -1
7.487714767456055 1.7717640399932861 2.5462076663970947 4456788 0 -1
0.6741750240325928 7.970131874084473 -1.4964488744735718 4456788 0 -1
2.4271562099456787 7.7509331703186035 -0.49881628155708313 4456788 0 -1
3.05381441116333 7.538493633270264 0.24940814077854156 4456788 0 -1
4.489214897155762 6.786746978759766 0.06235203519463539 4456788 0 -1
5.86091947555542 5.644697666168213 0.06235203519463539 4456788 0 -1
-7.55607795715332 2.2674827575683594 1.9952651262283325 4456788 0 -1
-2.331954002380371 7.446911811828613 -2.307025194168091 4456788 0 -1
6.226227760314941 5.221154689788818 0.43646425008773804 4456788 0 -1
2.7434089183807373 7.66072416305542 -0.06235203519463539 4456788 0 -1
4.003551006317139 7.11486291885376 -0.3130072057247162 4456788 0 -1
-6.570761680603027 5.2445597648620605 -1.7777812480926514 3107982 0 -1
-6.635180950164795 5.16281795501709 -1.7777812480926514 2782862 0 -1
-6.255706787109375 5.501590728759766 -2.1069998741149902 2782862 0 -1
-6.676547527313232 5.061468124389648 -1.9094687700271606 2718350 0 -1
-6.355559825897217 5.459084987640381 -1.9094687700271606 2718350 0 -1
-1.8353841304779053 8.053167343139648 2.370374917984009 2718350 0 -1
-6.343969345092773 5.449129581451416 -1.9753124713897705 2588302 0 -1
-1.8942641019821167 8.019814491271973 2.436218738555908 2588302 0 -1
-6.508515357971191 5.326045513153076 -1.9167015552520752 3107982 0 -1
-6.2507524490356445 5.626333236694336 -1.9167015552520752 2782862 0 -1
-6.422047138214111 5.516193866729736 -1.6523289680480957 2718350 0 -1
-6.576509475708008 5.381686210632324 -1.6585640907287598 2782862 0 -1
-6.2743401527404785 5.647564888000488 -1.9239344596862793 2782862 0 -1
-5.936376094818115 6.233829498291016 -0.9287959337234497 2782862 0 -1
-6.296003818511963 5.667064189910889 -1.7912492752075195 2271109 0 -1
-6.455900192260742 5.545271873474121 -1.5922216176986694 2468738 0 -1
-6.185825347900391 5.826541423797607 -1.6585640907287598 2468738 0 -1
-2.1266443729400635 8.137048721313477 2.056619644165039 2666112 0 -1
-6.115832328796387 5.632205963134766 -2.5304949283599854 2718350 0 -1
-1.323013186454773 8.531145095825195 0.998879611492157 2070155 0 -1
-6.414714336395264 5.641429901123047 -1.5982073545455933 2271109 0 -1
-6.423868179321289 5.64948034286499 -1.5316153764724731 2468738 0 -1
-6.1616692543029785 5.934352397918701 -1.5316153764724731 2468738 0 -1
-6.476783275604248 5.696016311645508 -1.0654715299606323 2666112 0 -1
-6.22352409362793 5.993925094604492 -0.9322876334190369 2666112 0 -1
-6.351251125335693 5.5856170654296875 -1.997759222984314 2994813 0 -1
-1.9838768243789673 8.399210929870605 1.2699862718582153 2588302 0 -1
-1.7230687141418457 8.475565910339355 1.1363035440444946 2588302 0 -1
-6.066120624542236 5.8423285484313965 -2.2726070880889893 2199437 0 -1
-6.288143157958984 5.790890693664551 -1.7378759384155273 2139270 0 -1
-6.447927474975586 5.6706390380859375 -1.5373517274856567 2271109 0 -1
-6.45671272277832 5.678365230560303 -1.4705103635787964 2468738 0 -1
-6.20121431350708 5.972438335418701 -1.403668999671936 2468738 0 -1
-6.20121431350708 5.972438335418701 -1.403668999671936 2666112 0 -1
-6.297938823699951 5.799911975860596 -1.671034574508667 2994813 0 -1
-6.178318023681641 5.5611348152160645 -2.7507224082946777 2588302 0 -1
-6.569314479827881 5.37579870223999 -2.1469051837921143 2199437 0 -1
-6.1376495361328125 5.911218643188477 -2.012723684310913 2199437 0 -1
-6.170093536376953 5.942465305328369 -1.8114513158798218 2139270 0 -1
-6.487319469451904 5.572259426116943 -1.8785420656204224 2994813 0 -1
-6.321438789367676 5.8215532302856445 -1.677269697189331 2994813 0 -1
-6.269079208374023 5.904959678649902 -1.750845193862915 2072968 0 -1
-6.528450965881348 5.474591255187988 -2.154886245727539 2994813 0 -1
-5.954929828643799 5.991426944732666 -2.4242470264434814 2994813 0 -1
-2.125938892364502 8.13434886932373 2.558927536010742 4045940 0 -1
6.4435811042785645 8.140251159667969 -2.6257688999176025 2139270 0 -1
9.348163604736328 4.4166154861450195 2.789879560470581 2139270 0 -1
9.705146789550781 3.6869423389434814 2.6257688999176025 2139270 0 -1
9.348163604736328 4.4166154861450195 2.789879560470581 2271109 0 -1
9.705146789550781 3.6869423389434814 2.6257688999176025 2271109 0 -1
6.109495162963867 8.5287446975708 -2.3045313358306885 2139270 0 -1
6.522447109222412 8.239883422851562 -2.222226619720459 2139270 0 -1
9.356179237365723 4.420402526855469 2.880664110183716 2139270 0 -1
9.73464584350586 3.698148727416992 2.6337499618530273 2139270 0 -1
9.396342277526855 4.439377784729004 2.716054677963257 2271109 0 -1
9.753782272338867 3.705418825149536 2.551445245742798 2271109 0 -1
9.335143089294434 4.410463809967041 2.9629688262939453 3257723 0 -1
9.870376586914062 3.5007073879241943 2.386835813522339 3257723 0 -1
9.38453197479248 4.433797836303711 2.8893933296203613 2994813 0 -1
9.863531112670898 3.498279333114624 2.5591769218444824 2994813 0 -1
6.1747307777404785 8.449846267700195 -2.5591769218444824 3257723 0 -1
6.469577312469482 8.173091888427734 -2.724285125732422 3257723 0 -1
9.917698860168457 3.517490863800049 2.3115146160125732 3257723 0 -1
6.16261625289917 8.433267593383789 -2.641731023788452 3651704 0 -1
9.424816131591797 4.4528303146362305 2.724285125732422 3651704 0 -1
9.882232666015625 3.5049121379852295 2.4766228199005127 3651704 0 -1
9.6774320602417 4.572181224822998 1.4904630184173584 4212104 0 -1
9.572423934936523 4.09250545501709 2.898122549057007 2994813 0 -1
9.913069725036621 3.2533113956451416 2.815319061279297 2994813 0 -1
6.155696868896484 8.423799514770508 -2.815319061279297 3257723 0 -1
6.495686054229736 8.042661666870117 -3.1465330123901367 3257723 0 -1
9.849464416503906 3.741767644882202 2.401301622390747 3257723 0 -1
9.80873966217041 4.416599750518799 1.3288465738296509 4212104 0 -1
9.375605583190918 4.4295806884765625 3.156010627746582 5424489 0 -1
9.448296546936035 4.463923931121826 2.9988834857940674 5424489 0 -1
6.367331504821777 8.541450500488281 -2.165860414505005 6343264 0 -1
9.324067115783691 4.607784748077393 3.1654882431030273 6343264 0 -1
9.497940063476562 4.487378120422363 2.9243104457855225 5424489 0 -1
9.374454498291016 4.63268518447876 3.091413974761963 6343264 0 -1
6.497273921966553 8.543509483337402 -1.921689748764038 6933851 0 -1
9.305070877075195 4.5983967781066895 3.342069149017334 6933851 0 -1
9.526291847229004 4.5007734298706055 2.933039665222168 5424489 0 -1
6.44294548034668 8.642882347106934 -1.8436249494552612 6343264 0 -1
9.402438163757324 4.646513938903809 3.100641965866089 6343264 0 -1
6.53402042388916 8.591828346252441 -1.7598237991333008 6933851 0 -1
9.402438163757324 4.646513938903809 3.100641965866089 6933851 0 -1
6.462178707122803 8.497361183166504 -2.5215163230895996 6343264 0 -1
9.533161163330078 4.504019260406494 3.0258195400238037 6343264 0 -1
5.130054950714111 9.702834129333496 -0.7586995959281921 8705099 0 -1
6.002828121185303 9.258198738098145 -0.08454935997724533 12640037 6 -1
6.084693908691406 9.198775291442871 -0.3381974399089813 13164576 6 -1
5.850943088531494 9.393295288085938 -0.08479876816272736 4505456 6 -1
5.935216903686523 9.339119911193848 -0.1695975363254547 4899181 6 -1
6.0191216468811035 9.28332805633545 -0.25439631938934326 13164576 6 -1
5.867635250091553 9.420092582702637 0.17009635269641876 2458766 6 -1
5.867635250091553 9.420092582702637 0.17009635269641876 2328718 6 -1
5.953197479248047 9.367413520812988 0.08504817634820938 2264205 6 -1
5.868324279785156 9.421199798583984 0 4045940 6 -1
5.951799392700195 9.365213394165039 -0.25514453649520874 4505456 6 -1
5.953197479248047 9.367413520812988 -0.08504817634820938 4899181 6 -1
5.950575351715088 9.363286972045898 -0.3401927053928375 8180304 6 -1
5.950575351715088 9.363286972045898 -0.3401927053928375 8705099 6 -1
6.038420677185059 9.313093185424805 0 9360965 6 -1
5.952673435211182 9.366588592529297 -0.17009635269641876 12640037 6 -1
5.951799392700195 9.365213394165039 -0.25514453649520874 13164576 6 -1
5.884842395782471 9.447717666625977 0.1705951690673828 2458766 6 -1
5.883977890014648 9.446331024169922 0.2558927536010742 2328718 6 -1
5.884842395782471 9.447717666625977 0.1705951690673828 2264205 6 -1
5.8853607177734375 9.4485502243042 0.0852975845336914 2199437 6 -1
5.885533332824707 9.448827743530273 0 4045940 6 -1
5.9680256843566895 9.390745162963867 -0.3411903381347656 4505456 6 -1
5.969253063201904 9.392677307128906 -0.2558927536010742 8705099 6 -1
6.053283214569092 9.336015701293945 0.3411903381347656 9360965 6 -1
5.901182651519775 9.47395133972168 0.2566409707069397 2458766 6 -1
5.988113880157471 9.422353744506836 0.08554699271917343 2328718 6 -1
5.90256929397583 9.476177215576172 0.08554699271917343 2264205 6 -1
5.902049541473389 9.475342750549316 0.17109398543834686 2199437 6 -1
5.902049541473389 9.475342750549316 0.17109398543834686 8705099 6 -1
5.902049541473389 9.475342750549316 0.17109398543834686 9360965 6 -1
6.0055718421936035 9.449824333190918 -0.08579640090465546 3757452 6 -1
5.9993977546691895 9.440109252929688 -0.5147783756256104 3692940 6 -1
5.919777870178223 9.503805160522461 0.08579640090465546 3302798 6 -1
6.002926349639893 9.445662498474121 -0.3431856036186218 3107982 6 -1
6.087072372436523 9.388129234313965 0.4289819896221161 2977934 6 -1
6.1728057861328125 9.331981658935547 0.4289819896221161 2458766 6 -1
6.021615028381348 9.475069046020508 -0.25813743472099304 4212104 6 -1
6.021615028381348 9.475069046020508 -0.25813743472099304 3757452 6 -1
5.934371471405029 9.527234077453613 -0.3441832363605499 3692940 6 -1
5.936463832855225 9.530592918395996 0.17209161818027496 3302798 6 -1
6.020376682281494 9.47312068939209 -0.3441832363605499 3107982 6 -1
6.109252452850342 9.422337532043457 0 2977934 6 -1
5.849568843841553 9.582240104675293 0.25813743472099304 2264205 6 -1
5.8673858642578125 9.611425399780273 -0.172590434551239 3757452 6 -1
5.850822925567627 9.584294319152832 0.8629521727561951 3562893 6 -1
6.015075206756592 9.464777946472168 -1.035542607307434 3107982 6 -1
6.019169807434082 9.471220970153809 -0.9492473602294922 2912910 6 -1
5.863766670227051 9.605497360229492 0.43147608637809753 2264205 6 -1
5.952796459197998 9.556814193725586 0.2588856518268585 2199437 6 -1
5.617302894592285 9.780011177062988 -0.6058123707771301 3107982 0 -1
5.87656307220459 9.626459121704102 0.6058123707771301 2264205 6 -1
5.878811836242676 9.630143165588379 0.519267737865448 2199437 6 -1
5.9671950340271 9.57992935180664 0.43272313475608826 2134668 6 -1
5.873967170715332 9.622206687927246 0.6923570036888123 2070922 6 -1
5.9671950340271 9.57992935180664 0.43272313475608826 2006409 6 -1
5.415765285491943 9.825211524963379 -1.5622925758361816 3562893 0 -1
5.901301383972168 9.666982650756836 0.17358806729316711 2977934 6 -1
5.893498420715332 9.65420150756836 0.6075582504272461 2264205 6 -1
5.893498420715332 9.65420150756836 0.6075582504272461 2199437 6 -1
5.893498420715332 9.65420150756836 0.6075582504272461 2070922 6 -1
5.893498420715332 9.65420150756836 0.6075582504272461 2006409 6 -1
5.8769917488098145 9.627161026000977 1.041528344154358 2072968 6 -1
5.814764976501465 9.719842910766602 -0.8704344034194946 4017546 0 -1
5.841823577880859 9.569552421569824 -1.8279122114181519 3238030 0 -1
6.081582546234131 9.569428443908691 0.6963475346565247 2718350 6 -1
5.912695407867432 9.685647964477539 0.5222606658935547 2264205 6 -1
5.827629089355469 9.74134635925293 0.4352172017097473 2070922 6 -1
6.16846227645874 9.513657569885254 0.6963475346565247 2006409 6 -1
5.889515399932861 9.647676467895508 1.131564736366272 2072968 6 -1
6.342221736907959 9.398714065551758 -0.6963475346565247 8705099 6 -1
6.339043617248535 9.394004821777344 -0.783390998840332 9360965 6 -1
5.906391143798828 9.675320625305176 -1.1348069906234741 4017546 6 -1
5.81953239440918 9.727811813354492 -1.1348069906234741 3887499 0 -1
6.0118794441223145 9.651667594909668 0.6983428001403809 2458766 6 -1
5.891135215759277 9.65032958984375 1.3966856002807617 2199437 0 -1
5.83142614364624 9.74769401550293 0.8729285001754761 2070155 6 -1
5.927369117736816 9.709685325622559 0.6110499501228333 2070922 6 -1
6.360394477844238 9.425643920898438 -0.6983428001403809 4045940 6 -1
6.186136722564697 9.54091739654541 -0.6983428001403809 4505456 6 -1
6.357207298278809 9.420921325683594 -0.7856356501579285 8180304 6 -1
6.353643417358398 9.415639877319336 -0.8729285001754761 9360965 6 -1
6.12147855758667 9.63220500946045 0.5252535343170166 2458766 6 -1
6.1972270011901855 9.558021545410156 0.8754225969314575 2199437 6 -1
5.764033794403076 9.832747459411621 0.7878803014755249 2070155 6 -1
6.214770317077637 9.585078239440918 -0.17508451640605927 2070155 6 -1
6.291189193725586 9.510952949523926 -0.7003380656242371 4045940 6 -1
6.2038116455078125 9.56817626953125 -0.7003380656242371 4505456 6 -1
6.2038116455078125 9.56817626953125 -0.7003380656242371 4899181 6 -1
6.288036823272705 9.506187438964844 -0.7878803014755249 9360965 6 -1
6.208928108215332 9.576067924499512 -0.5252535343170166 10672695 6 -1
6.142529487609863 9.665328979492188 0.35116666555404663 2458766 6 -1
6.0799407958984375 9.566844940185547 -1.668041706085205 2134668 0 -1
6.3059515953063965 9.533269882202148 -0.7901250123977661 4045940 6 -1
6.226617336273193 9.603350639343262 -0.5267499685287476 4505456 6 -1
6.2214860916137695 9.595436096191406 -0.7023333311080933 4899181 6 -1
6.309113025665283 9.538049697875977 -0.7023333311080933 5424489 6 -1
6.2214860916137695 9.595436096191406 -0.7023333311080933 9360965 6 -1
6.228631973266602 9.606457710266113 -0.4389583170413971 10016830 6 -1
6.230279922485352 9.608999252319336 -0.35116666555404663 10672695 6 -1
5.360405921936035 10.138513565063477 -0.7043285965919495 2264205 0 -1
5.912154197692871 9.491565704345703 -2.6412322521209717 2264205 0 -1
5.952246189117432 9.750436782836914 1.2325750589370728 2199437 6 -1
5.802346229553223 9.898103713989258 0.6162875294685364 2134668 6 -1
6.132223606109619 9.649112701416016 -1.1445339918136597 3257723 6 -1
6.159979820251465 9.692787170410156 -0.35216429829597473 3651704 6 -1
6.066089153289795 9.73869800567627 -0.6162875294685364 4505456 6 -1
6.162151336669922 9.69620418548584 -0.17608214914798737 4899181 6 -1
6.316400527954102 9.549066543579102 -0.9684517979621887 5424489 6 -1
6.125611305236816 9.4475679397583 -2.2890679836273193 6343264 0 -1
5.986102104187012 9.805895805358887 0.8829048275947571 2199437 6 -1
5.207761764526367 10.27509593963623 -0.2648714482784271 2134668 0 -1
5.824434280395508 9.935782432556152 0.35316193103790283 2134668 6 -1
5.97831916809082 9.793147087097168 -1.0594857931137085 3257723 6 -1
6.083273887634277 9.766286849975586 -0.6180333495140076 3651704 6 -1
6.056889057159424 9.72392749786377 -1.2360666990280151 4505456 6 -1
6.09470796585083 9.784643173217773 -0.7968590259552002 3651704 6 -1
6.09470796585083 9.784643173217773 -0.7968590259552002 11197490 6 -1
6.102792739868164 9.797622680664062 -0.5312393307685852 11918891 6 -1
5.439910411834717 10.076057434082031 -1.7757859230041504 11197490 0 -1
6.119983673095703 9.825221061706543 -0.5327357649803162 11197490 6 -1
5.546065807342529 10.061599731445312 -1.5094181299209595 11918891 0 -1
6.2123308181762695 9.775161743164062 -0.35515719652175903 11918891 6 -1
5.998837947845459 10.027535438537598 -0.08953752368688583 4456788 6 -1
6.104794502258301 10.000327110290527 -0.17957386374473572 4456788 6 -1
6.015547752380371 10.05546760559082 -0.08978693187236786 4456788 6 -1
6.031726360321045 10.082510948181152 -0.18007268011569977 4456788 6 -1
6.032434940338135 10.083695411682129 0 4456788 6 -1
6.030840873718262 10.08103084564209 0.27010902762413025 4456788 6 -1
6.124814510345459 10.033123016357422 -0.8125717043876648 4456788 6 -1
6.0463032722473145 10.106877326965332 0.36114299297332764 4456788 6 -1
