VERSION .7
FIELDS x y z rgb label object
SIZE 4 4 4 4 4 4
TYPE F F F I I I
COUNT 1 1 1 1 1 1
WIDTH 586
HEIGHT 1
POINTS 586
VIEWPOINT 0 0 0 1 0 0 0
DATA ascii
-0.6430097222328186 0.22805501520633698 0.04190056771039963 3107982 0 -1
-1.5542421340942383 2.1269116401672363 -0.42948082089424133 4456788 0 -1
-1.5690186023712158 2.147132635116577 -0.47612014412879944 4456788 0 -1
-1.8161888122558594 2.0307559967041016 -0.23045311868190765 5949540 7 -1
-1.7139809131622314 2.2537777423858643 -0.04339701682329178 4456788 7 -1
-1.713376760482788 2.252983570098877 -0.08679403364658356 4456788 7 -1
-1.7356767654418945 2.237112045288086 -0.04339701682329178 4456788 7 -1
-1.7356767654418945 2.237112045288086 -0.04339701682329178 4456788 7 -1
-1.6906940937042236 2.267979621887207 0.13019104301929474 4147337 7 -1
-1.690047264099121 2.2671122550964355 0.15188956260681152 4017546 7 -1
-1.7975893020629883 2.1812078952789307 -0.17358806729316711 2718350 7 -1
-1.639843463897705 2.244053363800049 -0.5424627065658569 2718350 0 -1
-1.795681357383728 2.1788928508758545 -0.2169850766658783 2588302 7 -1
-1.7856312990188599 2.1666979789733887 -0.3688746392726898 2523534 7 -1
-1.733885407447815 2.2799510955810547 0 4456788 7 -1
-1.755627155303955 2.2628259658813477 0.04389583319425583 4456788 7 -1
-1.755627155303955 2.2628259658813477 0.04389583319425583 4456788 7 -1
-1.7330708503723145 2.2788798809051514 0.08779166638851166 4456788 7 -1
-1.7326123714447021 2.2782771587371826 0.10973957926034927 4456788 7 -1
-1.710127353668213 2.294048547744751 0.1316874921321869 4456788 7 -1
-1.6649047136306763 2.324176788330078 0.17558333277702332 3107982 7 -1
-1.6676008701324463 2.3279404640197754 0.06584374606609344 2977934 7 -1
-1.6459004878997803 2.3438472747802734 0.04389583319425583 2199437 7 -1
-1.7295606136322021 2.320117235183716 0.13318394124507904 4456788 7 -1
-1.7301201820373535 2.3208677768707275 0.1109866201877594 4456788 7 -1
-1.7295606136322021 2.320117235183716 0.13318394124507904 4456788 7 -1
-1.7288990020751953 2.3192296028137207 0.15538127720355988 4456788 7 -1
-1.7067335844039917 2.335589647293091 0.15538127720355988 4456788 7 -1
-1.6670693159103394 2.3271985054016113 0.4439464807510376 2199437 7 -1
-1.653179407119751 2.3078083992004395 0.5771304368972778 2134668 7 -1
-1.6354979276657104 2.283125400543213 0.7103143930435181 2070155 7 -1
-1.7948949337005615 2.3134384155273438 0.08978693187236786 4456788 7 -1
-1.7041478157043457 2.3789594173431396 0.1346803903579712 4456788 7 -1
-1.7271294593811035 2.3635003566741943 0.11223366111516953 4456788 7 -1
-1.747552514076233 2.344252586364746 0.17957386374473572 4456788 7 -1
-1.7483248710632324 2.3452885150909424 0.15712712705135345 4456788 7 -1
-1.7483248710632324 2.3452885150909424 0.15712712705135345 4456788 7 -1
-1.747552514076233 2.344252586364746 0.17957386374473572 4456788 7 -1
-1.7259104251861572 2.3618321418762207 0.15712712705135345 4456788 7 -1
-1.6914165019989014 2.3611867427825928 0.3815944492816925 2523534 7 -1
-1.6946461200714111 2.3656952381134033 0.33670100569725037 2458766 7 -1
-1.6946461200714111 2.3656952381134033 0.33670100569725037 2328718 7 -1
-1.6792501211166382 2.344202756881714 0.5162748694419861 2134668 7 -1
-1.67435884475708 2.337374448776245 0.5611683130264282 2070155 7 -1
-1.7904592752456665 2.3077211380004883 0.22446732223033905 2994813 7 -1
-1.5709104537963867 2.4228248596191406 0.4938281178474426 2994813 7 -1
-1.6896476745605469 2.358717441558838 0.40404120087623596 3257723 7 -1
-1.7904592752456665 2.3077211380004883 0.22446732223033905 3651704 7 -1
-1.5709104537963867 2.4228248596191406 0.4938281178474426 3651704 7 -1
-1.6505131721496582 2.304086446762085 -0.7407422065734863 4505456 0 -1
-1.7660844326019287 2.369112014770508 0.2042652666568756 4456788 7 -1
-1.7443163394927979 2.3870198726654053 0.18156912922859192 4456788 7 -1
-1.7187687158584595 2.399369955062866 0.2496575564146042 4456788 7 -1
-1.7084215879440308 2.384925365447998 0.4085305333137512 2523534 7 -1
-1.7344194650650024 2.373476505279541 0.36313825845718384 2458766 7 -1
-1.7344194650650024 2.373476505279541 0.36313825845718384 2328718 7 -1
-1.8292440176010132 2.3109052181243896 0.29504984617233276 2271109 7 -1
-1.6201989650726318 2.449399471282959 -0.38583439588546753 2271109 0 -1
-1.8996917009353638 2.2588300704956055 0.2496575564146042 2994813 7 -1
-1.806660771369934 2.3286032676696777 0.29504984617233276 2994813 7 -1
-1.6085448265075684 2.4317808151245117 0.5220112204551697 2994813 7 -1
-1.879294991493225 2.2803502082824707 0.2042652666568756 3257723 7 -1
-1.7024292945861816 2.3765604496002197 0.4766189455986023 3257723 7 -1
-1.7811126708984375 2.3420519828796387 0.34044212102890015 3651704 7 -1
-1.8810679912567139 2.282501459121704 0.15887299180030823 4045940 7 -1
-1.7084215879440308 2.384925365447998 0.4085305333137512 4045940 7 -1
-1.8052138090133667 2.3267383575439453 0.31774598360061646 4505456 7 -1
-1.68594229221344 2.400869131088257 0.4085305333137512 4505456 7 -1
-1.9050761461257935 2.2652323246002197 0.11348070204257965 4899181 7 -1
-1.788726568222046 2.3520636558532715 0.2042652666568756 4899181 7 -1
-1.588365077972412 2.4497451782226562 0.4993151128292084 4899181 7 -1
-1.806660771369934 2.3286032676696777 0.29504984617233276 7589974 7 -1
-1.6380033493041992 2.476315975189209 -0.39007434248924255 2271109 0 -1
-1.900899052619934 2.3065645694732666 0.18356439471244812 3257723 7 -1
-1.6915664672851562 2.4088780879974365 0.550693154335022 3257723 7 -1
-1.8006854057312012 2.367788791656494 0.3441832363605499 3651704 7 -1
-1.9253880977630615 2.289384365081787 0.1376732885837555 4899181 7 -1
-1.8073691129684448 2.376577615737915 0.22945548593997955 4899181 7 -1
-1.6036347150802612 2.4732956886291504 0.527747631072998 4899181 7 -1
-1.8977035284042358 2.302687168121338 0.25240105390548706 8180304 7 -1
-1.8062479496002197 2.375103235244751 0.25240105390548706 8180304 7 -1
-1.6036347150802612 2.4732956886291504 0.527747631072998 8180304 7 -1
-1.605819582939148 2.476665496826172 0.5048021078109741 10672695 7 -1
-1.683089017868042 2.396805763244629 0.7654336094856262 3432845 7 -1
-1.7055302858352661 2.3808891773223877 0.7654336094856262 3302798 7 -1
-1.9224101305007935 2.3326663970947266 0.16236470639705658 2994813 7 -1
-2.0777037143707275 2.135859966278076 0.5334840416908264 10672695 0 -1
-1.550357460975647 2.539656639099121 0.5566789507865906 10672695 7 -1
-1.704651117324829 2.42751145362854 0.7502197027206421 3432845 7 -1
-1.7165008783340454 2.3962042331695557 0.8205527663230896 3302798 7 -1
-1.7238693237304688 2.4064903259277344 0.7736640572547913 3238030 7 -1
-1.7126415967941284 2.3908166885375977 0.8439971804618835 3107982 7 -1
-1.6915611028671265 2.3613884449005127 0.9612189531326294 2523534 7 -1
-2.0843422412872314 2.235443353652954 0.1406661868095398 4045940 7 -1
-1.9362043142318726 2.3494043350219727 0.30477675795555115 4045940 7 -1
-1.8414173126220703 2.421348810195923 0.3282211124897003 4045940 7 -1
-1.6567339897155762 2.5046327114105225 0.5861091613769531 4045940 7 -1
-1.8412505388259888 2.3731861114501953 0.7345069646835327 3238030 7 -1
-1.7457561492919922 2.4370439052581787 0.7582007646560669 3238030 7 -1
-1.70412015914917 2.42675518989563 0.8766696453094482 2523534 7 -1
-1.7320505380630493 2.370234727859497 0.9714447259902954 2458766 7 -1
-1.8544930219650269 2.390254259109497 0.6397318840026855 4505456 7 -1
-1.7772613763809204 2.4810245037078857 0.4975692331790924 4505456 7 -1
-1.8383369445800781 2.4660351276397705 0.550693154335022 3257723 7 -1
-1.8624321222305298 2.4983575344085693 0.5080443620681763 3257723 7 -1
-1.8417752981185913 2.7843761444091797 -0.3082684576511383 3692940 0 -1
-1.8609224557876587 2.8133227825164795 -0.285322904586792 3692940 0 -1
-3.0196304321289062 2.471022605895996 0.17957386374473572 4456788 0 -1
-2.2995712757110596 3.2101597785949707 0.8350184559822083 4212104 0 -1
-1.440901756286621 5.339824199676514 0.1695975363254547 10016830 4 -1
-1.4832812547683716 5.328207492828369 0.1695975363254547 10672695 4 -1
-1.483586311340332 5.32930326461792 0.12719815969467163 12640037 4 -1
-1.5259745121002197 5.317321300506592 0.12719815969467163 13164576 4 -1
-1.4927077293395996 5.362069129943848 0 3257723 4 -1
-1.4070382118225098 5.383663654327393 0.1279463768005371 4045940 4 -1
-1.4500163793563843 5.37360143661499 0.0426487922668457 4899181 4 -1
-1.4489942789077759 5.369813919067383 0.21324396133422852 6343264 4 -1
-1.4493776559829712 5.371234893798828 0.1705951690673828 6933851 4 -1
-1.4920064210891724 5.3595499992370605 0.1705951690673828 10016830 4 -1
-1.4916118383407593 5.358132362365723 0.21324396133422852 10672695 4 -1
-1.492313265800476 5.360651969909668 0.1279463768005371 12640037 4 -1
-1.5346351861953735 5.347499847412109 0.1705951690673828 13164576 4 -1
-1.5406585931777954 5.368488788604736 -0.38608381152153015 2523534 4 -1
-1.1988908052444458 5.457860946655273 0.3431856036186218 2523534 4 -1
-1.5013929605484009 5.393267631530762 -0.04289820045232773 2134668 4 -1
-1.5012606382369995 5.392792701721191 0.08579640090465546 2994813 4 -1
-1.5007315874099731 5.390892505645752 0.1715928018093109 3257723 4 -1
-1.5007315874099731 5.390892505645752 0.1715928018093109 3651704 4 -1
-1.4569965600967407 5.399469375610352 0.2573891878128052 4045940 4 -1
-1.4569965600967407 5.399469375610352 0.2573891878128052 4505456 4 -1
-1.4578535556793213 5.402645587921143 0.1715928018093109 6933851 4 -1
-1.5012606382369995 5.392792701721191 0.08579640090465546 10016830 4 -1
-1.4578535556793213 5.402645587921143 0.1715928018093109 10672695 4 -1
-1.5442898273468018 5.381141662597656 0.04289820045232773 11197490 4 -1
-1.5012606382369995 5.392792701721191 0.08579640090465546 12640037 4 -1
-1.5415961742401123 5.371755599975586 -0.690361738204956 4212104 4 -1
-1.544350504875183 5.38135290145874 -0.6040664911270142 4147337 4 -1
-1.5467336177825928 5.389657020568848 -0.517771303653717 3562893 4 -1
-1.5467336177825928 5.389657020568848 -0.517771303653717 3238030 4 -1
-1.5467336177825928 5.389657020568848 -0.517771303653717 3107982 4 -1
-1.5477864742279053 5.3933258056640625 -0.4746236801147461 2977934 4 -1
-1.251133680343628 5.489634990692139 0.0862952172756195 2264205 4 -1
-1.509456753730774 5.422234535217285 0.172590434551239 2134668 4 -1
-1.5531314611434937 5.411951065063477 0.0862952172756195 2139270 4 -1
-1.5065710544586182 5.411868572235107 0.3883284628391266 3257723 4 -1
-1.5090575218200684 5.420800685882568 0.21573804318904877 3651704 4 -1
-1.4585533142089844 5.405238628387451 0.6040664911270142 4505456 4 -1
-1.4617984294891357 5.417264461517334 0.4746236801147461 4899181 4 -1
-1.4188042879104614 5.428683280944824 0.4746236801147461 5424489 4 -1
-1.509456753730774 5.422234535217285 0.172590434551239 5949540 4 -1
-1.4218214750289917 5.440227508544922 0.3020332455635071 6343264 4 -1
-1.5065710544586182 5.411868572235107 0.3883284628391266 6933851 4 -1
-1.507326364517212 5.414581775665283 0.345180869102478 9360965 4 -1
-1.553268313407898 5.4124274253845215 0.04314760863780975 10016830 4 -1
-1.551077961921692 5.404795169830322 0.3020332455635071 11197490 4 -1
-1.5519390106201172 5.4077959060668945 -0.6509552597999573 4212104 4 -1
-1.5556743144989014 5.420811176300049 -0.520764172077179 3238030 4 -1
-1.556733250617981 5.424501419067383 -0.47736719250679016 3107982 4 -1
-1.5576995611190796 5.427868366241455 -0.4339701533317566 2977934 4 -1
-1.561145544052124 5.439876079559326 -0.2169850766658783 2458766 4 -1
-1.5181820392608643 5.453577041625977 0.17358806729316711 2006409 4 -1
-1.2567018270492554 5.514066696166992 0.30377912521362305 2006409 4 -1
-1.2490196228027344 5.480359077453613 0.6943522691726685 2139270 4 -1
-1.5600436925888062 5.436036586761475 0.30377912521362305 3651704 4 -1
-1.426034688949585 5.456348896026611 0.520764172077179 4045940 4 -1
-1.471160650253296 5.45196008682251 0.4339701533317566 4505456 4 -1
-1.471160650253296 5.45196008682251 0.4339701533317566 4899181 4 -1
-1.4702481031417847 5.448577880859375 0.47736719250679016 5424489 4 -1
-1.5188510417938232 5.45598030090332 0.04339701682329178 5949540 4 -1
-1.514430046081543 5.440099716186523 0.4339701533317566 6343264 4 -1
-1.5576995611190796 5.427868366241455 0.4339701533317566 8180304 4 -1
-1.5160391330718994 5.445879936218262 0.34717613458633423 8705099 4 -1
-1.556733250617981 5.424501419067383 0.47736719250679016 9360965 4 -1
-1.5606406927108765 5.438117027282715 0.2603820860385895 10672695 4 -1
-1.5160391330718994 5.445879936218262 0.34717613458633423 12640037 4 -1
-1.563456416130066 5.447928428649902 -0.5674034953117371 3887499 4 -1
-1.5656800270080566 5.455676555633545 -0.48011067509651184 3238030 4 -1
-1.5666518211364746 5.4590630531311035 -0.43646425008773804 3107982 4 -1
-1.5696098804473877 5.469370365142822 -0.2618785500526428 2588302 4 -1
-1.570117712020874 5.471139907836914 -0.21823212504386902 2523534 4 -1
-1.570533037185669 5.472587585449219 -0.17458570003509521 2458766 4 -1
-1.5708560943603516 5.473712921142578 -0.1309392750263214 2006409 4 -1
-1.5696098804473877 5.469370365142822 0.2618785500526428 3651704 4 -1
-1.3510915040969849 5.525167465209961 0.3055249750614166 3651704 4 -1
-1.481842279434204 5.491544723510742 0.3055249750614166 4045940 4 -1
-1.5247520208358765 5.47717809677124 0.34917140007019043 4505456 4 -1
-1.479615569114685 5.483293056488037 0.43646425008773804 4899181 4 -1
-1.476597785949707 5.472109317779541 0.5674034953117371 5424489 4 -1
-1.395208716392517 5.51643705368042 0.2618785500526428 7589974 4 -1
-1.5683163404464722 5.464863300323486 0.34917140007019043 8180304 4 -1
2.960891008377075 4.850266456604004 0.39281782507896423 8180304 5 -1
-1.5656800270080566 5.455676555633545 0.48011067509651184 8705099 4 -1
-1.6101698875427246 5.446385860443115 0.43646425008773804 11197490 4 -1
-1.6460524797439575 5.408243179321289 0.6983428001403809 12640037 4 -1
-1.6515380144119263 5.426266670227051 0.5237571001052856 13164576 4 -1
-1.5756040811538696 5.490257740020752 -0.4389583170413971 3692940 4 -1
-1.272642731666565 5.584011077880859 0.1316874921321869 3302798 4 -1
-1.2711466550827026 5.577446937561035 0.3072708249092102 2782862 4 -1
-1.2720445394515991 5.581386089324951 0.21947915852069855 2328718 4 -1
-1.5779752731323242 5.4985198974609375 -0.3072708249092102 2006409 4 -1
-1.3588119745254517 5.556739807128906 0.3072708249092102 3257723 4 -1
-1.5790897607803345 5.502403736114502 0.21947915852069855 3651704 4 -1
-1.3582117557525635 5.554285049438477 0.35116666555404663 3651704 4 -1
-1.3996682167053223 5.534069061279297 0.4828541576862335 4045940 4 -1
-1.5347295999526978 5.51301908493042 0.2633749842643738 4505456 4 -1
-1.4889051914215088 5.517719268798828 0.39506250619888306 4899181 4 -1
-1.4896516799926758 5.5204854011535645 0.35116666555404663 5949540 4 -1
-1.3168363571166992 5.575137138366699 -0.04389583319425583 5949540 4 -1
-1.5764878988265991 5.493337154388428 0.39506250619888306 6933851 4 -1
-1.5746266841888428 5.486851692199707 0.4828541576862335 7589974 4 -1
2.9778103828430176 4.877982139587402 0.39506250619888306 7589974 5 -1
-1.5341426134109497 5.510910511016846 0.3072708249092102 8180304 4 -1
3.0244524478912354 4.855555057525635 0.3072708249092102 8180304 5 -1
-1.6676008701324463 5.4790425300598145 0.1316874921321869 12640037 4 -1
-1.2792720794677734 5.613098621368408 0.22072620689868927 3302798 4 -1
-1.2357401847839355 5.625614643096924 0.13243572413921356 2718350 4 -1
-1.323734998703003 5.604344844818115 0.17658096551895142 2134668 4 -1
-1.5875482559204102 5.531877517700195 -0.2648714482784271 2006409 4 -1
-1.3652445077896118 5.583044528961182 0.3973071575164795 4505456 4 -1
-1.4540534019470215 5.563554763793945 0.35316193103790283 4899181 4 -1
-1.5756880044937134 5.4905500411987305 0.7504690885543823 6933851 4 -1
-1.5854451656341553 5.52454948425293 0.3973071575164795 7589974 4 -1
-1.6294853687286377 5.511720180511475 0.3973071575164795 11918891 4 -1
3.0868992805480957 4.857265472412109 0.2648714482784271 11918891 5 -1
-1.676730990409851 5.509040355682373 0.17658096551895142 12640037 4 -1
-1.1467186212539673 5.422852039337158 1.6869966983795166 4456788 0 -1
-1.2855916023254395 5.64082670211792 0.31076255440711975 3302798 4 -1
-1.6867985725402832 5.542118072509766 -0.08878929913043976 2718350 4 -1
-1.2864996194839478 5.644811153411865 0.2219732403755188 2718350 4 -1
-1.2828634977340698 5.628857135772705 0.48834115266799927 2271109 4 -1
-1.372957706451416 5.614587306976318 0.3995518386363983 2666112 4 -1
-1.3742530345916748 5.619884490966797 0.31076255440711975 4505456 4 -1
-1.4155734777450562 5.596956253051758 0.48834115266799927 4899181 4 -1
3.104339361190796 4.884707927703857 0.2663678824901581 11918891 5 -1
-1.6786062717437744 5.515201568603516 0.5771304368972778 12640037 4 -1
-1.6229671239852905 5.332394599914551 1.6964741945266724 4456788 0 -1
-1.3598531484603882 5.376646518707275 1.7857623100280762 4456788 0 -1
-1.5261558294296265 5.482220649719238 1.2500336170196533 4456788 4 -1
-1.2447381019592285 5.666577339172363 0.5357286930084229 2271109 4 -1
-1.4235261678695679 5.628399848937988 0.49108463525772095 4899181 4 -1
2.990800619125366 4.999361515045166 0.08928811550140381 10672695 5 -1
2.991151809692383 4.999948978424072 0 11197490 5 -1
2.9910640716552734 4.999802112579346 0.044644057750701904 11918891 5 -1
-1.6836764812469482 5.5318603515625 0.7143049240112305 12640037 4 -1
-1.6904373168945312 5.554073810577393 0.49108463525772095 13164576 4 -1
-4.464649200439453 3.5635321140289307 -1.3019105195999146 2271109 0 -1
-4.213151931762695 3.7922792434692383 -1.4814844131469727 2271109 0 -1
-4.404465198516846 3.604260206222534 -1.3916974067687988 2468738 0 -1
-4.221731662750244 3.800001859664917 -1.4365909099578857 2468738 0 -1
-1.5261986255645752 5.6559247970581055 0.08978693187236786 2468738 4 -1
-1.4621790647506714 5.5946455001831055 0.9427627921104431 7589974 4 -1
3.0077738761901855 5.02773380279541 0.04489346593618393 10672695 5 -1
3.0077738761901855 5.02773380279541 0.04489346593618393 11197490 5 -1
3.0075089931488037 5.0272908210754395 0.08978693187236786 11918891 5 -1
-0.4475824236869812 5.824089527130127 0.7674288749694824 2070922 0 -1
-4.3850836753845215 3.677218437194824 -1.3994290828704834 2006409 0 -1
-4.428934574127197 3.624283790588379 -1.3994290828704834 2468738 0 -1
-1.3987716436386108 5.720150947570801 -0.18057149648666382 2666112 4 -1
-4.416621685028076 3.703665256500244 -1.2188576459884644 3257723 0 -1
-4.3929243087768555 3.7732865810394287 -1.083428978919983 4045940 0 -1
-1.5348126888275146 5.687847137451172 0.045142874121665955 6933851 4 -1
-1.4643081426620483 5.602791786193848 1.083428978919983 7589974 4 -1
-1.5185047388076782 5.627411842346191 0.8577145934104919 8180304 4 -1
2.9772422313690186 5.0788164138793945 0.22571437060832977 8180304 5 -1
2.9762792587280273 5.077173709869385 0.2708572447299957 8705099 5 -1
3.0223519802093506 5.052102088928223 0.22571437060832977 9360965 5 -1
2.9790797233581543 5.081951141357422 0.09028574824333191 10016830 5 -1
3.0244836807250977 5.055665493011475 0.045142874121665955 10672695 5 -1
-1.7669697999954224 5.642679214477539 -0.36313825845718384 2070155 0 -1
-1.406788945198059 5.752936840057373 0.13617683947086334 2070155 4 -1
-3.4326553344726562 4.791924476623535 -0.5900996923446655 2070922 0 -1
-1.5417057275772095 5.71339225769043 -0.2723536789417267 2070922 4 -1
-0.4485609233379364 5.836822032928467 0.9078456163406372 2070922 0 -1
-1.4963613748550415 5.725435256958008 -0.2723536789417267 2072968 4 -1
-1.451017141342163 5.737094879150391 -0.2723536789417267 2271109 4 -1
-4.441022872924805 3.7241275310516357 -1.2255916595458984 3257723 0 -1
-4.417194843292236 3.794133424758911 -1.0894147157669067 4045940 0 -1
-4.441022872924805 3.7241275310516357 -1.2255916595458984 4505456 0 -1
2.9936909675598145 5.106876373291016 0.2269614040851593 8180304 5 -1
3.0390501022338867 5.080014228820801 0.2269614040851593 8705099 5 -1
3.039854049682617 5.081358432769775 0.18156912922859192 9360965 5 -1
2.9955387115478516 5.110028266906738 0.09078456461429596 10016830 5 -1
3.0411934852600098 5.083597660064697 0.04539228230714798 10672695 5 -1
-1.412855625152588 5.777746200561523 -0.31949183344841003 2271109 4 -1
-1.412855625152588 5.777746200561523 -0.31949183344841003 2468738 4 -1
-4.441464900970459 3.8149802684783936 -1.0954005718231201 4045940 0 -1
-4.465424060821533 3.7445898056030273 -1.2323256731033325 4505456 0 -1
3.0109362602233887 5.136294364929199 0.18256676197052002 7589974 5 -1
3.055748224258423 5.107926368713379 0.22820845246315002 8180304 5 -1
3.103543758392334 5.083947658538818 0.045641690492630005 8705099 5 -1
3.057185173034668 5.110328674316406 0.13692507147789001 9360965 5 -1
3.057903528213501 5.111529350280762 -0.045641690492630005 10016830 5 -1
3.012263059616089 5.1385579109191895 0.045641690492630005 10672695 5 -1
-1.5033433437347412 5.75214958190918 -0.36513352394104004 11197490 4 -1
3.103543758392334 5.083947658538818 0.045641690492630005 11197490 5 -1
-1.490702748298645 5.703783988952637 1.055495262145996 4456788 4 -1
-4.497117042541504 3.7711668014526367 -1.1931685209274292 4505456 0 -1
3.0738911628723145 5.138254165649414 -0.1376732885837555 7589974 5 -1
3.061678171157837 5.117839336395264 0.550693154335022 8180304 5 -1
3.119770050048828 5.110527992248535 0.1376732885837555 9360965 5 -1
2.9424843788146973 5.229200839996338 0.5075455904006958 6343264 5 -1
3.1342368125915527 5.134225845336914 0.27684304118156433 6343264 5 -1
3.1342368125915527 5.134225845336914 0.27684304118156433 6933851 5 -1
3.089961528778076 5.165116786956787 -0.18456202745437622 7589974 5 -1
2.7546613216400146 5.3209404945373535 -0.5998265743255615 8180304 5 -1
3.1374623775482178 5.139509677886963 -0.046140506863594055 8180304 5 -1
3.1352508068084717 5.135887145996094 -0.23070253431797028 8705099 5 -1
3.136725425720215 5.138302326202393 0.13842152059078217 9360965 5 -1
3.145240068435669 5.152250289916992 -0.4638991355895996 3887499 5 -1
3.143289089202881 5.149054527282715 -0.5102890729904175 3692940 5 -1
2.9121646881103516 5.283211708068848 0.5102890729904175 6343264 5 -1
3.145240068435669 5.152250289916992 0.4638991355895996 6343264 5 -1
2.9658150672912598 5.270663261413574 0.2783394753932953 6933851 5 -1
3.1077592372894287 5.194867134094238 0.09277983009815216 6933851 5 -1
2.921191453933716 5.299587726593018 0.18555966019630432 7589974 5 -1
3.106663942337036 5.1930365562438965 -0.18555966019630432 7589974 5 -1
2.827707290649414 5.348242282867432 -0.2319495677947998 8180304 5 -1
3.1470041275024414 5.155140399932861 0.4175092279911041 8180304 5 -1
2.9217922687530518 5.30067777633667 0.13916973769664764 12640037 5 -1
2.8748233318328857 5.324882984161377 0.18555966019630432 13164576 5 -1
3.1601884365081787 5.1767377853393555 -0.5130325555801392 3887499 5 -1
3.15803861618042 5.173215866088867 -0.5596718788146973 3692940 5 -1
3.163923501968384 5.18285608291626 -0.41975390911102295 3432845 5 -1
3.118957996368408 5.213587284088135 -0.37311458587646484 2912910 5 -1
2.888580322265625 5.350364685058594 0.27983593940734863 5949540 5 -1
3.069145441055298 5.235592365264893 0.46639323234558105 5949540 5 -1
2.9312820434570312 5.317893981933594 0.41975390911102295 6343264 5 -1
2.937932252883911 5.329958438873291 0.09327864646911621 12640037 5 -1
2.9375009536743164 5.32917594909668 0.13991796970367432 13164576 5 -1
3.180842876434326 5.210572242736816 -0.4219985902309418 4017546 5 -1
3.1303658485412598 5.232656002044678 -0.5157760381698608 3562893 5 -1
3.138223171234131 5.245790004730225 -0.2813323736190796 3432845 5 -1
3.1392385959625244 5.247487545013428 -0.23444364964962006 2912910 5 -1
2.945305347442627 5.343334674835205 0.4688872992992401 4045940 5 -1
2.898554563522339 5.368838787078857 0.4688872992992401 4505456 5 -1
2.9518213272094727 5.355155944824219 0.23444364964962006 7589974 5 -1
2.9536430835723877 5.358460903167725 0.09377746284008026 12640037 5 -1
2.953209400177002 5.3576741218566895 0.1406661868095398 13164576 5 -1
3.004060745239258 5.338630676269531 -0.5656576752662659 4456788 5 -1
3.157884359359741 5.278655529022217 -0.09427627921104431 4147337 5 -1
3.1977622509002686 5.238287925720215 -0.4242432415485382 4017546 5 -1
3.042560338973999 5.085882186889648 -1.6498348712921143 3562893 0 -1
3.147016763687134 5.260489463806152 -0.5185195207595825 3432845 5 -1
3.1581625938415527 5.279120445251465 -0.047138139605522156 3302798 5 -1
3.1574206352233887 5.277880668640137 -0.14141441881656647 2912910 5 -1
2.964118003845215 5.377464294433594 0.37710511684417725 3651704 5 -1
2.9609718322753906 5.371756553649902 0.47138139605522156 4045940 5 -1
2.9683074951171875 5.385065078735352 0.18855255842208862 6933851 5 -1
2.9683074951171875 5.385065078735352 0.18855255842208862 7589974 5 -1
2.8753421306610107 5.438337326049805 0.047138139605522156 10016830 5 -1
3.0638890266418457 5.334387302398682 -0.047138139605522156 10016830 5 -1
2.967522382736206 5.383640766143799 0.23569069802761078 10672695 5 -1
2.4221270084381104 5.575545787811279 -1.1373010873794556 4456788 0 -1
3.540031909942627 4.94182014465332 -1.1373010873794556 4456788 0 -1
3.151014804840088 5.267172336578369 -0.7582007646560669 4212104 5 -1
3.174872398376465 5.307052135467529 0.04738754779100418 4147337 5 -1
3.173474073410034 5.304714679718018 0.18955019116401672 4017546 5 -1
3.0653269290924072 5.12393856048584 -1.611176609992981 3562893 0 -1
3.168994903564453 5.297227382659912 -0.37910038232803345 3432845 5 -1
3.2219748497009277 5.277950286865234 -0.09477509558200836 3302798 5 -1
2.925581455230713 5.4188995361328125 0.5686505436897278 3257723 5 -1
2.9783079624176025 5.403207778930664 0.42648792266845703 3651704 5 -1
2.9783079624176025 5.403207778930664 0.42648792266845703 4045940 5 -1
2.9822587966918945 5.410375118255615 0.2843252718448639 6933851 5 -1
3.0313782691955566 5.387177467346191 0.18955019116401672 10016830 5 -1
3.030576467514038 5.3857526779174805 0.2369377315044403 10672695 5 -1
2.3880505561828613 5.625000476837158 -1.143286943435669 4456788 0 -1
2.944808006286621 5.454512119293213 -0.47636955976486206 4456788 5 -1
3.657524585723877 4.9063825607299805 -1.0956499576568604 4456788 0 -1
3.134795665740967 5.347583770751953 -0.47636955976486206 4212104 5 -1
3.1893327236175537 5.331223964691162 0.23818477988243103 4147337 5 -1
3.191301107406616 5.334514141082764 -0.09527391195297241 3432845 5 -1
2.9884145259857178 5.421542644500732 0.5716434717178345 3257723 5 -1
2.9904487133026123 5.425233364105225 0.5240064859390259 3651704 5 -1
2.9968080520629883 5.436769962310791 0.33345869183540344 4045940 5 -1
2.9904487133026123 5.425233364105225 0.5240064859390259 4899181 5 -1
2.9954843521118164 5.43436861038208 0.38109564781188965 5424489 5 -1
2.825418472290039 5.125837326049805 -2.0960259437561035 9360965 0 -1
2.986201763153076 5.4175286293029785 0.6192803978919983 10672695 5 -1
-3.9040229320526123 4.833783149719238 -0.670409083366394 3692940 0 -1
3.1871237754821777 5.327531814575195 0.7182954549789429 5424489 5 -1
3.063917398452759 5.445004463195801 0.1436590850353241 12640037 5 -1
3.1132636070251465 5.420351028442383 0.6257650256156921 3651704 5 -1
3.1789426803588867 5.31385612487793 1.058987021446228 4045940 0 -1
3.2419497966766357 5.310671806335449 0.8664438724517822 4505456 5 -1
3.2263896465301514 5.285182476043701 1.058987021446228 5424489 0 -1
3.1241941452026367 5.439381122589111 0.7257776856422424 3651704 5 -1
3.2621588706970215 5.343776226043701 0.8225480318069458 4505456 5 -1
3.367418050765991 5.298664569854736 0.6773925423622131 4899181 5 -1
3.0462982654571533 5.526554584503174 0.6808842420578003 3257723 5 -1
3.097132682800293 5.504032611846924 0.632249653339386 3651704 5 -1
3.2822039127349854 5.376612186431885 0.7781534194946289 5949540 5 -1
3.007944345474243 5.571455955505371 0.7821439504623413 2994813 5 -1
3.061920404434204 5.554896354675293 0.6843759417533875 3257723 5 -1
3.20200514793396 5.462234973907471 0.7821439504623413 4899181 5 -1
3.4021337032318115 5.35329008102417 0.6843759417533875 4899181 5 -1
3.247321844100952 5.428157329559326 0.8310279250144958 5949540 5 -1
-4.780685901641846 3.9121286869049072 -1.7196691036224365 2072968 0 -1
-4.753670692443848 3.9863061904907227 -1.621402382850647 2139270 0 -1
3.0748908519744873 5.578426837921143 0.7370010614395142 2994813 5 -1
3.0822913646698 5.591853141784668 0.5896008610725403 3257723 5 -1
3.3706417083740234 5.4113383293151855 0.6878676414489746 5424489 5 -1
-4.802408695220947 3.7367424964904785 -2.1234610080718994 3238030 0 -1
-4.8255791664123535 3.9488658905029297 -1.629632830619812 2070922 0 -1
-4.8255791664123535 3.9488658905029297 -1.629632830619812 2006409 0 -1
-4.844911575317383 3.964686155319214 -1.5308672189712524 2072968 0 -1
-4.854097843170166 3.972203254699707 -1.4814844131469727 2139270 0 -1
3.1792054176330566 5.535159111022949 0.8888906240463257 5424489 5 -1
3.3783819675445557 5.423764705657959 0.8395078182220459 5424489 5 -1
3.228116273880005 5.506777286529541 0.8888906240463257 5949540 5 -1
3.488741397857666 5.380707263946533 0.641976535320282 5949540 5 -1
-4.793163299560547 3.8257408142089844 -2.0845532417297363 3692940 0 -1
-4.839749336242676 3.9604616165161133 -1.687495470046997 2070922 0 -1
-4.917592525482178 3.925056219100952 -1.5385987758636475 2006409 0 -1
-4.878613471984863 3.992264986038208 -1.4889665842056274 2072968 0 -1
-4.896121978759766 4.006592750549316 -1.3897022008895874 2139270 0 -1
-4.941115856170654 4.043411731719971 -1.0919088125228882 2468738 0 -1
-4.904401779174805 4.013368129730225 -1.3400698900222778 2666112 0 -1
-4.961004734039307 3.9597060680389404 -1.2904376983642578 3651704 0 -1
-4.800574779510498 4.221872806549072 -1.0422766208648682 5949540 0 -1
3.263775587081909 5.455661296844482 1.2408055067062378 5949540 0 -1
-4.92002010345459 4.026148796081543 -1.2408055067062378 6343264 0 -1
-4.885235786437988 4.196155548095703 -0.6948511004447937 6933851 0 -1
-4.842575550079346 3.9627745151519775 -1.7957385778427124 2006409 0 -1
-4.9120869636535645 4.019657135009766 -1.446567177772522 2072968 0 -1
-4.944743633270264 4.046380519866943 -1.2470407485961914 2468738 0 -1
-4.944743633270264 4.046380519866943 -1.2470407485961914 2666112 0 -1
-4.8881707191467285 4.099094390869141 -1.2969223260879517 2994813 0 -1
-2.0226824283599854 5.950732707977295 1.695975422859192 2994813 0 -1
-4.961738109588623 4.0602874755859375 -1.3034069538116455 2139270 0 -1
-4.969467639923096 4.066612720489502 -1.2532758712768555 2468738 0 -1
-4.990775108337402 4.084049224853516 -1.1028828620910645 2666112 0 -1
-4.674251556396484 4.402762413024902 -1.2532758712768555 2666112 0 -1
-4.865889072418213 4.279313087463379 -0.9023586511611938 4899181 0 -1
-5.0156049728393555 4.104367733001709 -1.1083698272705078 2666112 0 -1
-4.8452653884887695 4.361247539520264 -0.8564675450325012 8180304 0 -1
-5.034210681915283 4.119593143463135 -0.957228422164917 8705099 0 -1
-4.915214538574219 4.022216320037842 -1.8226747512817383 2006409 0 -1
-4.644252300262451 4.6727166175842285 -0.5062985420227051 2072968 0 -1
-4.933094024658203 4.338416576385498 -0.7088179588317871 5424489 0 -1
-4.914305686950684 4.321893215179443 -0.9113373756408691 8180304 0 -1
-1.7645379304885864 6.338531017303467 0.6075582504272461 8180304 0 -1
6.083186149597168 1.8254867792129517 -1.8226747512817383 8180304 0 -1
-5.0903401374816895 4.062937259674072 -1.1138567924499512 8705099 0 -1
-4.968424320220947 4.36948823928833 -0.5596718788146973 5424489 0 -1
-1.7073525190353394 6.327260971069336 1.0684645175933838 8180304 0 -1
-5.134391784667969 4.098097801208496 -0.9667059779167175 8705099 0 -1
-3.989140033721924 5.24547004699707 -0.8140681982040405 8705099 0 -1
-0.9152774214744568 6.219863414764404 2.1369290351867676 8705099 0 -1
-0.1495780348777771 6.505272388458252 1.322860836982727 8705099 0 -1
5.90378999710083 2.385841131210327 -1.8825325965881348 8705099 0 -1
-6.313737869262695 1.255703091621399 -1.628136396408081 8705099 0 -1
-4.866531848907471 4.481697082519531 -0.8691873550415039 6343264 0 -1
-5.125040054321289 4.193920612335205 -0.8180587291717529 6933851 0 -1
-5.704829692840576 4.553401947021484 -1.6635522842407227 2782862 0 -1
-5.704829692840576 4.553401947021484 -1.6635522842407227 2782862 0 -1
-5.711602687835693 4.215993881225586 -2.4773709774017334 3887499 0 -1
-5.606439590454102 4.815630912780762 -1.3827186822891235 2782862 0 -1
-2.04422664642334 6.914579391479492 2.1316914558410645 2782862 0 -1
-5.849244594573975 4.55128288269043 -1.2674921751022339 2588302 0 -1
-5.580316066741943 4.793191909790039 -1.5555585622787476 2588302 0 -1
-5.908524990081787 4.361351490020752 -1.6131718158721924 2666112 0 -1
-5.711179256439209 4.673569679260254 -1.440332055091858 2666112 0 -1
-5.613575458526611 4.821760177612305 -1.5044299364089966 2588302 0 -1
-2.01946759223938 7.0369181632995605 1.851606011390686 2588302 0 -1
-5.75443696975708 4.592997074127197 -1.6780179738998413 2468738 0 -1
-5.744461536407471 4.700805187225342 -1.388704538345337 2666112 0 -1
-2.024050235748291 7.052886962890625 1.9176992177963257 2588302 0 -1
-5.874698162078857 4.5710883140563965 -1.4528024196624756 2468738 0 -1
-5.7853264808654785 4.734245777130127 -1.2784661054611206 2666112 0 -1
-3.3863892555236816 6.825939655303955 2.121216297149658 4456788 0 -1
5.671500205993652 6.607674598693848 -1.770298957824707 4456788 0 -1
6.0411376953125 6.210232734680176 -1.9745643138885498 4456788 0 -1
5.671500205993652 6.607674598693848 -1.770298957824707 4456788 0 -1
5.671500205993652 6.607674598693848 -1.770298957824707 4456788 0 -1
5.70114278793335 6.642210006713867 -1.7084457874298096 4456788 0 -1
6.063266277313232 6.232980728149414 -1.9817970991134644 4456788 0 -1
5.709649562835693 6.652121067047119 -1.6401079893112183 4456788 0 -1
6.040755748748779 6.209839820861816 -2.1184728145599365 4456788 0 -1
5.70114278793335 6.642210006713867 -1.7084457874298096 4456788 0 -1
6.151060581207275 6.188759803771973 -1.8451213836669922 4456788 0 -1
5.789267063140869 6.608076572418213 -1.7146810293197632 4456788 0 -1
6.193169116973877 6.23112678527832 -1.7146810293197632 4456788 0 -1
5.789267063140869 6.608076572418213 -1.7146810293197632 4456788 0 -1
6.183536052703857 6.221434593200684 -1.7832682132720947 4456788 0 -1
5.801281452178955 6.621789932250977 -1.7897528409957886 4456788 0 -1
6.1746392250061035 6.2124834060668945 -1.996262788772583 4456788 0 -1
5.2613725662231445 6.918376445770264 -2.271609306335449 4456788 0 -1
5.810318946838379 6.632105827331543 -1.7209161520004272 4456788 0 -1
6.195958614349365 6.233933448791504 -1.85858952999115 4456788 0 -1
5.693051338195801 6.632782459259033 -2.2107536792755127 4456788 0 -1
5.766009330749512 6.717783451080322 -1.872057557106018 4456788 0 -1
6.091645240783691 6.2621541023254395 -2.357405662536621 4456788 0 -1
5.792186737060547 6.6114091873168945 -2.1493992805480957 4456788 0 -1
5.8643388748168945 6.693766117095947 -1.8092066049575806 4456788 0 -1
5.873474597930908 6.704194068908691 -1.7396217584609985 4456788 0 -1
5.6776204109191895 7.029770374298096 -1.1871827840805054 4456788 0 -1
5.911746025085449 6.747878551483154 -1.606188416481018 4456788 0 -1
5.465885639190674 7.332206726074219 0.14016737043857574 4456788 0 -1
5.803097724914551 7.041520595550537 -0.630753219127655 4456788 0 -1
5.396443843841553 7.384795188903809 0 3692940 0 -1
5.390738010406494 7.376986503601074 -0.4205021262168884 2912910 0 -1
5.269404411315918 7.503904342651367 0.4219985902309418 4456788 0 -1
5.545865535736084 7.292466640472412 -0.5626647472381592 4456788 0 -1
5.407852649688721 7.400407314300537 -0.49233168363571167 2912910 0 -1
5.409922122955322 7.4032392501831055 -0.4219985902309418 2782862 0 -1
5.402755260467529 7.393432140350342 -0.6329978704452515 2328718 0 -1
-6.8320088386535645 5.729146957397461 -2.180325984954834 3651704 0 -1
5.462741374969482 7.327988624572754 -0.8439971804618835 6933851 0 -1
4.350494384765625 7.8926100730896 -1.9057276248931885 4456788 0 -1
4.81830358505249 7.735462188720703 -1.3410675525665283 4456788 0 -1
6.0962324142456055 6.676387786865234 -1.7645626068115234 4456788 0 -1
5.293532371520996 7.53826379776001 -0.07058250159025192 4456788 0 -1
6.024304389953613 6.876356601715088 -1.1293200254440308 4456788 0 -1
5.223105430603027 7.587559700012207 0 4456788 0 -1
5.911499500274658 7.029073238372803 -0.7058250308036804 4456788 0 -1
5.01135778427124 7.729047775268555 0 4456788 0 -1
5.942174434661865 6.923027992248535 -1.2704850435256958 4456788 0 -1
5.418874740600586 7.415490627288818 -0.7058250308036804 4147337 0 -1
5.427029132843018 7.426650047302246 -0.49407753348350525 2912910 0 -1
5.421914100646973 7.419650077819824 -0.6352425217628479 2782862 0 -1
5.393854141235352 7.381250858306885 -1.1293200254440308 2328718 0 -1
-6.752420902252197 5.662406921386719 -2.6821351051330566 2006409 0 -1
-6.869235515594482 5.760364055633545 -2.1174750328063965 3651704 0 -1
-0.6284744143486023 9.091669082641602 1.3410675525665283 4045940 0 -1
-0.9598730206489563 8.896231651306152 2.1880576610565186 4505456 0 -1
-6.678950786590576 6.15079402923584 -1.5528150796890259 4899181 0 -1
5.142833232879639 7.621306896209717 -0.5646600127220154 4899181 0 -1
5.712985515594482 7.217280864715576 0.3529125154018402 4899181 0 -1
5.50398063659668 7.3833088874816895 -0.21174751222133636 6933851 0 -1
4.823713779449463 7.744147777557373 -1.4874701499938965 4456788 0 -1
6.369565486907959 6.547853469848633 -1.4166382551193237 4456788 0 -1
4.635074615478516 7.90687894821167 -1.204142451286316 4456788 0 -1
5.453896999359131 7.463417053222656 -0.07083190977573395 4456788 0 -1
4.555020809173584 7.93052339553833 1.345806360244751 4456788 0 -1
4.499044895172119 7.995424270629883 -1.1333105564117432 4456788 0 -1
4.581175327301025 7.976060390472412 -0.9208148717880249 4456788 0 -1
5.028475284576416 7.755448341369629 -0.1416638195514679 4456788 0 -1
5.375476360321045 7.5040669441223145 0.49582338333129883 4456788 0 -1
5.73586893081665 7.246189594268799 -0.21249572932720184 4456788 0 -1
5.3704094886779785 7.4969940185546875 -0.6374872326850891 4147337 0 -1
5.434649467468262 7.437077522277832 -0.7791510224342346 2006409 0 -1
-6.882495880126953 5.911694526672363 -1.770797848701477 3651704 0 -1
-5.2496418952941895 7.475761413574219 -1.4166382551193237 3651704 0 -1
-0.9509588479995728 8.813613891601562 -2.6207807064056396 4045940 0 -1
-0.8830332159996033 8.8206787109375 2.6207807064056396 4505456 0 -1
3.676332712173462 8.462629318237305 -0.5666552782058716 4505456 0 -1
4.995737552642822 7.704956531524658 -1.0624786615371704 4505456 0 -1
5.08174991607666 7.682535171508789 -0.7791510224342346 4899181 0 -1
5.665887355804443 7.3027567863464355 0.1416638195514679 4899181 0 -1
5.454057216644287 7.46363639831543 0 6933851 0 -1
3.7744698524475098 8.12207317352295 -2.416764974594116 4456788 0 -1
4.805637836456299 7.872165679931641 -0.9951384663581848 4456788 0 -1
5.0858941078186035 7.099815845489502 -3.127578020095825 4456788 0 -1
5.692938804626465 7.048737049102783 -1.9902769327163696 4456788 0 -1
6.294773578643799 6.751102924346924 -0.9240571856498718 4456788 0 -1
4.744016647338867 7.771223068237305 -1.7770329713821411 4456788 0 -1
5.387594223022461 7.372684478759766 -1.6348704099655151 4212104 0 -1
5.396468162536621 7.533371448516846 -0.42648792266845703 4147337 0 -1
4.190719127655029 8.268434524536133 -0.35540661215782166 3238030 0 -1
6.246151924133301 6.840574264526367 0.4975692331790924 3238030 0 -1
5.379295349121094 7.509398460388184 -0.8529758453369141 2006409 0 -1
5.491354942321777 7.366372108459473 -1.279463768005371 2072968 0 -1
5.398169994354248 7.535747051239014 0.855968713760376 4456788 0 -1
4.850489616394043 7.9456377029418945 0 4456788 0 -1
4.720820426940918 8.05315113067627 -0.3579006791114807 4456788 0 -1
4.652572154998779 8.10036563873291 0.07158013433218002 4456788 0 -1
6.637381553649902 6.534544944763184 0.7158013582229614 4456788 0 -1
4.143840312957764 8.35273265838623 -0.5726410746574402 4456788 0 -1
4.579918384552002 8.13914680480957 0.21474041044712067 4456788 0 -1
6.1551690101623535 7.025730133056641 0.14316026866436005 4456788 0 -1
6.695067882537842 6.44807243347168 0.9305417537689209 4456788 0 -1
-4.51508092880249 7.547317981719971 3.1495261192321777 6933851 0 -1
-3.5662710666656494 8.598210334777832 -0.7873815298080444 6933851 0 -1
4.989383220672607 7.850841999053955 -0.8589616417884827 6933851 0 -1
5.137453556060791 7.76674747467041 1.0774431228637695 4456788 0 -1
4.002448558807373 8.425267219543457 -0.9337840676307678 4456788 0 -1
6.103898048400879 7.111446380615234 -0.21548862755298615 4456788 0 -1
8.466024398803711 3.8120124340057373 1.2929317951202393 4456788 0 -1
-14.250154495239258 3.3719112873077393 3.8271679878234863 2718350 0 -1
-13.770025253295898 5.231171607971191 3.479243516921997 2718350 0 -1
-14.108209609985352 3.8070898056030273 3.9431426525115967 2588302 0 -1
-13.743966102600098 5.221271991729736 3.5952184200286865 2588302 0 -1
-13.824850082397461 5.251999378204346 3.3705015182495117 2718350 0 -1
7.293696403503418 12.698698043823242 -3.951622486114502 2718350 0 -1
-13.746500015258789 5.22223424911499 3.7191741466522217 2588302 0 -1
