VERSION .7
FIELDS x y z rgb label object
SIZE 4 4 4 4 4 4
TYPE F F F I I I
COUNT 1 1 1 1 1 1
WIDTH 684
HEIGHT 1
POINTS 684
VIEWPOINT 0 0 0 1 0 0 0
DATA ascii
-1.5140060186386108 2.4306347370147705 -0.06584374606609344 4456788 0 -1
-2.1086013317108154 1.8979625701904297 -0.39506250619888306 4456788 0 -1
-1.6538294553756714 2.3087158203125 -0.37311458587646484 4456788 0 -1
-1.4903099536895752 2.4412922859191895 -0.1536354124546051 4456788 0 -1
-1.5555158853530884 2.3516123294830322 -0.5048021078109741 4456788 0 -1
-1.6520999670028687 2.3063015937805176 -0.39506250619888306 4590430 0 -1
-1.4265726804733276 2.4837357997894287 -0.021947916597127914 4590430 0 -1
-1.6955763101577759 2.274528980255127 -0.39506250619888306 4728182 0 -1
-1.470467209815979 2.458003282546997 -0.021947916597127914 4728182 0 -1
-2.161318302154541 1.7686491012573242 -0.6364895701408386 2199437 0 -1
-1.815614104270935 2.1153109073638916 -0.6584374904632568 2199437 0 -1
-1.6586922407150269 2.2698471546173096 -0.5486978888511658 2199437 0 -1
-1.5450248718261719 2.382901430130005 -0.37311458587646484 2199437 0 -1
-1.046518325805664 2.645930767059326 -0.3292187452316284 2199437 0 -1
-2.154547691345215 1.894820213317871 -0.3995518386363983 4456788 0 -1
-1.6522406339645386 2.3528761863708496 -0.35515719652175903 4456788 0 -1
-1.5914368629455566 2.4059174060821533 -0.2663678824901581 4456788 0 -1
-1.6726229190826416 2.334951162338257 -0.37735453248023987 4456788 0 -1
-1.020597219467163 2.7097156047821045 -0.08878929913043976 4456788 0 -1
-2.0946004390716553 1.9289641380310059 -0.5327357649803162 4456788 0 -1
-1.480920433998108 2.4754765033721924 -0.2663678824901581 4456788 0 -1
-0.9959429502487183 2.711251974105835 -0.2219732403755188 4456788 0 -1
-1.754809856414795 2.261772632598877 -0.4439464807510376 4456788 0 -1
-1.6367568969726562 2.377702474594116 -0.24417057633399963 4456788 0 -1
-1.1706069707870483 2.6340978145599365 -0.2885652184486389 4456788 0 -1
-2.0965774059295654 1.974804162979126 -0.31076255440711975 4456788 0 -1
-1.6869213581085205 2.3084774017333984 -0.46614381670951843 4456788 0 -1
-1.569333553314209 2.4203929901123047 -0.2663678824901581 4456788 0 -1
-2.206839084625244 1.8058996200561523 -0.5105384588241577 4456788 0 -1
-1.7455004453659058 2.2497737407684326 -0.5327357649803162 4456788 0 -1
-1.5914368629455566 2.4059174060821533 -0.2663678824901581 4456788 0 -1
-1.5914368629455566 2.4059174060821533 -0.2663678824901581 4456788 0 -1
-2.2317254543304443 1.7812877893447876 -0.48834115266799927 4456788 0 -1
-2.0998125076293945 1.9778515100479126 -0.2663678824901581 4456788 0 -1
-1.6146385669708252 2.392777681350708 -0.24417057633399963 4456788 0 -1
-1.4868277311325073 2.485351085662842 -0.06659197062253952 4456788 0 -1
-1.6367568969726562 2.377702474594116 -0.24417057633399963 4456788 0 -1
-1.7148442268371582 2.3003759384155273 -0.3995518386363983 4456788 0 -1
-1.5914368629455566 2.4059174060821533 -0.2663678824901581 4456788 0 -1
-1.4865220785140991 2.484840154647827 -0.08878929913043976 4456788 0 -1
-1.5731922388076782 2.3783352375030518 -0.5105384588241577 4456788 0 -1
-1.7129443883895874 2.2978274822235107 -0.42174917459487915 4728182 0 -1
-1.4649803638458252 2.499079942703247 0.02219732478260994 4728182 0 -1
-1.5729501247406006 2.4259707927703857 -0.47138139605522156 4456788 0 -1
-2.2479231357574463 1.8850505352020264 -0.4085305333137512 4456788 0 -1
-2.042412757873535 2.144751787185669 -0.04539228230714798 4456788 0 -1
-1.6698228120803833 2.425736904144287 -0.31774598360061646 4456788 0 -1
-1.542929768562317 2.527489423751831 -0.06808841973543167 4456788 0 -1
-1.3351354598999023 2.6342687606811523 0.2269614040851593 4456788 0 -1
-2.3832547664642334 1.5692517757415771 -0.7943649291992188 4456788 0 -1
-1.7820661067962646 2.296903133392334 -0.5674034953117371 4456788 0 -1
-1.651947259902954 2.448066473007202 -0.2269614040851593 4456788 0 -1
-2.2309064865112305 1.8707808256149292 -0.5447073578834534 4456788 0 -1
-2.0806148052215576 2.0933666229248047 -0.2496575564146042 4456788 0 -1
-1.624692440032959 2.4561927318573 -0.31774598360061646 4456788 0 -1
-1.4750759601593018 2.5681824684143066 -0.04539228230714798 4456788 0 -1
-1.8305994272232056 2.312617540359497 -0.2723536789417267 4456788 0 -1
-2.2586405277252197 1.8940378427505493 -0.527747631072998 4456788 0 -1
-2.2586405277252197 1.8940378427505493 -0.527747631072998 4456788 0 -1
-1.422456979751587 2.63474178314209 0.04589109867811203 4456788 0 -1
-2.0192084312438965 2.2113687992095947 0 4456788 0 -1
-1.559885025024414 2.5552639961242676 -0.06883664429187775 4456788 0 -1
-2.0192084312438965 2.2113687992095947 0 4456788 0 -1
-1.9024667739868164 2.308466911315918 0.1376732885837555 4456788 0 -1
-1.973317265510559 2.2524149417877197 0 4456788 0 -1
-1.75347900390625 2.3995585441589355 0.36712878942489624 4456788 0 -1
-1.8550941944122314 2.343562126159668 -0.18356439471244812 4456788 0 -1
-1.8408282995224 2.2792296409606934 -0.6195298433303833 4456788 0 -1
-1.8814797401428223 2.3295624256134033 -0.022945549339056015 4456788 0 -1
-1.9730855226516724 2.252150297164917 -0.04589109867811203 4590430 0 -1
-1.7605202198028564 2.409193992614746 0.25240105390548706 4590430 0 -1
-1.8559139966964722 2.344597816467285 0.1606188416481018 3692940 0 -1
-1.9501426219940186 2.272045612335205 0.04589109867811203 2912910 0 -1
-2.498420238494873 1.6450823545455933 0.1376732885837555 2666112 0 -1
-1.9024667739868164 2.308466911315918 0.1376732885837555 2666112 0 -1
-1.8006854057312012 2.367788791656494 0.3441832363605499 6343264 0 -1
-1.8721059560775757 2.365053176879883 0.25514453649520874 4456788 0 -1
-1.6339058876037598 2.4701216220855713 0.6262638568878174 4456788 0 -1
-1.9715135097503662 2.2969441413879395 0.02319495752453804 4456788 0 -1
-1.7725385427474976 2.425640821456909 0.37111932039260864 4456788 0 -1
-2.2513813972473145 1.979980707168579 -0.4175092279911041 4456788 0 -1
-2.0633814334869385 2.2129628658294678 -0.09277983009815216 4456788 0 -1
-1.8467493057250977 2.333019733428955 -0.5566789507865906 4456788 0 -1
-1.8782950639724731 2.3728718757629395 -0.06958486884832382 4456788 0 -1
-1.9715135097503662 2.2969441413879395 -0.02319495752453804 4590430 0 -1
-1.7796562910079956 2.4353809356689453 0.25514453649520874 4590430 0 -1
-2.528346538543701 1.7152280807495117 0.16411055624485016 4456788 0 -1
-2.131870985031128 2.1915433406829834 -0.11722182482481003 4456788 0 -1
-1.8631197214126587 2.4013731479644775 0.3516654670238495 4456788 0 -1
-1.895422339439392 2.3945090770721436 -0.18755492568016052 4456788 0 -1
-2.8947858810424805 0.9500225186347961 -0.2813323736190796 4456788 0 -1
-2.297480344772339 2.020522356033325 -0.023444365710020065 4456788 0 -1
-1.8165416717529297 2.436797857284546 0.3516654670238495 4456788 0 -1
-1.9922444820404053 2.3210971355438232 -0.0703330934047699 4456788 0 -1
-1.8243069648742676 2.4472146034240723 0.2109992951154709 4456788 0 -1
-1.8984917402267456 2.3983867168426514 0.0703330934047699 4456788 0 -1
-1.8962600231170654 2.3955671787261963 0.16411055624485016 4456788 0 -1
-1.9922444820404053 2.3210971355438232 -0.0703330934047699 4456788 0 -1
-1.895422339439392 2.3945090770721436 0.18755492568016052 4590430 0 -1
-1.992537021636963 2.3214378356933594 0.04688873142004013 4724328 0 -1
-1.9927124977111816 2.3216423988342285 0.023444365710020065 4726897 0 -1
-1.9449681043624878 2.3600385189056396 0.09377746284008026 3692940 0 -1
-2.2192893028259277 2.1374149322509766 -0.2606315016746521 4456788 0 -1
-2.06129789352417 2.3048224449157715 0.02369377389550209 4456788 0 -1
-1.5399143695831299 2.6810696125030518 -0.04738754779100418 4456788 0 -1
-2.6473848819732666 1.5835391283035278 -0.21324396133422852 4456788 0 -1
-2.80761456489563 1.2641898393630981 -0.2843252718448639 4456788 0 -1
-2.557725429534912 1.7351585626602173 0.09477509558200836 4456788 0 -1
-2.1775221824645996 2.1908681392669678 -0.14216263592243195 4456788 0 -1
-1.5393717288970947 2.6801247596740723 0.09477509558200836 4456788 0 -1
-2.013911724090576 2.3463406562805176 -0.02369377389550209 4456788 0 -1
-1.3254482746124268 2.7901062965393066 0.14216263592243195 4456788 0 -1
0.6954313516616821 2.8439042568206787 -0.9951384663581848 4456788 0 -1
-2.0130245685577393 2.3453073501586914 -0.09477509558200836 4456788 0 -1
-2.0134384632110596 2.345789670944214 -0.07108131796121597 4456788 0 -1
-1.8426809310913086 2.471862316131592 0.2369377315044403 4456788 0 -1
-2.037126064300537 2.3252487182617188 -0.07108131796121597 4456788 0 -1
-1.844733715057373 2.3304734230041504 -0.8529758453369141 4456788 0 -1
-2.130873918533325 2.237645387649536 -0.11846886575222015 4456788 0 -1
-1.8691136837005615 2.4577677249908447 0.16585642099380493 4456788 0 -1
-2.0124921798706055 2.344686985015869 -0.11846886575222015 4456788 0 -1
-1.8437144756317139 2.4732489585876465 0.21324396133422852 4590430 0 -1
-2.037604808807373 2.3257949352264404 -0.02369377389550209 4724328 0 -1
-2.106516122817993 2.2592246532440186 -0.14216263592243195 3692940 0 -1
-1.9414629936218262 2.4038307666778564 0.11846886575222015 3692940 0 -1
-2.1086838245391846 2.261549711227417 -0.02369377389550209 2666112 0 -1
-1.9645037651062012 2.3837430477142334 0.14216263592243195 2666112 0 -1
-2.4878461360931396 1.8363925218582153 0 5424489 0 -1
-2.0613582134246826 2.3048901557922363 0 5424489 0 -1
-1.891937255859375 2.438516139984131 0.18955019116401672 5424489 0 -1
-1.7538763284683228 2.497610569000244 0.4975692331790924 10016830 0 -1
-2.0588717460632324 2.350069999694824 -0.04788636416196823 4456788 0 -1
-2.0828120708465576 2.32887864112854 -0.04788636416196823 4523353 0 -1
-2.7535760402679443 1.8680235147476196 0.6225227117538452 4456788 0 -1
-2.7426297664642334 1.9152252674102783 0.5187689065933228 4456788 0 -1
-2.4792306423187256 2.129526138305664 0.8819071650505066 4456788 0 -1
3.182098865509033 1.0443140268325806 0.4928304851055145 4456788 0 -1
-2.7392470836639404 1.9128632545471191 0.5447073578834534 4456788 0 -1
-2.468275308609009 2.1201159954071045 0.9337840676307678 4456788 0 -1
-2.6455862522125244 1.9528276920318604 0.8040918707847595 4664956 0 -1
-3.052189826965332 1.0825142860412598 0.985660970211029 4536450 0 -1
-2.701090097427368 1.886217474937439 0.7781534194946289 4536450 0 -1
-2.4690070152282715 2.0704457759857178 1.0375378131866455 4536450 0 -1
-2.7614529132843018 1.8182759284973145 0.7262765169143677 3238030 0 -1
3.192138195037842 0.861396074295044 0.7262765169143677 3238030 0 -1
-2.6707823276519775 1.9182243347167969 0.8040918707847595 2134668 0 -1
-2.4245169162750244 2.0825300216674805 1.1153532266616821 2134668 0 -1
3.1404922008514404 1.1138323545455933 0.5965842604637146 2134668 0 -1
-3.231210708618164 0.6426369547843933 0.7781534194946289 2134668 0 -1
-2.987788677215576 1.1350476741790771 1.1153532266616821 10672695 0 -1
-2.6959784030914307 1.88264799118042 0.8040918707847595 10672695 0 -1
-2.449007034301758 2.0536744594573975 1.1153532266616821 10672695 0 -1
3.1668038368225098 0.9503175020217896 0.7262765169143677 10672695 0 -1
-2.7320444583892822 1.907833456993103 0.7594478130340576 4456788 0 -1
-2.4364731311798096 2.1427597999572754 1.073702096939087 4456788 0 -1
3.2385623455047607 0.8739235997200012 0.6546963453292847 4456788 0 -1
-2.918452024459839 1.7456785440444946 0.34044212102890015 4456788 0 -1
-2.916114568710327 1.744280457496643 0.366629958152771 4523353 0 -1
-2.9260571002960205 1.750227451324463 0.23569069802761078 4725613 0 -1
-3.1857247352600098 0.8596654534339905 0.8903870582580566 4536450 0 -1
-2.757577657699585 1.87073814868927 0.7594478130340576 4536450 0 -1
-2.901789903640747 1.7357120513916016 0.4975692331790924 4471684 0 -1
-2.696463108062744 1.9366687536239624 0.8118234872817993 3238030 0 -1
-2.416152000427246 2.1248881816864014 1.1522656679153442 3238030 0 -1
3.092845916748047 1.3926215171813965 0.41900569200515747 3238030 0 -1
3.2228317260742188 0.8696787357330322 0.733259916305542 3238030 0 -1
3.153285026550293 1.1979190111160278 0.5499449372291565 2458766 0 -1
-3.1316440105438232 0.939766526222229 0.9951384663581848 5949540 0 -1
-2.727062225341797 1.904354214668274 0.7856356501579285 5949540 0 -1
-2.472555160522461 2.0734212398529053 1.1260777711868286 5949540 0 -1
3.0008866786956787 1.6100786924362183 0.28806641697883606 5949540 0 -1
3.2113068103790283 0.8665687441825867 0.7856356501579285 5949540 0 -1
-2.45467209815979 2.108431577682495 1.099889874458313 10672695 0 -1
3.2113068103790283 0.8665687441825867 0.7856356501579285 10672695 0 -1
-2.729517936706543 2.1786088943481445 -0.6252661943435669 4456788 0 -1
-1.4094892740249634 3.2445335388183594 -0.27185487747192383 4456788 0 -1
-1.1412540674209595 3.357570171356201 0.10874194651842117 4456788 0 -1
-2.6440799236297607 2.3253400325775146 -0.4349677860736847 4456788 0 -1
-2.1437151432037354 2.7630321979522705 -0.5980806946754456 4456788 0 -1
-1.9503899812698364 2.9485788345336914 -0.2990403473377228 4456788 0 -1
-1.739053726196289 3.090538740158081 0.10874194651842117 4456788 0 -1
-1.275878667831421 3.3050692081451416 -0.1902984082698822 4456788 0 -1
-2.050511121749878 2.862476110458374 -0.4349677860736847 4456788 0 -1
-2.1222846508026123 2.7906718254089355 -0.5437097549438477 4456788 0 -1
-1.9009718894958496 2.9911975860595703 -0.16311292350292206 4456788 0 -1
-2.8920226097106934 2.07712459564209 -0.7821439504623413 4456788 0 -1
-2.9242427349090576 2.042048692703247 -0.7542102336883545 4456788 0 -1
-2.8484857082366943 2.2735650539398193 0.08380113542079926 4725613 0 -1
-3.3613550662994385 1.3583917617797852 -0.6200286149978638 4456788 0 -1
-2.493823528289795 2.674609422683716 -0.3945636749267578 4456788 0 -1
3.226085662841797 1.5942729711532593 -0.7609442472457886 4456788 0 -1
2.825124740600586 2.1982226371765137 -0.8454936146736145 4456788 0 -1
-2.738413095474243 2.40830135345459 0.47911304235458374 4456788 0 -1
-2.486372709274292 2.5559678077697754 0.9018598198890686 4456788 0 -1
-2.750199556350708 2.362273931503296 -0.6200286149978638 4456788 0 -1
-2.7411105632781982 2.4106736183166504 0.4509299099445343 4456788 0 -1
-2.7224197387695312 2.3942360877990723 -0.6200286149978638 4456788 0 -1
-2.7436418533325195 2.412899971008301 0.42274680733680725 4523353 0 -1
-2.757969856262207 2.4255006313323975 0.1972818374633789 4664956 0 -1
-2.6360371112823486 2.538788080215454 -0.36638057231903076 4212104 0 -1
-2.451643466949463 2.741284132003784 -0.05636623874306679 4212104 0 -1
-1.9046926498413086 2.997051954269409 0.9582260847091675 4212104 0 -1
-1.609602689743042 3.1091301441192627 1.1273248195648193 4212104 0 -1
-3.3630759716033936 1.4378182888031006 -0.6255156397819519 4456788 0 -1
-2.6064844131469727 2.6224594116210938 -0.31275781989097595 4456788 0 -1
-2.388051986694336 2.839515209197998 -0.05686505511403084 4456788 0 -1
-3.2700717449188232 1.6857850551605225 0.48335298895835876 4456788 0 -1
-2.6216955184936523 2.581076145172119 0.48335298895835876 4456788 0 -1
-2.8028957843780518 2.4075372219085693 0.3411903381347656 4456788 0 -1
-2.772529363632202 2.438304901123047 0.3696228563785553 4456788 0 -1
-2.7626469135284424 2.4296138286590576 0.48335298895835876 4456788 0 -1
-2.8008205890655518 2.405754566192627 0.3696228563785553 4523353 0 -1
-2.808119058609009 2.4120235443115234 0.2558927536010742 4725613 0 -1
-2.9215784072875977 2.27327299118042 0.2558927536010742 4664956 0 -1
-2.6308250427246094 2.53376841545105 0.6539481282234192 4664956 0 -1
-2.6160523891448975 2.5755205154418945 0.5402180552482605 4212104 0 -1
-2.9254539012908936 2.2762885093688965 0.1705951690673828 3757452 0 -1
-2.8993515968322754 2.314164400100708 0.0852975845336914 2328718 0 -1
-2.652495861053467 2.5546398162841797 0.4549204409122467 2328718 0 -1
-2.652495861053467 2.5546398162841797 0.4549204409122467 2328718 0 -1
3.6099770069122314 0.8542028665542603 -0.0852975845336914 2328718 0 -1
-2.649742603302002 2.6086885929107666 0.4302290380001068 4456788 0 -1
-3.0902745723724365 2.0964393615722656 -0.25813743472099304 4456788 0 -1
-2.954152822494507 2.298619031906128 -0.028681935742497444 4456788 0 -1
-2.678234577178955 2.5794286727905273 0.4302290380001068 4456788 0 -1
-2.673130512237549 2.5745129585266113 0.4875929057598114 4456788 0 -1
-2.460906982421875 2.6951022148132324 0.8317761421203613 4456788 0 -1
-2.8231263160705566 2.4249141216278076 0.4015471041202545 4456788 0 -1
-2.8123741149902344 2.4156785011291504 0.5162748694419861 4456788 0 -1
-2.8206937313079834 2.4228246212005615 0.4302290380001068 4523353 0 -1
-2.8311636447906494 2.4318177700042725 0.28681936860084534 4725613 0 -1
-2.9758198261260986 2.2559590339660645 0.25813743472099304 4664956 0 -1
-3.3589370250701904 1.5869569778442383 0.4589109718799591 4212104 0 -1
-2.9829213619232178 2.2613425254821777 0 4212104 0 -1
-2.644692897796631 2.603717088699341 0.4875929057598114 4212104 0 -1
-2.3960485458374023 2.7349355220794678 0.8891400098800659 4212104 0 -1
-2.98073148727417 2.2596824169158936 0.14340968430042267 3757452 0 -1
-3.011514902114868 2.2229361534118652 0.028681935742497444 2328718 0 -1
-2.678234577178955 2.5794286727905273 0.4302290380001068 2328718 0 -1
-3.6424989700317383 0.8618983030319214 -0.028681935742497444 2328718 0 -1
-2.9828338623046875 2.2612762451171875 -0.028681935742497444 2271109 0 -1
-2.9791409969329834 2.3180623054504395 -0.08679403364658356 4456788 0 -1
-2.8055989742279053 2.5253336429595947 0.08679403364658356 4456788 0 -1
-3.576939582824707 1.1738945245742798 0.2893134355545044 4456788 0 -1
-2.6963751316070557 2.59689998626709 0.4918328523635864 4456788 0 -1
-2.839799165725708 2.439235210418701 0.4918328523635864 4456788 0 -1
-2.833686590194702 2.4339847564697266 0.5496955513954163 4456788 0 -1
-2.839799165725708 2.439235210418701 0.4918328523635864 4523353 0 -1
-2.8164820671081543 2.476959228515625 0.4339701533317566 4725613 0 -1
-2.9728341102600098 2.313154935836792 0.2603820860385895 3562893 0 -1
-2.79709792137146 2.517681837081909 0.5836150646209717 4456788 0 -1
-2.880049705505371 2.415135622024536 0.6127958297729492 4456788 0 -1
-2.786229372024536 2.507899045944214 0.6711573004722595 4456788 0 -1
-2.7936480045318604 2.5145766735076904 0.6127958297729492 4523353 0 -1
-2.7876455783843994 2.6257338523864746 -0.2943015992641449 4456788 0 -1
-2.8239681720733643 2.6006548404693604 -0.11772064119577408 4456788 0 -1
3.1724228858947754 2.0254099369049072 -0.7651841640472412 4456788 0 -1
-2.6471259593963623 2.493375778198242 -1.2360666990280151 4523353 0 -1
-1.9321433305740356 3.1650640964508057 -1.000625491142273 4725613 0 -1
-2.864816665649414 2.460723876953125 0.8607075214385986 4456788 0 -1
-2.8368120193481445 2.43666934967041 -1.0091053247451782 4523353 0 -1
-2.9587035179138184 2.541367530822754 -0.20950284600257874 4456788 0 -1
-2.5414199829101562 3.341808557510376 0.0643472969532013 4456788 0 -1
-2.5614216327667236 3.3681094646453857 0 4456788 0 -1
-4.526920795440674 2.7077877521514893 -0.569149374961853 4456788 0 -1
-4.5029988288879395 2.69347882270813 0.9816704392433167 4456788 0 -1
-3.9573707580566406 3.318549394607544 1.3497968912124634 4456788 0 -1
4.825977325439453 2.173001766204834 0.6953498721122742 4456788 0 -1
-4.53231954574585 2.711016893386841 -0.7771557569503784 4456788 0 -1
-4.758028030395508 2.3513309955596924 0.5726410746574402 4725613 0 -1
-3.735291004180908 3.362154006958008 1.7997291088104248 4664956 0 -1
4.978034973144531 1.633711576461792 1.0225733518600464 4664956 0 -1
-4.163701057434082 3.0734171867370605 1.3088939189910889 4536450 0 -1
-4.528990268707275 2.800516366958618 -0.6995898485183716 4456788 0 -1
5.086389541625977 1.203555703163147 1.2345702648162842 4664956 0 -1
-4.453984260559082 2.9327216148376465 0.8694368004798889 4456788 0 -1
-4.059133052825928 3.2398629188537598 1.4904630184173584 4456788 0 -1
-3.890895128250122 3.4218533039093018 1.5318647623062134 4456788 0 -1
5.026055812835693 1.7825814485549927 0.8694368004798889 4456788 0 -1
-3.0402657985687256 4.078361511230469 -1.8216770887374878 4456788 0 -1
4.937920093536377 1.9955134391784668 0.9108385443687439 4456788 0 -1
-5.18477201461792 1.0311696529388428 1.1178473234176636 4456788 0 -1
-4.586952209472656 2.8363571166992188 0.3312140107154846 4456788 0 -1
-4.6320929527282715 2.7706966400146484 0.24841050803661346 4725613 0 -1
4.636996269226074 2.7736294269561768 0 4725613 0 -1
-5.166932106018066 1.0276215076446533 1.2006508111953735 4664956 0 -1
-3.9509894847869873 3.3131980895996094 1.6146682500839233 4536450 0 -1
5.126565456390381 1.2130622863769531 1.2006508111953735 2264205 0 -1
-4.421607494354248 2.999614715576172 0.9996278285980225 4456788 0 -1
-3.0495283603668213 4.257086277008057 1.4577906131744385 4456788 0 -1
5.027301788330078 1.9098496437072754 0.7913720607757568 4456788 0 -1
4.944886684417725 2.114091157913208 0.7913720607757568 4456788 0 -1
-4.616623401641846 2.8547046184539795 0.2915581166744232 4456788 0 -1
-4.706442832946777 2.7194149494171143 0.0416511595249176 4725613 0 -1
-4.187619686126709 3.342416286468506 0.9163255095481873 4725613 0 -1
5.074126720428467 1.9276381731033325 0.2915581166744232 4725613 0 -1
-4.141923904418945 3.22282075881958 1.4161394834518433 4664956 0 -1
4.9860944747924805 2.014981746673584 0.7913720607757568 4664956 0 -1
-5.1885786056518555 1.0319266319274902 1.2495348453521729 4664956 0 -1
-4.21316385269165 3.1099281311035156 1.4577906131744385 4536450 0 -1
-3.964655637741089 3.324658155441284 1.666046380996704 2264205 0 -1
-4.646045207977295 2.8728976249694824 0.25140342116355896 4456788 0 -1
-4.157661437988281 3.2350659370422363 1.466519832611084 4664956 0 -1
4.911500453948975 2.3204782009124756 0.6285085082054138 4664956 0 -1
5.080014705657959 1.8017189502716064 0.9218124747276306 4664956 0 -1
-4.675212383270264 2.8909332752227783 0.21074987947940826 4456788 0 -1
-4.543811321258545 2.8096811771392822 -1.4415791034698486 4456788 0 -1
-4.64749002456665 3.0601351261138916 0.1279463768005371 4456788 0 -1
-4.403475761413574 4.055258274078369 -0.18356439471244812 4456788 0 -1
-4.404381275177002 4.056092262268066 -0.1376732885837555 4523353 0 -1
-4.516988277435303 3.9724719524383545 -0.27684304118156433 4456788 0 -1
-4.515260696411133 3.9709525108337402 -0.3229835331439972 4456788 0 -1
-4.516988277435303 3.9724719524383545 -0.27684304118156433 4523353 0 -1
-4.542873859405518 3.995237112045288 -0.2319495677947998 4456788 0 -1
-4.589229583740234 3.9419021606445312 -0.2319495677947998 4456788 0 -1
-4.352451324462891 4.191880226135254 -0.37111932039260864 4456788 0 -1
-4.592466831207275 3.9446825981140137 -0.04638991504907608 4523353 0 -1
-4.591387748718262 3.943755865097046 -0.13916973769664764 4724328 0 -1
-4.327756404876709 4.168096542358398 -0.7422386407852173 4724328 0 -1
-5.797206878662109 1.7396681308746338 -0.13916973769664764 3107982 0 -1
-4.535388469696045 3.9886538982391357 0.4175092279911041 3107982 0 -1
-4.352451324462891 4.191880226135254 0.37111932039260864 3107982 0 -1
-3.9781649112701416 4.448151111602783 1.020578145980835 3107982 0 -1
-4.303990840911865 4.237307071685791 0.4175092279911041 2070922 0 -1
-4.6626996994018555 3.910020112991333 -0.13991796970367432 4456788 0 -1
-4.428654193878174 4.171429634094238 -0.18655729293823242 4456788 0 -1
-4.6626996994018555 3.910020112991333 -0.13991796970367432 4456788 0 -1
-4.428654193878174 4.171429634094238 -0.18655729293823242 4456788 0 -1
-4.6639323234558105 3.9110536575317383 0 4523353 0 -1
-4.429564952850342 4.172287464141846 -0.13991796970367432 4523353 0 -1
-4.6639323234558105 3.9110536575317383 0 4724328 0 -1
-5.825634956359863 1.7481989860534668 -0.23319661617279053 3107982 0 -1
-4.375851631164551 4.214416980743408 0.37311458587646484 3107982 0 -1
-4.004745960235596 4.477872371673584 0.9794257879257202 3107982 0 -1
5.0835371017456055 3.347249984741211 0.046639323234558105 2070922 0 -1
-4.638576507568359 3.984288215637207 -0.23444364964962006 4456788 0 -1
-4.45233678817749 4.193736553192139 -0.18755492568016052 4456788 0 -1
-4.639803409576416 3.985342264175415 -0.18755492568016052 4523353 0 -1
-4.453906536102295 4.195215225219727 -0.09377746284008026 4523353 0 -1
-0.9376531839370728 6.046239852905273 -0.9003633856773376 4657508 0 -1
-0.6153867244720459 6.147139549255371 0.2843252718448639 2468738 4 -1
-0.6153867244720459 6.147139549255371 0.2843252718448639 2666112 4 -1
-0.6153867244720459 6.147139549255371 0.2843252718448639 2994813 4 -1
-0.942588210105896 6.078062057495117 -0.9051021337509155 4657508 0 -1
-0.9436336159706116 6.084803581237793 -0.8574652075767517 4725613 0 -1
-0.9446215033531189 6.09117317199707 -0.8098282217979431 4728182 0 -1
-0.6192622184753418 6.18585205078125 0.047636955976486206 2070155 4 -1
-0.6192622184753418 6.18585205078125 0.047636955976486206 2070922 4 -1
-0.6192076802253723 6.185307502746582 0.09527391195297241 2006409 4 -1
-0.6192076802253723 6.185307502746582 0.09527391195297241 2072968 4 -1
-0.6191167831420898 6.184399127960205 0.14291086792945862 2139270 4 -1
-0.6191167831420898 6.184399127960205 0.14291086792945862 2271109 4 -1
-0.6189894676208496 6.183127403259277 0.19054782390594482 2468738 4 -1
-0.6189894676208496 6.183127403259277 0.19054782390594482 2994813 4 -1
-0.6189894676208496 6.183127403259277 0.19054782390594482 3651704 4 -1
-0.6189894676208496 6.183127403259277 0.19054782390594482 4045940 4 -1
-0.6189894676208496 6.183127403259277 0.19054782390594482 4899181 4 -1
-0.8570623397827148 6.1546454429626465 0.19054782390594482 5424489 4 -1
-0.6192076802253723 6.185307502746582 -0.09527391195297241 5424489 4 -1
-0.9529638886451721 6.144967555999756 -0.6225227117538452 4536450 4 -1
-0.9038112759590149 6.14194393157959 -0.7182954549789429 3432845 4 -1
-0.9020887613296509 6.130239009857178 -0.8140681982040405 3238030 0 -1
-0.622504472732544 6.218238830566406 -0.04788636416196823 2199437 4 -1
-0.6224496364593506 6.217691421508789 0.09577272832393646 2134668 4 -1
-0.6220656633377075 6.213856220245361 0.23943181335926056 2070155 4 -1
-0.6224496364593506 6.217691421508789 0.09577272832393646 2006409 4 -1
-0.6223582029342651 6.21677827835083 0.1436590850353241 2072968 4 -1
-0.5745688676834106 6.222298622131348 0.09577272832393646 2139270 4 -1
-0.5743663907051086 6.2201056480407715 0.19154545664787292 2271109 4 -1
-0.6220656633377075 6.213856220245361 0.23943181335926056 3651704 4 -1
-0.6699168682098389 6.208879470825195 0.23943181335926056 4899181 4 -1
-0.6223582029342651 6.21677827835083 0.1436590850353241 5424489 4 -1
-0.6220656633377075 6.213856220245361 0.23943181335926056 6933851 4 -1
-0.6220656633377075 6.213856220245361 0.23943181335926056 8180304 4 -1
-0.7179579734802246 6.20517110824585 0.19154545664787292 8705099 4 -1
-0.6222302317619324 6.2154998779296875 0.19154545664787292 10016830 4 -1
-0.5040098428726196 5.95842981338501 -1.9254308938980103 4456788 0 -1
-0.9113251566886902 6.193005561828613 -0.529493510723114 3432845 4 -1
-0.9579272866249084 6.176972389221191 -0.6257650256156921 3238030 4 -1
-0.6256915330886841 6.250074863433838 0.09627154469490051 2328718 4 -1
-0.6257650256156921 6.250809192657471 0 2264205 4 -1
-0.6256915330886841 6.250074863433838 0.09627154469490051 2199437 4 -1
-0.6256915330886841 6.250074863433838 0.09627154469490051 2134668 4 -1
-0.6255996823310852 6.249157428741455 0.14440731704235077 2070155 4 -1
-0.6254710555076599 6.247872352600098 0.19254308938980103 2006409 4 -1
-0.6255996823310852 6.249157428741455 0.14440731704235077 2072968 4 -1
-0.6255996823310852 6.249157428741455 0.14440731704235077 2139270 4 -1
-0.6254710555076599 6.247872352600098 0.19254308938980103 2271109 4 -1
-0.6254710555076599 6.247872352600098 0.19254308938980103 2468738 4 -1
-0.6731882095336914 6.239198684692383 0.28881463408470154 4899181 4 -1
-0.6254710555076599 6.247872352600098 0.19254308938980103 5424489 4 -1
-0.6256915330886841 6.250074863433838 0.09627154469490051 10016830 4 -1
-0.6288411021232605 6.28153657913208 0.14515553414821625 2328718 4 -1
-0.6289888620376587 6.283012390136719 0.04838518053293228 2264205 4 -1
-0.6288411021232605 6.28153657913208 0.14515553414821625 2199437 4 -1
-0.5806050896644592 6.287667751312256 0.04838518053293228 2134668 4 -1
-0.6287118196487427 6.280244827270508 0.19354072213172913 2070922 4 -1
-0.6287118196487427 6.280244827270508 0.19354072213172913 2006409 4 -1
-0.6287118196487427 6.280244827270508 0.19354072213172913 2072968 4 -1
-0.6287118196487427 6.280244827270508 0.19354072213172913 2139270 4 -1
-0.6287118196487427 6.280244827270508 0.19354072213172913 2271109 4 -1
-0.6287118196487427 6.280244827270508 0.19354072213172913 2468738 4 -1
-0.7240498065948486 6.257821559906006 0.43546661734580994 4045940 4 -1
-0.6761186122894287 6.266357898712158 0.38708144426345825 4505456 4 -1
-0.6287118196487427 6.280244827270508 0.19354072213172913 4899181 4 -1
-0.7733442783355713 6.260341167449951 0.2903110682964325 6343264 4 -1
-0.7244127988815308 6.260958671569824 0.38708144426345825 7589974 4 -1
-0.7740719318389893 6.266231536865234 0.09677036106586456 10672695 4 -1
-0.8223307132720947 6.259146213531494 0.14515553414821625 11197490 4 -1
-0.630744457244873 6.300549030303955 0.43771129846572876 2006409 4 -1
-0.6310606598854065 6.303707599639893 0.38907670974731445 2072968 4 -1
-0.5831865668296814 6.315623760223389 0.24317294359207153 2139270 4 -1
-0.5833408832550049 6.317294597625732 0.19453835487365723 2271109 4 -1
-0.9725775122642517 6.271441459655762 -0.09726917743682861 3257723 4 -1
-0.5825175046920776 6.308378219604492 0.38907670974731445 3257723 4 -1
-0.726922869682312 6.282652854919434 0.5349804759025574 4045940 4 -1
-0.6792632341384888 6.295502662658691 0.43771129846572876 4505456 4 -1
-0.7277820706367493 6.290078639984131 0.43771129846572876 5949540 4 -1
-0.7766900062561035 6.287425518035889 0.38907670974731445 6343264 4 -1
-0.7281469106674194 6.293231964111328 0.38907670974731445 7589974 4 -1
-0.8261809945106506 6.288452625274658 0.24317294359207153 11197490 4 -1
-0.7777878046035767 6.296311855316162 0.19453835487365723 12640037 4 -1
-0.5835978984832764 6.320078372955322 -0.04863458871841431 12640037 4 -1
-0.9283595681190491 6.308764457702637 -0.19553598761558533 2072968 4 -1
-0.9283595681190491 6.308764457702637 -0.19553598761558533 2468738 4 -1
-0.9286868572235107 6.310988903045654 0.09776799380779266 2666112 4 -1
-0.9776799082756042 6.304342746734619 0 2994813 4 -1
-0.9287686347961426 6.311544895172119 0.04888399690389633 3257723 4 -1
-0.9286868572235107 6.310988903045654 -0.09776799380779266 4045940 4 -1
-0.9283595681190491 6.308764457702637 -0.19553598761558533 5424489 4 -1
-0.9286868572235107 6.310988903045654 -0.09776799380779266 5949540 4 -1
-0.7327215671539307 6.332769870758057 0.24441997706890106 5949540 4 -1
-0.7810180187225342 6.322461128234863 0.3421879708766937 6343264 4 -1
-0.7819372415542603 6.329902648925781 0.1466519832611084 12640037 4 -1
-0.782120943069458 6.331389427185059 0.04888399690389633 13164576 4 -1
-0.9332879781723022 6.342256546020508 -0.14740021526813507 2072968 4 -1
-0.9334250688552856 6.3431878089904785 0.09826681017875671 2666112 4 -1
-0.9824084043502808 6.33483362197876 0.14740021526813507 2994813 4 -1
-0.9321908354759216 6.334800720214844 0.3439338207244873 3257723 4 -1
-0.9328492879867554 6.339275360107422 -0.24566702544689178 5949540 4 -1
-0.9330961108207703 6.340952396392822 -0.19653362035751343 6343264 4 -1
-0.7859267592430115 6.3621978759765625 0.14740021526813507 12640037 4 -1
-0.7861113548278809 6.363692760467529 0.04913340508937836 13164576 4 -1
-0.888786256313324 6.382457733154297 -0.09876562654972076 2006409 4 -1
-0.8886557221412659 6.3815202713012695 0.14814843237400055 2072968 4 -1
-0.9369227886199951 6.366957187652588 0.3456796705722809 2666112 4 -1
-0.979241132736206 6.314410209655762 0.8395078182220459 2994813 4 -1
-0.8867744207382202 6.368010520935059 0.44444531202316284 3257723 4 -1
-0.8394092321395874 6.389139175415039 0.09876562654972076 8180304 4 -1
-0.7895448803901672 6.3914875984191895 0.2469140589237213 11918891 4 -1
-0.7895448803901672 6.3914875984191895 0.2469140589237213 12640037 4 -1
-0.8010289669036865 6.097009181976318 -2.0349209308624268 4456788 0 -1
-0.33681970834732056 6.270577430725098 -1.588231086730957 4456788 0 -1
-1.5269920825958252 6.244497299194336 0.7941155433654785 4017546 0 -1
-0.14591190218925476 6.345829486846924 1.2904376983642578 4017546 0 -1
-0.642485499382019 6.4178314208984375 0.5955866575241089 2718350 4 -1
-0.2931322455406189 6.369225025177002 1.1415411233901978 2718350 0 -1
-1.0421541929244995 6.392192840576172 0.09926444292068481 2666112 4 -1
-0.7794091105461121 6.309436798095703 1.2408055067062378 2666112 0 -1
-0.7917808294296265 6.409587860107422 0.4963222146034241 2994813 4 -1
-0.8412671685218811 6.403280735015869 0.4963222146034241 3257723 4 -1
-0.8433513641357422 6.419144153594971 0.19852888584136963 8180304 4 -1
-0.7929723858833313 6.419233798980713 0.34742555022239685 11918891 4 -1
-1.891937255859375 6.216118335723877 0.39905303716659546 4212104 0 -1
-0.295006662607193 6.409952640533447 1.0973957777023315 4212104 0 -1
0.04845396429300308 6.323393821716309 1.546330451965332 4212104 0 -1
-1.9950308799743652 6.195861339569092 0.09976325929164886 4017546 0 -1
-1.5346654653549194 6.275876522064209 0.7981060743331909 4017546 0 -1
-1.223946452140808 6.2710161209106445 1.2470407485961914 4017546 0 -1
-0.44595950841903687 6.451362609863281 0.7482244372367859 4017546 4 -1
-0.14664512872695923 6.377717971801758 1.2969223260879517 4017546 0 -1
0.19133980572223663 6.239861488342285 1.8456202745437622 4017546 0 -1
-1.429479956626892 6.272170066833496 0.9976325631141663 3238030 0 -1
-0.7952660322189331 6.437800884246826 0.5486978888511658 3238030 4 -1
-0.5956024527549744 6.450081825256348 0.6484611630439758 3238030 4 -1
-1.0473911762237549 6.424314498901367 0.09976325929164886 2718350 4 -1
-1.1165541410446167 6.236404895782471 1.4964488744735718 2523534 0 -1
-1.0444345474243164 6.406179428100586 0.49881628155708313 2072968 4 -1
-1.0455442667007446 6.4129862785339355 0.39905303716659546 2139270 4 -1
-1.0467451810836792 6.420351982116699 0.24940814077854156 2468738 4 -1
-1.0470221042633057 6.422050476074219 0.19952651858329773 2666112 4 -1
-0.7952660322189331 6.437800884246826 0.5486978888511658 2994813 4 -1
-0.7913059592247009 6.405743598937988 0.847987711429596 3257723 4 -1
-0.7445030808448792 6.434595108032227 0.6484611630439758 3651704 4 -1
-0.8335254788398743 6.34435510635376 1.1971590518951416 8180304 0 -1
-0.6504778861999512 6.4976677894592285 0.40104830265045166 4456788 4 -1
-1.2319016456604004 6.311775207519531 1.203144907951355 4456788 0 -1
-1.8539769649505615 6.271060943603516 0.20052415132522583 4728182 0 -1
-1.4414132833480835 6.324530124664307 0.8522276282310486 4728182 0 -1
-0.448935329914093 6.494411945343018 0.6517034769058228 4728182 4 -1
-0.049126118421554565 6.411112308502197 1.3034069538116455 4728182 0 -1
-0.6997711658477783 6.485572814941406 0.5013103485107422 4212104 4 -1
-0.8017197251319885 6.490044593811035 0.20052415132522583 4017546 4 -1
-1.044810175895691 6.408483505249023 0.8020966053009033 3238030 4 -1
-0.9907774329185486 6.38879919052124 1.0026206970214844 2328718 0 -1
-1.0502455234527588 6.441821575164795 0.4511793255805969 2006409 4 -1
-1.0512362718582153 6.447899341583252 0.350917249917984 2072968 4 -1
-1.0516386032104492 6.450366497039795 0.30078622698783875 2468738 4 -1
-1.0516386032104492 6.450366497039795 0.30078622698783875 2666112 4 -1
-0.7935507297515869 6.423915386199951 0.9524896740913391 3257723 0 -1
-0.7482255697250366 6.46676778793335 0.6517034769058228 3651704 4 -1
-0.9983733296394348 6.437779426574707 0.6015724539756775 4045940 4 -1
-0.7967809438705444 6.450064659118652 0.7519655227661133 4045940 4 -1
-1.2541754245758057 6.425897121429443 0.6045653223991394 4456788 4 -1
-0.6544649600982666 6.53749418258667 0.2519022226333618 4456788 4 -1
-1.7015832662582397 6.305881023406982 0.7557066679000854 4456788 0 -1
-1.1809742450714111 6.312366485595703 1.4106523990631104 4456788 0 -1
-0.29834359884262085 6.482458114624023 1.0579893589019775 4456788 0 -1
-1.0033403635025024 6.469808578491211 0.6045653223991394 2328718 4 -1
-1.0564663410186768 6.479978561401367 0.3526630997657776 2264205 4 -1
-0.7492678165435791 6.475775718688965 0.8564675450325012 3257723 4 -1
-0.7525053024291992 6.503756523132324 0.6045653223991394 3651704 4 -1
-0.7542855143547058 6.5191426277160645 0.40304356813430786 4045940 4 -1
-0.7039998173713684 6.524764537811279 -0.40304356813430786 8705099 4 -1
-0.7039998173713684 6.524764537811279 -0.40304356813430786 9360965 4 -1
-0.6493654251098633 6.486555099487305 -0.8564675450325012 10672695 0 -1
-0.7006519436836243 6.4937357902526855 -0.7557066679000854 11918891 4 -1
-0.6553997993469238 6.546833038330078 0.6075582504272461 4456788 4 -1
-4.093305587768555 5.171120643615723 0.40503883361816406 4523353 0 -1
-0.7067340612411499 6.550105571746826 0.5062985420227051 4017546 4 -1
-1.0096200704574585 6.51030158996582 0.5062985420227051 2328718 4 -1
-0.8557407855987549 6.51344633102417 0.7088179588317871 2468738 4 -1
-0.6538261771202087 6.531113624572754 -0.7594478130340576 2468738 4 -1
-0.7071304321289062 6.553779602050781 0.45566868782043457 3651704 4 -1
-0.7062956690788269 6.546042442321777 -0.5569283962249756 8705099 4 -1
-0.6525801420211792 6.518666744232178 -0.8607075214385986 10672695 4 -1
-0.6496111750602722 6.489009857177734 -1.0632269382476807 11918891 0 -1
-4.031440258026123 5.19611930847168 0.915826678276062 4456788 0 -1
-2.8808984756469727 5.933706283569336 0.763188898563385 4456788 0 -1
-0.20060452818870544 6.54199743270874 1.1193437576293945 4456788 0 -1
-2.238095998764038 6.249682426452637 -0.152637779712677 4456788 0 -1
-0.555449903011322 6.566556930541992 0.8140681982040405 4456788 4 -1
-4.109103679656982 5.1910786628723145 0.5087926387786865 4456788 0 -1
-0.7047204375267029 6.531443119049072 -0.9667059779167175 4456788 0 -1
-0.7109701037406921 6.5893659591674805 -0.40703409910202026 2072968 4 -1
-0.8606455326080322 6.550778865814209 0.6614304184913635 2468738 4 -1
-0.6570469737052917 6.563286781311035 -0.763188898563385 2468738 4 -1
-0.7122260332107544 6.601006031036377 -0.10175852477550507 2666112 4 -1
-0.7075890898704529 6.558030128479004 -0.763188898563385 4505456 4 -1
-1.0173163414001465 6.559929370880127 0.152637779712677 4899181 4 -1
-0.7102155089378357 6.582372188568115 -0.5087926387786865 11197490 4 -1
-1.7297288179397583 6.41018533706665 0.6646726727485657 4456788 0 -1
-0.5581727027893066 6.598745822906494 0.8180587291717529 4456788 4 -1
-1.0729137659072876 6.580860614776611 0.2556433379650116 2468738 4 -1
-0.6575909852981567 6.568720817565918 0.9714447259902954 2468738 0 -1
-1.0225433111190796 6.593634605407715 0.05112867057323456 4505456 4 -1
-0.6150691509246826 6.660896301269531 0.46240270137786865 4456788 4 -1
-0.7179403901100159 6.65396785736084 0.41102463006973267 4456788 4 -1
-1.0274409055709839 6.62521505355835 -0.10275615751743317 2468738 4 -1
-4.090649127960205 5.167764186859131 -1.2330738306045532 7589974 0 -1
-0.6099680662155151 6.605654716491699 0.9761834740638733 7589974 0 -1
-4.116372108459473 5.200260639190674 -1.1874321699142456 7589974 0 -1
-0.6106637716293335 6.613188743591309 1.1358046531677246 7589974 0 -1
-4.019595146179199 5.180851936340332 -1.5488245487213135 11918891 0 -1
-5.393771171569824 4.0889997482299805 -0.1556306779384613 4456788 0 -1
-5.393771171569824 4.0889997482299805 -0.1556306779384613 4523353 0 -1
-4.130363941192627 5.2179365158081055 -1.2450454235076904 7589974 0 -1
-5.418588638305664 4.107813358306885 -0.20850521326065063 4456788 0 -1
-5.419703006744385 4.108658313751221 -0.15637890994548798 4456788 0 -1
-5.418588638305664 4.107813358306885 -0.20850521326065063 4523353 0 -1
-4.0798845291137695 5.258559226989746 -1.4074101448059082 6933851 0 -1
-4.156144142150879 5.250504970550537 -1.1989049911499023 7589974 0 -1
-5.443074703216553 4.126376628875732 -0.2618785500526428 4456788 0 -1
-5.444514751434326 4.127468109130859 -0.20950284600257874 4456788 0 -1
-5.444514751434326 4.127468109130859 -0.20950284600257874 4523353 0 -1
-4.2062859535217285 5.313849449157715 -0.8903870582580566 7589974 0 -1
-5.521580696105957 4.075729846954346 -0.26312559843063354 4456788 0 -1
-5.523041248321533 4.076808452606201 -0.21050047874450684 4523353 0 -1
2.8090152740478516 6.616573810577393 0.2755959928035736 2134668 5 -1
-4.480114936828613 5.659780979156494 -0.3322116434574127 4456788 0 -1
2.93376088142395 6.601543426513672 0.16610582172870636 2199437 5 -1
2.8784067630767822 6.625865936279297 0.16610582172870636 2134668 5 -1
2.8784067630767822 6.625865936279297 0.16610582172870636 2070155 5 -1
3.0032846927642822 6.607841491699219 0.05561801418662071 2264205 5 -1
2.9469759464263916 6.631279945373535 0.16685405373573303 2199437 5 -1
2.9469759464263916 6.631279945373535 0.16685405373573303 2070155 5 -1
2.9050207138061523 6.687129020690918 -0.05586742237210274 2523534 5 -1
2.960625648498535 6.661994934082031 0.11173484474420547 2458766 5 -1
3.016486644744873 6.63688850402832 0.11173484474420547 2264205 5 -1
2.9595823287963867 6.659646987915039 0.22346968948841095 2199437 5 -1
2.733563184738159 6.747937202453613 0.39107197523117065 2070155 5 -1
3.0160436630249023 6.635913848876953 0.1676022708415985 2070155 5 -1
2.8462257385253906 6.704222679138184 0.335204541683197 2070922 5 -1
2.9180753231048584 6.717179775238037 0 2523534 5 -1
2.9734060764312744 6.69075345993042 0.16835050284862518 2458766 5 -1
2.972008466720581 6.687608242034912 0.2805841565132141 2264205 5 -1
2.972794771194458 6.689377784729004 0.22446732223033905 2199437 5 -1
2.8057591915130615 6.7646307945251465 0.05611683055758476 2070922 5 -1
2.9307003021240234 6.746241569519043 -0.11273247748613358 2588302 5 -1
2.7616214752197266 6.817200660705566 -0.11273247748613358 2523534 5 -1
2.817981004714966 6.794097423553467 -0.11273247748613358 2458766 5 -1
2.8182291984558105 6.794695854187012 -0.05636623874306679 2328718 5 -1
2.818311929702759 6.794895648956299 0 2264205 5 -1
3.043419599533081 6.696146488189697 0.11273247748613358 2264205 5 -1
2.874593734741211 6.771042823791504 0.05636623874306679 2070922 5 -1
2.818311929702759 6.794895648956299 0 2468738 5 -1
2.874593734741211 6.771042823791504 -0.05636623874306679 3651704 5 -1
2.818311929702759 6.794895648956299 0 4899181 5 -1
2.830782413482666 6.824961185455322 0 2782862 5 -1
2.8306992053985596 6.824760913848877 -0.05661564692854881 2718350 5 -1
2.8304500579833984 6.824160099029541 -0.11323129385709763 2523534 5 -1
2.8306992053985596 6.824760913848877 -0.05661564692854881 2458766 5 -1
2.8873980045318604 6.801202774047852 0 2070155 5 -1
2.8873980045318604 6.801202774047852 0 2070922 5 -1
2.8873133659362793 6.8010029792785645 -0.05661564692854881 2468738 5 -1
2.8873980045318604 6.801202774047852 0 2666112 5 -1
2.9432358741760254 6.775097370147705 -0.16984695196151733 2994813 5 -1
2.8873980045318604 6.801202774047852 0 3651704 5 -1
2.8873133659362793 6.8010029792785645 -0.05661564692854881 4505456 5 -1
2.8873133659362793 6.8010029792785645 0.05661564692854881 4899181 5 -1
2.8431694507598877 6.854825973510742 -0.05686505511403084 2782862 5 -1
2.842918872833252 6.854222297668457 -0.11373011022806168 2718350 5 -1
2.842501401901245 6.85321569442749 -0.1705951690673828 2523534 5 -1
2.8432528972625732 6.855027198791504 0 2458766 5 -1
2.9568960666656494 6.80654239654541 -0.05686505511403084 2666112 5 -1
2.9568960666656494 6.80654239654541 -0.05686505511403084 2994813 5 -1
2.7863876819610596 6.878337860107422 0 3257723 5 -1
3.0137596130371094 6.781556129455566 -0.05686505511403084 3257723 5 -1
3.0106611251831055 6.7745842933654785 -0.3411903381347656 4045940 5 -1
2.854381561279297 6.8818583488464355 -0.22845785319805145 2718350 5 -1
2.8536267280578613 6.880038261413574 -0.2855723202228546 2523534 5 -1
2.8557231426239014 6.8850932121276855 0 2458766 5 -1
2.969167470932007 6.834789752960205 0.1713433861732483 2006409 5 -1
2.7985265254974365 6.9083027839660645 0.05711446329951286 2666112 5 -1
3.0238659381866455 6.80429744720459 -0.3426867723464966 4045940 5 -1
2.96567702293396 6.826755046844482 -0.39980125427246094 4505456 5 -1
3.0162949562072754 6.787261486053467 -0.6282591223716736 13164576 5 -1
2.982133150100708 6.864635944366455 -0.17209161818027496 3562893 5 -1
2.8055436611175537 6.925625324249268 -0.4589109718799591 2458766 5 -1
2.9241831302642822 6.887848854064941 0.22945548593997955 2199437 5 -1
2.981519937515259 6.863224506378174 0.22945548593997955 2006409 5 -1
2.981519937515259 6.863224506378174 -0.22945548593997955 4045940 5 -1
3.0227413177490234 6.801766872406006 -0.803094208240509 4505456 5 -1
2.7602367401123047 6.978755950927734 -0.4609062373638153 3562893 5 -1
2.707108736038208 7.012564659118652 0.17283983528614044 2328718 5 -1
2.82006573677063 6.96147346496582 -0.3456796705722809 2666112 5 -1
2.822967767715454 6.968637466430664 -0.05761327967047691 4045940 5 -1
3.022073745727539 6.649180889129639 -1.7860116958618164 4045940 0 -1
2.729400873184204 6.900792598724365 -1.209878921508789 4505456 0 -1
3.001427173614502 6.753806114196777 -1.3827186822891235 4505456 0 -1
2.9887583255767822 6.879886627197266 -0.5185195207595825 8180304 5 -1
2.7675256729125977 6.997184753417969 -0.6364895701408386 4536450 5 -1
2.7675256729125977 6.997184753417969 -0.6364895701408386 4471684 5 -1
2.7656431198120117 6.992424964904785 -0.6943522691726685 3562893 5 -1
2.818910837173462 6.958622455596924 -0.8100776672363281 3238030 5 -1
2.7192270755767822 7.043956279754639 0.11572537571191788 2134668 5 -1
2.774472236633301 7.014747619628906 -0.34717613458633423 2271109 5 -1
2.774472236633301 7.014747619628906 -0.34717613458633423 2468738 5 -1
2.829939842224121 6.9858479499816895 -0.4629015028476715 2666112 5 -1
2.829939842224121 6.9858479499816895 -0.4629015028476715 4899181 5 -1
2.6884918212890625 6.63667631149292 2.4988200664520264 4456788 0 -1
-5.8665642738342285 4.800724506378174 -0.23244838416576385 4456788 0 -1
2.781179904937744 7.031706809997559 -0.5811209678649902 4600703 5 -1
2.781179904937744 7.031706809997559 -0.5811209678649902 4536450 5 -1
2.781179904937744 7.031706809997559 -0.5811209678649902 4341894 5 -1
2.7794547080993652 7.027344703674316 -0.6392330527305603 4147337 5 -1
2.773284435272217 7.011744499206543 -0.8135693669319153 3562893 5 -1
2.786431312561035 7.044983386993408 -0.3486725687980652 2912910 5 -1
2.672450065612793 7.095433712005615 0.1743362843990326 2134668 5 -1
2.7311882972717285 7.074941635131836 0.058112096041440964 2070155 5 -1
2.7312686443328857 7.075149059295654 0 2006409 5 -1
2.730947732925415 7.0743184089660645 -0.11622419208288193 2271109 5 -1
2.787332773208618 7.047263145446777 -0.2905604839324951 2666112 5 -1
2.8932957649230957 6.975680351257324 -0.6973451375961304 6343264 5 -1
1.3551582098007202 7.243388652801514 1.9259296655654907 4456788 0 -1
2.8887383937835693 6.649648189544678 2.3344602584838867 4456788 0 -1
2.8887383937835693 6.649648189544678 2.3344602584838867 4456788 0 -1
2.787419557571411 7.047482013702393 -0.7586995959281921 4657508 5 -1
2.791383743286133 7.057505130767822 -0.641976535320282 4536450 5 -1
2.793116331100464 7.061885833740234 -0.5836150646209717 4341894 5 -1
2.7745792865753174 7.015018463134766 -1.0505070686340332 3562893 5 -1
2.79608416557312 7.069389343261719 -0.4668920338153839 2912910 5 -1
2.6826581954956055 7.122536659240723 0.29180753231048584 2328718 5 -1
2.6826581954956055 7.122536659240723 0.29180753231048584 2264205 5 -1
2.6845505237579346 7.127560615539551 -0.05836150422692299 2134668 5 -1
2.7422659397125244 7.103637218475342 0.17508451640605927 2070155 5 -1
2.681790590286255 7.120233058929443 0.35016903281211853 2006409 5 -1
2.742910146713257 7.105306148529053 0.05836150422692299 2271109 5 -1
2.684629201889038 7.127769947052002 0 2468738 5 -1
2.7946829795837402 7.065846920013428 -0.5252535343170166 2666112 5 -1
3.033372402191162 6.9825849533081055 -0.23344601690769196 5424489 5 -1
2.9159328937530518 7.030257701873779 -0.29180753231048584 5949540 5 -1
3.150688409805298 6.932159900665283 -0.17508451640605927 5949540 5 -1
2.7993314266204834 7.07759952545166 -0.7619418501853943 4657508 5 -1
