VERSION .7
FIELDS x y z rgb label object
SIZE 4 4 4 4 4 4
TYPE F F F I I I
COUNT 1 1 1 1 1 1
WIDTH 686
HEIGHT 1
POINTS 686
VIEWPOINT 0 0 0 1 0 0 0
DATA ascii
-2.027146100997925 2.886760711669922 -0.3805968165397644 4456788 0 -1
-1.9002448320388794 2.990053415298462 -0.1902984082698822 4456788 0 -1
-1.7396669387817383 3.091628313064575 0.05437097325921059 4456788 0 -1
-2.0812032222747803 2.848034620285034 -0.3805968165397644 4456788 0 -1
-2.9070470333099365 1.7975823879241943 -0.9514920711517334 4456788 0 -1
-2.0484933853149414 2.859659433364868 -0.46215328574180603 4456788 0 -1
-1.794189453125 3.060671091079712 -0.027185486629605293 4456788 0 -1
-3.142946481704712 1.7515050172805786 -0.5866079330444336 4456788 0 -1
-2.9817914962768555 2.0822360515594482 -0.25140342116355896 4456788 0 -1
-2.206698417663574 2.9016706943511963 -0.02793371118605137 4456788 0 -1
-2.3737380504608154 2.7655625343322754 0.08380113542079926 4456788 0 -1
-2.2323338985443115 2.8772530555725098 0.1676022708415985 4523353 0 -1
-3.0147969722747803 2.1052844524383545 -0.08454935997724533 4456788 0 -1
-2.2199208736419678 2.9190571308135986 0.28183120489120483 4456788 0 -1
-1.9668750762939453 3.0335233211517334 0.6763948798179626 4456788 0 -1
-2.8400583267211914 2.2098424434661865 -0.7609442472457886 4456788 0 -1
-2.6316566467285156 2.534569025039673 -0.42274680733680725 4456788 0 -1
-3.265911102294922 1.613953948020935 0.5072961449623108 4456788 0 -1
-2.576329231262207 2.5364127159118652 0.6763948798179626 4456788 0 -1
-2.841142177581787 2.3249621391296387 0.22546495497226715 4456788 0 -1
-2.7411105632781982 2.4106736183166504 0.4509299099445343 4456788 0 -1
-2.738413095474243 2.40830135345459 0.47911304235458374 4456788 0 -1
-2.7411105632781982 2.4106736183166504 0.4509299099445343 4523353 0 -1
-2.8276309967041016 2.313905715942383 0.42274680733680725 4729209 0 -1
-2.532468557357788 2.547989845275879 0.7891273498535156 4729209 0 -1
-3.3691375255584717 1.517027735710144 -0.3411903381347656 4456788 0 -1
-2.8095266819000244 2.4132328033447266 0.22746022045612335 4456788 0 -1
-2.615715742111206 2.631747245788574 -0.02843252755701542 4456788 0 -1
-2.2997195720672607 2.9052624702453613 0.19902770221233368 4456788 0 -1
-3.097689628601074 2.039670705795288 -0.11373011022806168 4456788 0 -1
-2.9264004230499268 2.277024984359741 0.14216263592243195 4456788 0 -1
-2.644181966781616 2.5466325283050537 0.5402180552482605 4456788 0 -1
-2.8095266819000244 2.4132328033447266 0.22746022045612335 4456788 0 -1
-2.806544780731201 2.4106714725494385 0.2843252718448639 4456788 0 -1
-3.0987815856933594 2.0403897762298584 -0.05686505511403084 4456788 0 -1
-2.9548120498657227 2.240032911300659 0.14216263592243195 4456788 0 -1
-2.6691839694976807 2.514152765274048 0.5686505436897278 4456788 0 -1
-2.8979885578155518 2.3130764961242676 0.14216263592243195 4456788 0 -1
-2.606383800506592 2.5660016536712646 0.6255156397819519 4456788 0 -1
-2.796165943145752 2.401756525039673 0.42648792266845703 4456788 0 -1
-2.7879185676574707 2.3946726322174072 0.5117855072021484 4456788 0 -1
-2.793586254119873 2.399540662765503 0.4549204409122467 4523353 0 -1
-2.7465121746063232 2.415424108505249 0.6255156397819519 4728182 0 -1
-2.644181966781616 2.5466325283050537 0.5402180552482605 4728182 0 -1
-2.4395077228546143 2.671666383743286 0.824543297290802 4728182 0 -1
-2.869576930999756 2.348231077194214 0.14216263592243195 4729209 0 -1
-2.6160523891448975 2.5755205154418945 0.5402180552482605 4729209 0 -1
-2.796165943145752 2.401756525039673 0.42648792266845703 2782862 0 -1
-3.1810760498046875 1.9027676582336426 0.1705951690673828 2468738 0 -1
-2.956883430480957 2.182610273361206 0.5117855072021484 2468738 0 -1
-2.342097520828247 2.8419179916381836 0.4549204409122467 2468738 0 -1
-3.268204689025879 1.821308970451355 0.11472774296998978 4456788 0 -1
-2.8025660514831543 2.4647207260131836 0.28681936860084534 4456788 0 -1
-3.1240358352661133 2.057018280029297 -0.14340968430042267 4456788 0 -1
-2.9213461875915527 2.3317196369171143 0.20077355206012726 4456788 0 -1
-2.6326606273651123 2.591871500015259 0.602320671081543 4456788 0 -1
-2.8651609420776367 2.4026501178741455 0.17209161818027496 4456788 0 -1
-2.8025660514831543 2.4647207260131836 0.28681936860084534 4456788 0 -1
-2.8206937313079834 2.4228246212005615 0.4302290380001068 4456788 0 -1
-3.5439043045043945 1.1630527973175049 0.31550130248069763 4456788 0 -1
-3.097649097442627 2.101442337036133 0 4456788 0 -1
-2.949986696243286 2.295377492904663 0.20077355206012726 4456788 0 -1
-2.6575183868408203 2.559476852416992 0.6310026049613953 4456788 0 -1
-3.421971321105957 1.4629979133605957 0.4015471041202545 4456788 0 -1
-3.421971321105957 1.4629979133605957 0.4015471041202545 4456788 0 -1
-2.9825711250305176 2.2610769271850586 0.05736387148499489 4456788 0 -1
-2.639000177383423 2.5981128215789795 0.5449568033218384 4456788 0 -1
-2.81809139251709 2.4205892086029053 0.4589109718799591 4456788 0 -1
-2.8123741149902344 2.4156785011291504 0.5162748694419861 4456788 0 -1
-2.8153181076049805 2.4182074069976807 0.4875929057598114 4523353 0 -1
-2.7988758087158203 2.4040842056274414 0.6310026049613953 4728182 0 -1
-2.838761329650879 2.4383437633514404 0.08604580909013748 4729209 0 -1
-2.853928327560425 2.39323091506958 0.3728651702404022 2782862 0 -1
-2.982133150100708 2.260745048522949 -0.08604580909013748 2070922 0 -1
-2.963153123855591 2.246356248855591 0.4302290380001068 2468738 0 -1
-2.4058144092559814 2.860635757446289 0.20077355206012726 2468738 0 -1
-2.803373098373413 2.523329973220825 0.17358806729316711 4456788 0 -1
-3.124218225479126 2.119466781616211 -0.05786268785595894 4456788 0 -1
-2.946749210357666 2.3519954681396484 0.20251941680908203 4456788 0 -1
-2.684107780456543 2.585085391998291 0.6075582504272461 4456788 0 -1
-2.828521728515625 2.4875476360321045 0.2603820860385895 4456788 0 -1
-3.263093948364258 1.885438084602356 -0.23145075142383575 4456788 0 -1
-3.0955629348754883 2.16168475151062 0.02893134392797947 4456788 0 -1
-2.9756388664245605 2.3153374195098877 0.20251941680908203 4456788 0 -1
-2.7191944122314453 2.561258554458618 0.5496955513954163 4456788 0 -1
-2.9767775535583496 2.316223382949829 0.17358806729316711 4456788 0 -1
-2.839799165725708 2.439235210418701 0.4918328523635864 4456788 0 -1
-2.836829423904419 2.4366843700408936 0.520764172077179 4456788 0 -1
-2.839799165725708 2.439235210418701 0.4918328523635864 4523353 0 -1
-2.8193724155426025 2.421689748764038 0.6654209494590759 4590430 0 -1
-2.86210036277771 2.458390474319458 0.1446567177772522 4729209 0 -1
-3.4228148460388184 1.5411971807479858 -0.641976535320282 4456788 0 -1
-3.121973752975464 2.1801278591156006 -0.05836150422692299 4456788 0 -1
-2.9742515087127686 2.3739469051361084 0.14590376615524292 4456788 0 -1
-2.970839262008667 2.3712234497070312 0.23344601690769196 4456788 0 -1
-2.780219793319702 2.560366153717041 0.4668920338153839 4456788 0 -1
-1.859423041343689 3.1719515323638916 0.9921455979347229 4456788 0 -1
-2.990668773651123 2.3270320892333984 0.37934979796409607 4456788 0 -1
-2.8612849712371826 2.4576902389526367 0.5252535343170166 4456788 0 -1
-2.994922161102295 2.3303415775299072 0.320988267660141 4456788 0 -1
-2.8581149578094482 2.454967498779297 0.5544342994689941 4456788 0 -1
-2.992884874343872 2.328756332397461 0.35016903281211853 4523353 0 -1
-2.8612849712371826 2.4576902389526367 0.5252535343170166 4523353 0 -1
-3.062539577484131 2.2605998516082764 -0.11672300845384598 4729209 0 -1
-2.8875372409820557 2.4802396297454834 0.11672300845384598 4729209 0 -1
-2.6958250999450684 2.654057264328003 0.43771129846572876 4729209 0 -1
-2.4878346920013428 2.7817509174346924 0.7586995959281921 4729209 0 -1
3.600416898727417 1.1815992593765259 -0.37934979796409607 4729209 0 -1
-2.705007553100586 2.547895669937134 0.9711952805519104 4456788 0 -1
-2.82230806350708 2.599126100540161 -0.17658096551895142 4456788 0 -1
-2.453484535217285 2.9173178672790527 0.4708825647830963 4456788 0 -1
3.190676689147949 1.9729655981063843 -0.8240445256233215 4456788 0 -1
-2.4598381519317627 2.924872636795044 0.3825920820236206 4523353 0 -1
-3.1252546310424805 2.1201698780059814 0.8607075214385986 4729209 0 -1
-3.3585002422332764 1.8716291189193726 0.6883664727210999 4456788 0 -1
-3.167534828186035 2.148852825164795 0.7781534194946289 4729209 0 -1
-2.52105975151062 2.8776278495788574 0.9355299472808838 4729209 0 -1
0.060340821743011475 3.9369864463806152 0.09053515642881393 4729209 0 -1
0.1809852421283722 3.93247652053833 -0.12071353942155838 4729209 0 -1
0.4545840620994568 3.6799280643463135 1.3278489112854004 4729209 0 -1
3.0106539726257324 2.5246570110321045 -0.2716054618358612 4729209 0 -1
-2.5414199829101562 3.341808557510376 -0.0643472969532013 4456788 0 -1
-2.5390307903289795 3.3386669158935547 0.19304190576076508 4456788 0 -1
-2.5356674194335938 3.3342442512512207 0.289562851190567 4523353 0 -1
-2.560218334197998 3.3665270805358887 0.1296922266483307 4456788 0 -1
-4.526920795440674 2.7077877521514893 -0.569149374961853 4456788 0 -1
-4.0512375831604 3.1522581577301025 1.3415664434432983 4726897 0 -1
4.872064590454102 1.9688999652862549 0.731763482093811 4726897 0 -1
-5.015227317810059 1.18671715259552 1.2602593898773193 4726897 0 -1
-0.8425991535186768 5.168194770812988 -0.8537240624427795 3562893 4 -1
-4.53231954574585 2.711016893386841 -0.7771557569503784 4456788 0 -1
-4.010228157043457 3.2008283138275146 1.4725056886672974 4726897 0 -1
-0.8430543541908264 5.170987129211426 -1.0225733518600464 3562893 0 -1
-0.8532691597938538 5.233641147613525 -0.6135440468788147 3432845 4 -1
-4.93630838394165 1.4813233613967896 1.3906997442245483 2718350 0 -1
-3.8934342861175537 3.2649338245391846 1.6361174583435059 2718350 0 -1
-2.412989854812622 4.760912895202637 -0.08180586993694305 2718350 0 -1
-1.216902494430542 5.15204381942749 0.9053515791893005 4456788 0 -1
-4.528990268707275 2.800516366958618 -0.6995898485183716 4456788 0 -1
4.075904369354248 3.4179487228393555 0.7407422065734863 4726897 0 -1
4.9825119972229 1.7671377658843994 0.9465038776397705 4726897 0 -1
-0.8599010109901428 5.274318695068359 -0.5349804759025574 3257723 4 -1
-4.572737693786621 2.8275678157806396 -0.5382227897644043 4456788 0 -1
-0.815074622631073 5.255820274353027 -0.9522402882575989 4726897 0 -1
5.019538402557373 1.780269980430603 0.9108385443687439 4726897 0 -1
4.930731773376465 2.108039140701294 0.6624280214309692 3562893 0 -1
5.101156711578369 1.5307923555374146 0.9108385443687439 3562893 0 -1
-0.8217886090278625 5.299113750457764 -0.6624280214309692 2718350 4 -1
-0.8685174584388733 5.3271684646606445 -0.24841050803661346 2666112 4 -1
-0.8685174584388733 5.3271684646606445 -0.24841050803661346 2994813 4 -1
-0.8673669099807739 5.320111274719238 -0.3726157546043396 3257723 4 -1
-0.8651125431060791 5.306283950805664 -0.5382227897644043 6343264 4 -1
-0.8651125431060791 5.306283950805664 -0.5382227897644043 6933851 4 -1
-4.616623401641846 2.8547046184539795 0.2915581166744232 4456788 0 -1
-0.8199846744537354 5.287481784820557 -0.9579766988754272 4726897 0 -1
-4.339725971221924 3.1169023513793945 0.9996278285980225 4729209 0 -1
-0.8091811537742615 5.217817783355713 -1.291185975074768 4729209 0 -1
5.1428446769714355 1.387792706489563 1.0829302072525024 4729209 0 -1
-4.159107208251953 3.2361910343170166 1.3328371047973633 3562893 0 -1
-0.8571407794952393 5.257388114929199 -1.0829302072525024 3562893 0 -1
4.960434913635254 2.1207382678985596 0.6664185523986816 3562893 0 -1
-0.8231832385063171 5.308106899261475 -0.833023190498352 2718350 4 -1
-0.9158949851989746 5.355458736419678 0.1666046380996704 2070922 4 -1
-0.9162179231643677 5.357346534729004 0.0833023190498352 2006409 4 -1
-0.8745716214179993 5.364302635192871 0.0833023190498352 2072968 4 -1
-0.8746486902236938 5.36477518081665 0.0416511595249176 2666112 4 -1
-0.8745716214179993 5.364302635192871 0.0833023190498352 2994813 4 -1
-0.8329987525939941 5.371399879455566 0.0416511595249176 4505456 4 -1
-0.833023190498352 5.371557712554932 0 4899181 4 -1
-0.8259255886077881 5.3257904052734375 -0.7080697417259216 6933851 4 -1
-4.646045207977295 2.8728976249694824 0.25140342116355896 4456788 0 -1
-0.7847177386283875 5.332631587982178 -0.9218124747276306 4726897 0 -1
-0.9217042326927185 5.3894267082214355 0.08380113542079926 2070922 4 -1
-0.9217042326927185 5.3894267082214355 0.08380113542079926 2006409 4 -1
-0.837912917137146 5.403088092803955 0.08380113542079926 2666112 4 -1
-0.8379867672920227 5.403563976287842 -0.04190056771039963 2994813 4 -1
-0.7960172891616821 5.409419059753418 -0.08380113542079926 5949540 4 -1
-0.7122887372970581 5.421565055847168 0.04190056771039963 9360965 4 -1
-0.754188060760498 5.415895462036133 -0.04190056771039963 10672695 4 -1
-4.676449298858643 2.891698122024536 0.1685999035835266 4456788 0 -1
-0.8847336173057556 5.426632404327393 -0.1685999035835266 2199437 4 -1
-0.9270544648170471 5.420710563659668 0.12644992768764496 2070922 4 -1
-0.9272722601890564 5.4219841957092285 0.04214997589588165 2006409 4 -1
-0.9271906018257141 5.421506404876709 0.0842999517917633 2666112 4 -1
-0.7586995959281921 5.4482927322387695 0 2666112 4 -1
-0.8429005146026611 5.435249328613281 0.0842999517917633 2994813 4 -1
-0.8008260130882263 5.442097187042236 -0.04214997589588165 5949540 4 -1
-0.7163602709770203 5.452555179595947 -0.12644992768764496 8705099 4 -1
-0.7584990859031677 5.446853160858154 -0.12644992768764496 9360965 4 -1
-0.8429747819900513 5.435728073120117 0.04214997589588165 10672695 4 -1
-0.8008260130882263 5.442097187042236 0.04214997589588165 11918891 4 -1
-4.562662124633789 2.8213374614715576 -1.3567802906036377 4456788 0 -1
-0.9744699001312256 5.442806720733643 0.211996927857399 2070922 4 -1
-0.720768392086029 5.48610782623291 0.04239938408136368 2468738 4 -1
-0.8055883049964905 5.474459648132324 0 2666112 4 -1
-0.8055883049964905 5.474459648132324 0 2994813 4 -1
-0.8054937124252319 5.473816871643066 0.08479876816272736 5424489 4 -1
-0.8036704063415527 5.461426734924316 0.3815944492816925 8180304 4 -1
-0.7207049131393433 5.485624313354492 0.08479876816272736 8705099 4 -1
-0.763188898563385 5.480531215667725 0 9360965 4 -1
-0.8477635979652405 5.466607570648193 0.12719815969467163 11918891 4 -1
-0.677672803401947 5.485865592956543 0.25439631938934326 11918891 4 -1
-0.6755163073539734 5.468408107757568 0.5087926387786865 12640037 4 -1
-0.8235207200050354 5.3102827072143555 1.450058937072754 3302798 0 -1
-0.8528756499290466 5.499571800231934 0.0852975845336914 2070922 4 -1
-0.6823005676269531 5.523327827453613 0.0852975845336914 2072968 4 -1
-0.7249443531036377 5.517892837524414 0.0852975845336914 2468738 4 -1
-0.8525751233100891 5.497633457183838 0.1705951690673828 2666112 4 -1
-0.809160590171814 5.498735427856445 0.2985415458679199 5424489 4 -1
-0.8504681587219238 5.484046936035156 0.42648792266845703 5949540 4 -1
-0.7239857912063599 5.510596752166748 0.2985415458679199 8705099 4 -1
-0.7658506631851196 5.499645709991455 0.38383913040161133 9360965 4 -1
-0.6803745031356812 5.5077362060546875 0.42648792266845703 11918891 4 -1
-0.6794899106025696 5.500575542449951 0.5117855072021484 12640037 4 -1
-0.9584193825721741 5.353158473968506 1.3298442363739014 4471684 0 -1
-0.6862906217575073 5.555628299713135 -0.08579640090465546 4471684 4 -1
-0.781623125076294 5.311601638793945 1.5872334241867065 3302798 0 -1
-0.9852383136749268 5.502953052520752 0.3002873957157135 2199437 4 -1
-0.8559214472770691 5.519211769104004 0.38608381152153015 2072968 4 -1
-0.6862906217575073 5.555628299713135 0.08579640090465546 2072968 4 -1
-0.8536968231201172 5.504866600036621 0.5576766133308411 2271109 4 -1
-0.857938826084137 5.532220363616943 -0.04289820045232773 2468738 4 -1
-0.8135330080986023 5.528449058532715 0.3431856036186218 2994813 4 -1
-0.8135330080986023 5.528449058532715 0.3431856036186218 3257723 4 -1
-0.8138925433158875 5.5308918952941895 0.3002873957157135 3651704 4 -1
-0.727533221244812 5.537598133087158 0.38608381152153015 8705099 4 -1
-0.6834635138511658 5.532742500305176 0.5147783756256104 11918891 4 -1
-0.9923949837684631 5.542925834655762 0 3302798 4 -1
-0.8192026615142822 5.566977500915527 -0.21573804318904877 3302798 4 -1
-0.9874592423439026 5.515357494354248 0.560918927192688 2977934 4 -1
-1.0330772399902344 5.521850109100342 0.3883284628391266 2782862 4 -1
-0.9482436776161194 5.544609069824219 0.2588856518268585 2199437 4 -1
-0.8604151010513306 5.548188209533691 0.43147608637809753 2271109 4 -1
-0.8598814010620117 5.544746398925781 0.4746236801147461 2468738 4 -1
-0.7748079895973206 5.563968658447266 0.3883284628391266 4045940 4 -1
-0.689367949962616 5.580539703369141 0.3020332455635071 9360965 4 -1
-0.6879051327705383 5.568697929382324 0.4746236801147461 11918891 4 -1
-0.30087584257125854 5.601410388946533 0.7811462879180908 4456788 0 -1
-0.6918814182281494 5.600886821746826 0.47736719250679016 4147337 4 -1
-0.6933527588844299 5.612797260284424 -0.30377912521362305 3432845 4 -1
-0.6903455257415771 5.58845329284668 -0.6075582504272461 3302798 4 -1
-0.9529389142990112 5.572063446044922 0.34717613458633423 2523534 4 -1
-0.8666909337043762 5.588655948638916 0.30377912521362305 2271109 4 -1
-0.7778371572494507 5.585721492767334 0.520764172077179 4045940 4 -1
-0.6923108696937561 5.604363441467285 0.4339701533317566 6343264 4 -1
-0.6502669453620911 5.62013053894043 0.2603820860385895 9360965 4 -1
-0.6497310996055603 5.615499019622803 0.34717613458633423 11918891 4 -1
-1.0470221042633057 5.596385478973389 0.17458570003509521 4729209 4 -1
-0.6958577632904053 5.633075714111328 -0.48011067509651184 4212104 4 -1
-0.6966802477836609 5.639733791351318 -0.39281782507896423 3432845 4 -1
-0.6962897181510925 5.636572360992432 -0.43646425008773804 3302798 4 -1
-0.9601085782051086 5.613986015319824 0.08729285001754761 2264205 4 -1
-0.9164673089981079 5.621275424957275 0.08729285001754761 2006409 4 -1
-0.6962897181510925 5.636572360992432 0.43646425008773804 6343264 4 -1
-0.653753936290741 5.650268077850342 0.3055249750614166 9360965 4 -1
-0.6903552412986755 5.588531970977783 1.0534999370574951 4456788 0 -1
-1.053376317024231 5.630349159240723 0.08779166638851166 4456788 4 -1
-1.053221583366394 5.629522323608398 0.1316874921321869 4724328 4 -1
-0.6988402009010315 5.657218933105469 -0.570645809173584 4212104 4 -1
-0.7010125517845154 5.674804210662842 -0.35116666555404663 3302798 4 -1
-0.9988474249839783 5.578965187072754 0.8340208530426025 2977934 4 -1
-0.964687168598175 5.640758037567139 0.2633749842643738 2264205 4 -1
-0.7833929061889648 5.625617980957031 0.7462291717529297 4899181 4 -1
-0.7430679202079773 5.655839920043945 0.5267499685287476 6343264 4 -1
-1.0593613386154175 5.662339687347412 -0.08829048275947571 4456788 4 -1
-0.6898760199546814 5.584652423858643 1.2360666990280151 4456788 0 -1
-1.0592057704925537 5.661508560180664 0.13243572413921356 4724328 4 -1
-0.6995733976364136 5.663154602050781 -0.794614315032959 4471684 4 -1
-1.0110392570495605 5.647061824798584 0.5297428965568542 2977934 4 -1
-0.9647590517997742 5.641178607940674 0.662178635597229 2328718 4 -1
-1.0593613386154175 5.662339687347412 -0.08829048275947571 2468738 4 -1
-0.877810001373291 5.660355091094971 -0.6180333495140076 2468738 4 -1
-0.789348304271698 5.668384552001953 0.662178635597229 4045940 4 -1
-0.786148190498352 5.64540433883667 0.8387596011161804 4505456 4 -1
-0.7878440022468567 5.657581806182861 0.7504690885543823 4899181 4 -1
-0.745495617389679 5.674318313598633 0.662178635597229 6343264 4 -1
-0.35339078307151794 5.754153251647949 0.5771304368972778 4456788 0 -1
-1.06544029712677 5.694831848144531 0.04439464956521988 4456788 4 -1
-0.6492708921432495 5.611522197723389 1.287444829940796 4456788 0 -1
-1.0646892786026 5.6908183097839355 0.2219732403755188 4147337 4 -1
-1.0191566944122314 5.692400932312012 0.35515719652175903 2977934 4 -1
-1.0203273296356201 5.698938846588135 0.2219732403755188 2458766 4 -1
-0.7930755019187927 5.695149898529053 0.7103143930435181 4045940 4 -1
-0.7896643877029419 5.670654296875 0.8878929615020752 4505456 4 -1
-0.7497074604034424 5.706376552581787 0.6659197211265564 4899181 4 -1
-0.9121177196502686 5.594596862792969 1.1986554861068726 5949540 0 -1
-0.749015748500824 5.701111793518066 0.7103143930435181 5949540 4 -1
-1.090111255645752 5.585297584533691 1.2500336170196533 4456788 0 -1
-0.8861455321311951 5.714104652404785 0.7143049240112305 3651704 4 -1
-0.5831865668296814 5.8254899978637695 0.22446732223033905 4456788 4 -1
-1.0317916870117188 5.762971878051758 -0.22446732223033905 4456788 4 -1
-0.7620903253555298 5.800628185272217 0.3142542541027069 4456788 4 -1
-0.8465412855148315 5.75275993347168 0.7182954549789429 3651704 4 -1
-0.8493623733520508 5.771931171417236 0.5387215614318848 4045940 4 -1
-0.7114306092262268 5.7591400146484375 0.8080824017524719 6343264 4 -1
-0.7663241624832153 5.832854270935059 0.3160001039505005 2139270 4 -1
-0.7663241624832153 5.832854270935059 0.3160001039505005 2139270 4 -1
-0.8540810942649841 5.80399751663208 0.5417144894599915 4045940 4 -1
-0.7207977175712585 5.834968566894531 -0.7262765169143677 4725613 4 -1
-0.7207977175712585 5.834968566894531 -0.7262765169143677 4726897 4 -1
-0.7231997847557068 5.8544135093688965 -0.5447073578834534 4212104 4 -1
-0.5436829924583435 5.887819766998291 0.36313825845718384 2139270 4 -1
-3.663907766342163 4.536483287811279 -1.0440224409103394 4045940 0 -1
-0.5405982732772827 5.8544135093688965 0.7262765169143677 4045940 4 -1
-0.7672158479690552 5.839641571044922 0.6354919672012329 4505456 4 -1
-0.49341702461242676 5.8332014083862305 0.9078456163406372 4505456 4 -1
-3.6391117572784424 4.597332000732422 -1.0497589111328125 3651704 0 -1
-0.54056316614151 5.854033470153809 0.9584754705429077 3651704 4 -1
-3.6339259147644043 4.590780735015869 -1.0954005718231201 4045940 0 -1
-3.6589975357055664 4.6224541664123535 -1.055495262145996 2994813 0 -1
-4.567373752593994 3.923129081726074 -0.09228101372718811 4456788 0 -1
-0.6436684131622314 5.96560525894165 0.5075455904006958 2070922 4 -1
-1.2188410758972168 5.763920783996582 1.2457937002182007 4899181 0 -1
-4.587745189666748 3.940627098083496 0.2783394753932953 4456788 0 -1
-4.566100120544434 3.922034740447998 0.6494588255882263 4456788 0 -1
-4.591387748718262 3.943755865097046 -0.13916973769664764 4456788 0 -1
-4.542873859405518 3.995237112045288 -0.2319495677947998 4456788 0 -1
-4.539667129516602 3.992417097091675 -0.32472941279411316 4523353 0 -1
-4.350270748138428 4.189779758453369 -0.4175092279911041 4523353 0 -1
-4.869653701782227 3.594513177871704 0.13916973769664764 4728182 0 -1
-4.573145866394043 3.928086996078491 0.5566789507865906 4728182 0 -1
-4.563028812408447 3.8264386653900146 -1.2592617273330688 4456788 0 -1
-4.378398418426514 4.124093055725098 -0.9327864646911621 4456788 0 -1
-4.616750717163086 3.965541124343872 0.09327864646911621 4456788 0 -1
-5.424680709838867 2.562934398651123 1.0260651111602783 4456788 0 -1
-4.637019157409668 3.8884849548339844 0.6529505252838135 4456788 0 -1
-4.637019157409668 3.8884849548339844 0.6529505252838135 4456788 0 -1
-3.962531089782715 4.339630126953125 1.5857369899749756 4456788 0 -1
-5.912055015563965 1.3989269733428955 0.37311458587646484 4456788 0 -1
-4.663384437561035 3.9105944633483887 -0.09327864646911621 4456788 0 -1
-4.4307355880737305 4.1733903884887695 0 4456788 0 -1
-4.6106462478637695 3.9602978229522705 -0.32647526264190674 4456788 0 -1
-4.4243574142456055 4.167382717132568 -0.32647526264190674 4456788 0 -1
-4.660508155822754 3.908182144165039 -0.23319661617279053 4523353 0 -1
-4.422403335571289 4.165542125701904 -0.37311458587646484 4523353 0 -1
-3.676042318344116 4.551507949829102 1.6790156364440918 3238030 0 -1
2.790417432785034 5.873908042907715 0.2992897629737854 2458766 5 -1
2.8032968044281006 5.90101957321167 0.350917249917984 2458766 5 -1
2.8043696880340576 5.903277397155762 0.30078622698783875 2328718 5 -1
2.7679944038391113 5.956294536590576 0.3022826611995697 2523534 5 -1
2.7657134532928467 5.951385974884033 0.40304356813430786 2458766 5 -1
2.818321704864502 5.932646751403809 0.3022826611995697 2328718 5 -1
2.818321704864502 5.932646751403809 0.3022826611995697 2264205 5 -1
2.833939790725708 5.9655232429504395 0.20251941680908203 2523534 5 -1
2.8331902027130127 5.963945388793945 0.25314927101135254 2458766 5 -1
2.8322737216949463 5.962016582489014 0.30377912521362305 2328718 5 -1
2.8322737216949463 5.962016582489014 0.30377912521362305 2264205 5 -1
2.7976198196411133 6.020043849945068 0.152637779712677 2718350 5 -1
2.857400894165039 5.637751579284668 2.035170555114746 2718350 0 -1
2.99870228767395 5.916543960571289 0.305275559425354 2588302 5 -1
2.7078299522399902 6.093154430389404 0.2556433379650116 2782862 5 -1
2.9651145935058594 5.976777076721191 0.10225734114646912 2782862 5 -1
2.959886074066162 5.966238021850586 0.40902936458587646 2718350 5 -1
3.014376640319824 5.947470188140869 0.2556433379650116 2588302 5 -1
2.7731127738952637 6.101416110992432 0.20551231503486633 2782862 5 -1
2.7731127738952637 6.101416110992432 0.20551231503486633 2718350 5 -1
2.7731127738952637 6.101416110992432 0.20551231503486633 2718350 5 -1
3.0281012058258057 5.974549293518066 0.3082684576511383 2588302 5 -1
2.825711250305176 6.08049201965332 0.05137807875871658 2523534 5 -1
2.825711250305176 6.08049201965332 0.05137807875871658 2264205 5 -1
3.045663833618164 6.0092010498046875 0.10325497388839722 3238030 5 -1
2.7878024578094482 6.1337361335754395 -0.05162748694419861 2912910 5 -1
2.7875568866729736 6.133195877075195 0.10325497388839722 2782862 5 -1
2.839428424835205 6.110008716583252 0.05162748694419861 2718350 5 -1
2.8395116329193115 6.1101884841918945 0 2588302 5 -1
2.891054391860962 6.085751056671143 0.05162748694419861 2523534 5 -1
2.7871475219726562 6.132295608520508 0.15488246083259583 2264205 5 -1
2.786574363708496 6.1310343742370605 0.20650994777679443 2134668 5 -1
-4.512759685516357 5.04590368270874 0.10375379025936127 4456788 0 -1
2.8815369606018066 5.685372829437256 -2.282583236694336 4456788 0 -1
-5.392662048339844 4.088159084320068 -0.20750758051872253 4456788 0 -1
-5.391235828399658 4.087077617645264 -0.2593844532966614 4523353 0 -1
-5.83690071105957 3.2527949810028076 1.0894147157669067 4729209 0 -1
2.800611972808838 6.161920070648193 0.1556306779384613 2782862 5 -1
2.8531453609466553 6.139525890350342 0.051876895129680634 2718350 5 -1
2.8528940677642822 6.1389851570129395 0.10375379025936127 2588302 5 -1
2.9051060676574707 6.115330696105957 0 2523534 5 -1
2.902973175048828 6.110840797424316 0.2593844532966614 2458766 5 -1
2.691176176071167 6.194876194000244 0.4668920338153839 2328718 5 -1
2.902973175048828 6.110840797424316 0.2593844532966614 2328718 5 -1
2.7973196506500244 6.15467643737793 0.36313825845718384 2134668 5 -1
2.903721809387207 5.729144096374512 -2.2414309978485107 4456788 0 -1
-5.418588638305664 4.107813358306885 -0.20850521326065063 4456788 0 -1
-5.418588638305664 4.107813358306885 -0.20850521326065063 4456788 0 -1
-5.415402889251709 4.105398654937744 -0.31275781989097595 4523353 0 -1
2.971112012863159 6.119516372680664 -0.05212630331516266 2912910 5 -1
2.7587170600891113 6.20766019821167 0.3648841083049774 2782862 5 -1
2.971112012863159 6.119516372680664 0.05212630331516266 2782862 5 -1
2.866609811782837 6.16849946975708 0.10425260663032532 2718350 5 -1
2.8655996322631836 6.166325569152832 0.20850521326065063 2523534 5 -1
2.918987274169922 6.144550800323486 -0.05212630331516266 2458766 5 -1
2.702598810195923 6.221169471740723 0.5212630033493042 2328718 5 -1
2.917701482772827 6.141844272613525 0.20850521326065063 2328718 5 -1
2.7619640827178955 6.214966297149658 0.15637890994548798 2264205 5 -1
2.971112012863159 6.119516372680664 -0.05212630331516266 2264205 5 -1
2.8048038482666016 6.171143054962158 0.5733892917633057 2134668 5 -1
-5.444514751434326 4.127468109130859 -0.20950284600257874 4456788 0 -1
-5.444514751434326 4.127468109130859 -0.20950284600257874 4456788 0 -1
-5.441314220428467 4.125041961669922 -0.3142542541027069 4523353 0 -1
2.811967611312866 6.1869049072265625 -0.733259916305542 4729209 5 -1
2.811967611312866 6.1869049072265625 -0.733259916305542 4664956 5 -1
2.611788511276245 6.012131690979004 1.937901258468628 2912910 0 -1
2.933039665222168 6.174131870269775 0 2782862 5 -1
2.9329535961151123 6.173950672149658 0.052375711500644684 2718350 5 -1
2.772977352142334 6.239748954772949 0.3142542541027069 2328718 5 -1
2.929938316345215 6.167603492736816 0.3142542541027069 2328718 5 -1
2.767751455307007 6.227989673614502 0.5237571001052856 2264205 5 -1
2.699049472808838 5.938461780548096 -2.0426526069641113 2199437 0 -1
2.722257375717163 6.266422271728516 0.20950284600257874 2139270 5 -1
-5.523041248321533 4.076808452606201 -0.21050047874450684 4456788 0 -1
-5.519794464111328 4.074411869049072 -0.31575071811676025 4523353 0 -1
2.8229236602783203 6.211010456085205 -0.7893767952919006 4728182 5 -1
2.777315616607666 6.249510765075684 -0.6315014362335205 4729209 5 -1
2.777315616607666 6.249510765075684 -0.6315014362335205 4664956 5 -1
2.7824912071228027 6.2611565589904785 -0.473626047372818 4600703 5 -1
2.7792062759399414 6.253765106201172 -0.5788763165473938 4536450 5 -1
2.780931234359741 6.257646560668945 -0.5262511968612671 4212104 5 -1
2.6019504070281982 6.1288371086120605 1.6840038299560547 2977934 0 -1
2.7344970703125 6.294597148895264 -0.26312559843063354 2912910 5 -1
2.9995436668395996 6.17807674407959 -0.05262511968612671 2718350 5 -1
2.7890493869781494 6.275914192199707 0.05262511968612671 2588302 5 -1
2.9953136444091797 6.1693644523620605 0.36837583780288696 2328718 5 -1
2.839669942855835 6.2478556632995605 0.26312559843063354 2264205 5 -1
2.629324197769165 6.339249134063721 0.26312559843063354 2199437 5 -1
2.8387515544891357 6.245834827423096 0.31575071811676025 2199437 5 -1
3.0346438884735107 6.116927146911621 0.7367516756057739 2199437 5 -1
2.790478229522705 6.279129505157471 -0.6344943046569824 4590430 5 -1
2.790478229522705 6.279129505157471 -0.6344943046569824 4728182 5 -1
2.7861788272857666 6.2694549560546875 -0.7402433753013611 4729209 5 -1
2.790478229522705 6.279129505157471 -0.6344943046569824 4664956 5 -1
2.7970798015594482 6.2939839363098145 -0.4229962229728699 4212104 5 -1
2.5859575271606445 6.0911664962768555 1.956357479095459 2977934 0 -1
2.9073305130004883 6.256124019622803 -0.1586235761642456 2912910 5 -1
2.696521759033203 6.351597785949707 -0.052874527871608734 2782862 5 -1
2.9080135822296143 6.257593631744385 0.052874527871608734 2782862 5 -1
2.802020788192749 6.305102348327637 0.10574905574321747 2588302 5 -1
2.696521759033203 6.351597785949707 -0.052874527871608734 2458766 5 -1
2.696521759033203 6.351597785949707 0.052874527871608734 2328718 5 -1
2.696600914001465 6.3517842292785645 0 2264205 5 -1
2.696284055709839 6.351037979125977 0.10574905574321747 2199437 5 -1
2.637432336807251 6.358798027038574 0.4758707284927368 2072968 5 -1
2.4310855865478516 6.454603672027588 -0.21149811148643494 2666112 5 -1
2.6092758178710938 6.290913105010986 -1.1103650331497192 2666112 5 -1
2.5855181217193604 6.090130805969238 2.071833372116089 4456788 0 -1
2.803640842437744 6.3087477684021 -0.6374872326850891 4590430 5 -1
2.7969093322753906 6.293600559234619 -0.7968590259552002 4729209 5 -1
2.7969093322753906 6.293600559234619 -0.7968590259552002 4341894 5 -1
2.8102736473083496 6.323672771453857 -0.4249914586544037 4212104 5 -1
2.7558679580688477 6.343791484832764 -0.47811540961265564 3692940 5 -1
2.96014404296875 6.231187343597412 -0.6906111240386963 3692940 5 -1
2.7092411518096924 6.381557941436768 -0.05312393233180046 2782862 5 -1
2.709320545196533 6.381745338439941 0 2523534 5 -1
2.92104434967041 6.2856340408325195 -0.15937180817127228 2523534 5 -1
2.7092411518096924 6.381557941436768 0.05312393233180046 2458766 5 -1
2.7090024948120117 6.380995750427246 0.10624786466360092 2328718 5 -1
2.7092411518096924 6.381557941436768 0.05312393233180046 2264205 5 -1
2.7086048126220703 6.380059242248535 0.15937180817127228 2199437 5 -1
2.708047866821289 6.37874698638916 0.21249572932720184 2070155 5 -1
2.709320545196533 6.381745338439941 0 2271109 5 -1
2.8124635219573975 6.328600883483887 -0.7472267746925354 4590430 5 -1
2.8017520904541016 6.304497241973877 -0.9607201814651489 4657508 5 -1
2.8100404739379883 6.323147773742676 -0.8006001114845276 4729209 5 -1
2.7688064575195312 6.373574256896973 -0.48036009073257446 4212104 5 -1
2.9351890087127686 6.316071033477783 0.10674668103456497 2523534 5 -1
2.7213211059570312 6.410012245178223 0.16012002527713776 2458766 5 -1
2.7213211059570312 6.410012245178223 0.16012002527713776 2328718 5 -1
2.7213211059570312 6.410012245178223 0.16012002527713776 2264205 5 -1
2.7200419902801514 6.406999111175537 0.2668667137622833 2199437 5 -1
2.845921039581299 6.123980522155762 -1.7079468965530396 2199437 0 -1
2.7219605445861816 6.411518573760986 -0.053373340517282486 2271109 5 -1
2.7213211059570312 6.410012245178223 -0.16012002527713776 2468738 5 -1
2.732752561569214 6.436938285827637 0.26811376214027405 2458766 5 -1
2.7340376377105713 6.439965724945068 0.16086825728416443 2328718 5 -1
2.7854347229003906 6.411851406097412 0.32173651456832886 2264205 5 -1
2.680428981781006 6.462462425231934 -0.16086825728416443 2072968 5 -1
2.7340376377105713 6.439965724945068 -0.16086825728416443 2139270 5 -1
2.734679937362671 6.441478729248047 0.05362274870276451 2994813 5 -1
2.942229986190796 6.331222057342529 -0.4826047420501709 9360965 5 -1
2.998551368713379 6.31203556060791 -0.37535926699638367 10016830 5 -1
3.000669479370117 6.316493988037109 -0.26811376214027405 10672695 5 -1
3.000669479370117 6.316493988037109 -0.26811376214027405 11918891 5 -1
2.9996988773345947 6.314451217651367 -0.32173651456832886 12640037 5 -1
2.6880569458007812 6.048661231994629 2.370374917984009 3238030 0 -1
2.747157335281372 6.470869064331055 0.10774431377649307 2328718 5 -1
2.692342519760132 6.491185188293457 0.21548862755298615 2264205 5 -1
2.692342519760132 6.491185188293457 -0.21548862755298615 2072968 5 -1
2.831192970275879 6.2292046546936035 1.6161648035049438 3651704 0 -1
3.011167526245117 6.338593006134033 -0.4309772551059723 8705099 5 -1
3.012498140335083 6.341393947601318 -0.37710511684417725 9360965 5 -1
3.013650894165039 6.343820571899414 -0.3232329487800598 10016830 5 -1
2.9812049865722656 6.2755208015441895 -1.0774431228637695 12640037 0 -1
3.1357316970825195 6.320689678192139 0.32472941279411316 4456788 5 -1
3.023296356201172 5.96506929397583 2.2731058597564697 4456788 0 -1
2.9766862392425537 6.40536642074585 0 2328718 5 -1
2.7053632736206055 6.522578239440918 -0.16236470639705658 2468738 5 -1
2.976336717605591 6.404614448547363 0.10824313014745712 2468738 5 -1
2.9758996963500977 6.403674125671387 -0.16236470639705658 9360965 5 -1
3.0276029109954834 6.373189926147461 -0.32472941279411316 10016830 5 -1
-4.047061443328857 5.7632246017456055 0.8699355721473694 4456788 0 -1
3.8390750885009766 5.467041492462158 -2.3923227787017822 4212104 0 -1
2.8809001445770264 6.482596397399902 -0.16311292350292206 2588302 5 -1
3.150182008743286 6.349817276000977 -0.3262258470058441 2588302 5 -1
2.987241506576538 6.428080081939697 0.3262258470058441 2328718 5 -1
2.8261334896087646 6.505537033081055 0.7100650072097778 2006409 5 -1
-6.310665130615234 3.2532694339752197 -0.9327864646911621 4456788 0 -1
3.0718963146209717 6.466428756713867 0.1646093726158142 2458766 5 -1
2.952425241470337 6.495940208435059 0.6035677194595337 2134668 5 -1
3.168966054916382 6.387680530548096 0.6584374904632568 2134668 5 -1
3.0146474838256836 6.487053394317627 0.3292187452316284 2070155 5 -1
2.9587035179138184 6.509753704071045 0.38408854603767395 2070922 5 -1
-4.7389984130859375 5.409262657165527 0.16535760462284088 4456788 0 -1
3.0140624046325684 6.4857940673828125 0.7716687917709351 2134668 5 -1
3.0226433277130127 6.50425910949707 0.5511919856071472 2070155 5 -1
2.947990655899048 6.486183166503906 0.9921455979347229 2070922 0 -1
-4.478401184082031 5.657616138458252 -0.3875802457332611 4456788 0 -1
3.0915262699127197 6.507750511169434 0.5536860823631287 2199437 5 -1
2.8648476600646973 6.594654083251953 0.7197918891906738 2134668 5 -1
3.0896084308624268 6.503713607788086 0.609054684638977 2134668 5 -1
2.8118364810943604 6.6232194900512695 0.6644232869148254 2070155 5 -1
3.0932602882385254 6.5114006996154785 0.4983174800872803 2070155 5 -1
2.82015061378479 6.642803192138672 0.7786521911621094 2134668 5 -1
3.105452060699463 6.537064552307129 0.5561801791191101 2134668 5 -1
2.883634090423584 6.637898921966553 0.5561801791191101 2070155 5 -1
3.1035256385803223 6.5330095291137695 0.6117981672286987 2070155 5 -1
-5.010347366333008 5.718989849090576 -1.4839783906936646 2666112 0 -1
-5.010347366333008 5.718989849090576 -1.4839783906936646 2994813 0 -1
-2.61848521232605 6.952155590057373 2.1962881088256836 2994813 0 -1
-2.3392996788024902 7.069216728210449 2.1369290351867676 2994813 0 -1
-4.9803147315979 5.80239725112915 -1.4306050539016724 2070922 0 -1
-5.052972316741943 5.767643451690674 -1.3113880157470703 2006409 0 -1
-5.038906574249268 5.751588344573975 -1.4306050539016724 2666112 0 -1
-2.6356077194213867 6.997616291046143 2.1459076404571533 2994813 0 -1
-6.170176982879639 4.308740139007568 -2.0950284004211426 4456788 0 -1
-5.892105579376221 4.940968036651611 -1.3767329454421997 4456788 0 -1
-4.802160739898682 5.945816516876221 -1.6161648035049438 4456788 0 -1
-4.446441173553467 6.3319621086120605 -1.0774431228637695 4456788 0 -1
-4.985934257507324 5.8089447021484375 -1.5563068389892578 2134668 0 -1
-2.3478384017944336 7.095019817352295 2.274602174758911 2070155 0 -1
-2.652599334716797 7.04272985458374 2.0950284004211426 2070922 0 -1
-2.2669410705566406 7.040318012237549 2.5140340328216553 2070922 0 -1
-5.1397809982299805 5.747001647949219 -1.2570170164108276 2006409 0 -1
-4.824641704559326 5.97365140914917 -1.4365909099578857 2006409 0 -1
-5.052451133728027 5.767048358917236 -1.4964488744735718 2072968 0 -1
-2.7328035831451416 7.07912540435791 1.8555965423583984 2072968 0 -1
-2.260622024536133 7.020693302154541 2.573892116546631 2072968 0 -1
-5.052451133728027 5.767048358917236 -1.4964488744735718 2994813 0 -1
-2.640489339828491 7.010577201843262 2.2147443294525146 2994813 0 -1
-6.05711555480957 4.713027000427246 -1.622898817062378 4456788 0 -1
-5.633481025695801 5.425650119781494 -0.6010736227035522 4456788 0 -1
-4.246397495269775 6.549244403839111 -0.7813957333564758 4456788 0 -1
-5.899927616119385 5.067721366882324 -1.0218251943588257 4456788 0 -1
-4.771099090576172 6.0273847579956055 -1.5627914667129517 4456788 0 -1
-4.464968204498291 6.3583455085754395 -1.081932544708252 4456788 0 -1
-4.593352794647217 6.285799980163574 -0.9617177844047546 4456788 0 -1
-4.259597301483154 6.569602966308594 -0.4808588922023773 4456788 0 -1
-4.5075225830078125 6.4189453125 -0.12021472305059433 4456788 0 -1
-5.088324069976807 5.807995319366455 -1.3824692964553833 2070155 0 -1
-2.631866693496704 6.987683296203613 2.404294490814209 2070155 0 -1
-0.7032552361488342 7.615908622741699 -1.7431135177612305 2070155 0 -1
3.0549793243408203 6.874309062957764 2.2239723205566406 2070155 0 -1
-5.167569637298584 5.778073787689209 -1.2021472454071045 2072968 0 -1
-2.685803174972534 7.130886554718018 1.863328218460083 2072968 0 -1
-4.256931304931641 6.565491199493408 -0.9053515791893005 4456788 0 -1
-5.971370220184326 5.007437705993652 -1.1467785835266113 4456788 0 -1
-4.850043296813965 6.005102157592773 -1.569275975227356 4456788 0 -1
-4.3903656005859375 6.506204128265381 -0.6639244556427002 4456788 0 -1
-4.607873439788818 6.305671215057373 -1.0260651111602783 4456788 0 -1
-4.277271747589111 6.59686279296875 -0.4828541576862335 4456788 0 -1
-4.465876579284668 6.487539768218994 -0.12071353942155838 4456788 0 -1
-4.103175640106201 6.721455097198486 0.18107031285762787 4728182 0 -1
-4.411243915557861 6.537144660949707 -0.6060617566108704 4456788 0 -1
-5.073307037353516 6.032419681549072 -0.9736893773078918 2271109 0 -1
-4.826966285705566 6.221472263336182 -1.0345449447631836 2271109 0 -1
-2.520930528640747 7.223907947540283 2.1299455165863037 2271109 0 -1
-2.2864253520965576 7.301519870758057 2.1299455165863037 2271109 0 -1
-5.232767581939697 5.9728684425354 -0.733259916305542 2139270 0 -1
-4.998680591583252 6.189138412475586 -0.5499449372291565 2139270 0 -1
-6.12359619140625 5.011058807373047 -1.2270880937576294 4456788 0 -1
-4.739906311035156 6.358342170715332 -1.1043792963027954 4456788 0 -1
-4.404529571533203 6.658720970153809 -0.6135440468788147 4456788 0 -1
-5.3674139976501465 6.645687103271484 -1.5982073545455933 4456788 0 -1
-4.969557762145996 7.076907634735107 -0.8656956553459167 4456788 0 -1
-3.790807008743286 7.641124248504639 -1.6647993326187134 4456788 0 -1
-3.4455602169036865 7.931408405303955 -0.8656956553459167 4456788 0 -1
-5.375073432922363 6.655170440673828 -1.5316153764724731 4456788 0 -1
-4.783207416534424 7.231202125549316 -0.5993277430534363 4456788 0 -1
-3.8674309253692627 7.630575656890869 -1.5316153764724731 4456788 0 -1
-3.450460433959961 7.942688465118408 -0.7325116991996765 4456788 0 -1
-5.645423412322998 6.182676792144775 -2.330718994140625 4456788 0 -1
-5.645423412322998 6.182676792144775 -2.330718994140625 4456788 0 -1
-5.083893299102783 6.957083702087402 -1.1320635080337524 4456788 0 -1
-3.381803512573242 7.965763568878174 -0.7991036772727966 4456788 0 -1
-5.60300874710083 6.395474910736084 -1.7979832887649536 4456788 0 -1
-4.456944465637207 7.450138092041016 -0.3995518386363983 4456788 0 -1
-4.24692964553833 7.099081516265869 -2.6636788845062256 4523353 0 -1
-5.702481269836426 6.245164394378662 -2.1389241218566895 4456788 0 -1
-5.0546793937683105 7.056240558624268 -0.8689379692077637 4456788 0 -1
-3.463383674621582 7.972436428070068 -0.7352551817893982 4456788 0 -1
-3.0738911628723145 8.161271095275879 -0.20052415132522583 4456788 0 -1
-5.483929634094238 6.520671367645264 -1.871558666229248 4456788 0 -1
-5.1079607009887695 6.990018367767334 -1.0694620609283447 4456788 0 -1
-4.807490825653076 7.267913341522217 -0.40104830265045166 4456788 0 -1
-3.398888349533081 8.006007194519043 -0.6684138178825378 4456788 0 -1
-4.4750847816467285 7.4804606437683105 -0.3342069089412689 4456788 0 -1
-5.260909080505371 7.0572404861450195 -0.9497461915016174 4456788 0 -1
-5.0319437980651855 8.411295890808105 -2.3968122005462646 4724328 0 -1
-3.6330647468566895 8.968401908874512 -2.8607113361358643 4724328 0 -1
-3.402456760406494 9.033622741699219 -2.938027858734131 4729209 0 -1
-4.752281188964844 8.802398681640625 -1.551318645477295 4724328 0 -1
-4.905580520629883 8.717894554138184 -1.551318645477295 4725613 0 -1
5.876284599304199 7.72694730758667 -2.8699395656585693 4729209 0 -1
-8.36914348602295 5.006021499633789 2.7148075103759766 4600703 0 -1
-5.20683479309082 8.19300365447998 -2.8699395656585693 4600703 0 -1
5.847702503204346 7.689363479614258 -3.025071382522583 4600703 0 -1
8.780295372009277 4.339062690734863 2.559675693511963 3432845 0 -1
8.780295372009277 4.339062690734863 2.559675693511963 3238030 0 -1
8.808527946472168 4.3530144691467285 2.567906141281128 3432845 0 -1
8.789999961853027 4.343858242034912 2.645721673965454 3238030 0 -1
9.041048049926758 4.271515846252441 1.9516186714172363 4664956 0 -1
8.947993278503418 4.227551460266113 2.4200072288513184 3432845 0 -1
8.818172454833984 4.357780933380127 2.6542015075683594 3238030 0 -1
8.920886039733887 4.408539772033691 2.1858129501342773 2588302 0 -1
8.921956062316895 4.215250015258789 2.6626813411712646 3432845 0 -1
8.949387550354004 4.422624588012695 2.192796468734741 2588302 0 -1
6.07175350189209 8.14494800567627 -1.9827947616577148 2912910 0 -1
5.997470378875732 8.045300483703613 -2.5379772186279297 2782862 0 -1
6.061262607574463 8.130873680114746 -2.2277135848999023 2912910 0 -1
5.978440284729004 8.01977252960205 -2.784641981124878 2782862 0 -1
8.912898063659668 4.210970401763916 3.2620091438293457 2782862 0 -1
0.6492871642112732 12.087788581848145 -0.2783394753932953 4456788 6 -1
0.6494397521018982 12.090628623962402 -0.09277983009815216 4456788 6 -1
-0.2806776463985443 12.206903457641602 -1.2223492860794067 4456788 0 -1
0.27766546607017517 12.07590103149414 -2.1626179218292236 4456788 0 -1
0.9409898519515991 12.244468688964844 -0.7542102336883545 4456788 6 -1
1.4126489162445068 12.209248542785645 -0.5656576752662659 4456788 0 -1
0.8480878472328186 12.26865291595459 -0.37710511684417725 4456788 6 -1
0.8478635549545288 12.26540756225586 -0.47138139605522156 4456788 6 -1
0.8475893139839172 12.26144027709961 -0.5656576752662659 4456788 6 -1
0.8484864830970764 12.274419784545898 0 4456788 6 -1
-2.0495784282684326 11.984378814697266 -1.8855255842208862 4590430 0 -1
-1.4984239339828491 12.129972457885742 -1.4141441583633423 4590430 0 -1
3.4845337867736816 11.786405563354492 -0.5656576752662659 4590430 0 -1
0.9412524700164795 12.247885704040527 -1.1343082189559937 4456788 6 -1
0.9434792399406433 12.276861190795898 -0.7562054991722107 4456788 6 -1
0.7560056447982788 12.309807777404785 -0.2835770547389984 4456788 6 -1
1.0378271341323853 12.269246101379395 -0.7562054991722107 4456788 6 -1
0.9412524700164795 12.247885704040527 -1.1343082189559937 4456788 6 -1
0.9438961744308472 12.282286643981934 -0.6616798043251038 4456788 6 -1
0.8491312861442566 12.283747673034668 -0.7562054991722107 4456788 6 -1
0.8498316407203674 12.293878555297852 -0.5671541094779968 4456788 6 -1
0.7554059028625488 12.300041198730469 -0.5671541094779968 4456788 6 -1
0.7530019879341125 12.260899543762207 -1.1343082189559937 4456788 6 -1
0.8448238372802734 12.221434593200684 -1.7059516906738281 4456788 0 -1
1.0394610166549683 12.288561820983887 -0.9477509260177612 4456788 6 -1
1.0373408794403076 12.263497352600098 -1.2320761680603027 4456788 6 -1
1.0356171131134033 12.243118286132812 -1.4216264486312866 4456788 6 -1
1.1297640800476074 12.234789848327637 -1.4216264486312866 4456788 6 -1
0.9473056793212891 12.326652526855469 0.37910038232803345 4456788 0 -1
0.6629385948181152 12.341937065124512 -0.4738754630088806 4456788 6 -1
1.0394610166549683 12.288561820983887 -0.9477509260177612 4456788 6 -1
0.94228196144104 12.261281967163086 -1.3268513679504395 4456788 6 -1
0.7549887895584106 12.29325008392334 -1.1373010873794556 4456788 6 -1
1.1345936059951782 12.287090301513672 -0.8529758453369141 4456788 6 -1
0.7559716701507568 12.309253692626953 -0.9477509260177612 4456788 6 -1
0.7378966808319092 12.014944076538086 -2.8432528972625732 4456788 0 -1
1.0373843908309937 12.264010429382324 -1.5203920602798462 4456788 6 -1
0.8479337692260742 12.266424179077148 -1.6154165267944336 4456788 0 -1
0.9296866059303284 12.097387313842773 -2.565661668777466 4456788 0 -1
0.9212369918823242 11.987438201904297 -3.0407841205596924 4456788 0 -1
0.9462195038795471 12.312519073486328 -1.140294075012207 4456788 6 -1
1.136236310005188 12.30488109588623 -1.04526948928833 4456788 6 -1
0.757961094379425 12.341647148132324 -0.9502450227737427 4456788 6 -1
1.136236310005188 12.30488109588623 -1.04526948928833 4456788 6 -1
0.8418346047401428 12.178191184997559 -2.185563564300537 4456788 0 -1
0.8565585017204285 12.391191482543945 -0.5716434717178345 4456788 6 -1
0.6659573316574097 12.398138046264648 -0.6669173836708069 4456788 6 -1
0.8562308549880981 12.386451721191406 -0.6669173836708069 4456788 6 -1
0.7613853216171265 12.397403717041016 -0.5716434717178345 4456788 6 -1
1.141136884689331 12.357951164245605 -0.7621912956237793 4456788 6 -1
1.1392185688018799 12.337177276611328 -1.0480129718780518 4456788 6 -1
0.7619898915290833 12.407246589660645 -0.28582173585891724 4456788 6 -1
0.6662122011184692 12.402881622314453 -0.5716434717178345 4456788 6 -1
0.6656631827354431 12.392661094665527 -0.7621912956237793 4456788 6 -1
0.762749433517456 12.419614791870117 -0.7641865611076355 4456788 6 -1
0.7636255025863647 12.433878898620605 -0.4776165783405304 4456788 6 -1
0.7636255025863647 12.433878898620605 -0.4776165783405304 4456788 6 -1
