VERSION .7
FIELDS x y z rgb label object
SIZE 4 4 4 4 4 4
TYPE F F F I I I
COUNT 1 1 1 1 1 1
WIDTH 538
HEIGHT 1
POINTS 538
VIEWPOINT 0 0 0 1 0 0 0
DATA ascii
-1.5542421340942383 2.1269116401672363 0.42948082089424133 3757452 0 -1
-1.5453423261642456 2.1572699546813965 -0.2863205373287201 2782862 7 -1
-1.9741140604019165 1.8180054426193237 -0.31051313877105713 4456788 0 -1
-1.8216770887374878 1.9950391054153442 0 4456788 7 -1
-1.366097331047058 2.330397367477417 -0.04140175133943558 4456788 7 -1
-1.344924807548523 2.341582775115967 -0.08280350267887115 4456788 7 -1
-2.0549449920654297 1.6401876211166382 -0.6210262775421143 4456788 0 -1
-1.862586498260498 1.9559149742126465 -0.062102627009153366 4456788 0 -1
-1.3662577867507935 2.3306710720062256 0 4456788 7 -1
-1.573196291923523 2.1528496742248535 -0.43471840023994446 4456788 7 -1
-1.5769846439361572 2.158033847808838 -0.3933166265487671 4456788 7 -1
-1.3452013731002808 2.342064380645752 -0.062102627009153366 4456788 7 -1
-1.5819430351257324 2.1648192405700684 -0.3312140107154846 4456788 7 -1
-1.573196291923523 2.1528496742248535 -0.43471840023994446 3757452 7 -1
-1.5787336826324463 2.1604273319244385 -0.3726157546043396 3562893 7 -1
-1.5769846439361572 2.158033847808838 -0.3933166265487671 2782862 7 -1
-1.5787336826324463 2.1604273319244385 -0.3726157546043396 2588302 7 -1
-1.4830501079559326 2.2420592308044434 -0.26911139488220215 2588302 7 -1
-1.5803864002227783 2.162688970565796 -0.3519148826599121 2070155 7 -1
-1.6085448265075684 2.157780647277832 -0.4818565249443054 4456788 7 -1
-1.61073637008667 2.1607205867767334 -0.4609062373638153 2588302 7 -1
-1.8491220474243164 2.795482873916626 -0.07706711441278458 4456788 7 -1
-1.8476550579071045 2.7932651042938232 -0.15413422882556915 4456788 7 -1
-1.849393606185913 2.795893430709839 -0.05137807875871658 4456788 7 -1
-2.939591646194458 2.4650659561157227 0.5342322587966919 4456788 0 -1
-3.013939619064331 2.4663658142089844 0.2992897629737854 4456788 0 -1
-3.010021209716797 2.4631590843200684 0.35914772748947144 4456788 0 -1
-1.159203052520752 4.907759666442871 0.1546330451965332 4045940 4 -1
-1.1980894804000854 4.899479389190674 0.1159747838973999 10016830 4 -1
-1.197843074798584 4.898471832275391 0.1546330451965332 10672695 4 -1
-1.235756278038025 4.885987281799316 0.2319495677947998 11197490 4 -1
-1.235283613204956 4.88411808013916 0.2706078290939331 11918891 4 -1
-1.2347379922866821 4.881960868835449 0.3092660903930664 12640037 4 -1
-1.0812867879867554 4.9224772453308105 0.2319495677947998 12640037 4 -1
-1.0584890842437744 4.644362926483154 1.662305235862732 13164576 0 -1
-1.1149942874908447 4.892292499542236 -0.7781534194946289 4147337 0 -1
-1.0839964151382446 4.934813022613525 -0.5057997107505798 3692940 4 -1
-1.1227105855941772 4.926149368286133 -0.5057997107505798 3562893 4 -1
-1.1266982555389404 4.94364595413208 -0.2723536789417267 2264205 4 -1
-1.1277923583984375 4.948446750640869 -0.1556306779384613 2139270 4 -1
-1.1280243396759033 4.949464321136475 -0.11672300845384598 2271109 4 -1
-1.1282893419265747 4.950627326965332 -0.038907669484615326 3651704 4 -1
-1.1282893419265747 4.950627326965332 -0.038907669484615326 4045940 4 -1
-1.2055710554122925 4.930074691772461 0.1556306779384613 10016830 4 -1
-1.2055710554122925 4.930074691772461 0.1556306779384613 10672695 4 -1
-1.1274940967559814 4.947137832641602 0.19453835487365723 12640037 4 -1
-1.166921615600586 4.940438270568848 0.11672300845384598 13164576 4 -1
-1.129002571105957 4.953756809234619 -0.5481991171836853 4212104 4 -1
-1.129002571105957 4.953756809234619 -0.5481991171836853 4147337 4 -1
-1.129002571105957 4.953756809234619 -0.5481991171836853 3887499 4 -1
-1.1307446956634521 4.961400985717773 -0.4698849320411682 3757452 4 -1
-1.1307446956634521 4.961400985717773 -0.4698849320411682 3692940 4 -1
-1.1307446956634521 4.961400985717773 -0.4698849320411682 3562893 4 -1
-1.4460872411727905 4.891377925872803 0.3132566213607788 2328718 4 -1
-1.4851707220077515 4.879652976989746 0.3132566213607788 2264205 4 -1
-1.1730213165283203 4.9662628173828125 -0.27409955859184265 2264205 4 -1
-1.4453626871109009 4.888926982879639 0.35241371393203735 2199437 4 -1
-1.4851707220077515 4.879652976989746 0.3132566213607788 2134668 4 -1
-1.1355218887329102 4.982362270355225 -0.03915707767009735 2139270 4 -1
-1.1355218887329102 4.982362270355225 -0.03915707767009735 2271109 4 -1
-1.1355552673339844 4.982508182525635 0 3651704 4 -1
-1.1355218887329102 4.982362270355225 -0.03915707767009735 4045940 4 -1
-1.135421872138977 4.9819231033325195 -0.0783141553401947 4505456 4 -1
-1.1355218887329102 4.982362270355225 -0.03915707767009735 11918891 4 -1
-1.1352146863937378 4.981013774871826 -0.5910972952842712 4212104 4 -1
-1.1379469633102417 4.993002414703369 -0.4728778302669525 4147337 4 -1
-1.1379469633102417 4.993002414703369 -0.4728778302669525 3887499 4 -1
-1.1387215852737427 4.996401309967041 -0.43347135186195374 3757452 4 -1
-1.1379469633102417 4.993002414703369 -0.4728778302669525 3692940 4 -1
-1.1387215852737427 4.996401309967041 -0.43347135186195374 3562893 4 -1
-1.0631940364837646 5.027863025665283 -0.19703243672847748 3302798 4 -1
-1.1422512531280518 5.01188850402832 -0.1576259434223175 2328718 4 -1
-1.4958630800247192 4.914783477783203 0.23643891513347626 2070922 4 -1
-1.1821599006652832 5.004952907562256 -0.039406485855579376 2271109 4 -1
-1.1426539421081543 5.013655185699463 -0.07881297171115875 3651704 4 -1
-1.1426539421081543 5.013655185699463 -0.07881297171115875 4045940 4 -1
-1.1422512531280518 5.01188850402832 -0.1576259434223175 4505456 4 -1
-1.1821945905685425 5.005099773406982 0 6343264 4 -1
-1.1820557117462158 5.004511833190918 -0.07881297171115875 6933851 4 -1
-1.1424860954284668 5.012918949127197 -0.11821945756673813 7589974 4 -1
-1.2957866191864014 4.957988262176514 0.43347135186195374 10672695 4 -1
-1.1419490575790405 5.010562896728516 0.19703243672847748 10672695 4 -1
-1.2957866191864014 4.957988262176514 0.43347135186195374 11197490 4 -1
-1.1387215852737427 4.996401309967041 0.43347135186195374 11918891 4 -1
-1.2547358274459839 4.961029052734375 0.5122843384742737 12640037 4 -1
-1.100137710571289 5.008295059204102 0.39406487345695496 12640037 4 -1
-1.1451491117477417 5.024603366851807 -0.4758707284927368 4147337 4 -1
-1.1459286212921143 5.028023719787598 -0.4362148344516754 3887499 4 -1
-1.1071006059646606 5.039992809295654 -0.396558940410614 3757452 4 -1
-1.1466399431228638 5.031144618988037 -0.396558940410614 3562893 4 -1
-1.1082769632339478 5.045348167419434 -0.3172471523284912 3432845 4 -1
-1.109549880027771 5.051142692565918 -0.198279470205307 3302798 4 -1
-1.1879643201828003 5.029527187347412 -0.2775912582874298 2458766 4 -1
-1.1884188652038574 5.03145170211792 -0.2379353642463684 2328718 4 -1
-1.1884188652038574 5.03145170211792 -0.2379353642463684 2264205 4 -1
-1.1884188652038574 5.03145170211792 -0.2379353642463684 2199437 4 -1
-1.1884188652038574 5.03145170211792 -0.2379353642463684 2134668 4 -1
-1.1472830772399902 5.033967018127441 -0.3569030463695526 2070155 4 -1
-1.1488049030303955 5.04064416885376 -0.2379353642463684 2070922 4 -1
-1.1879643201828003 5.029527187347412 -0.2775912582874298 2006409 4 -1
2.805549383163452 4.327016353607178 0.4362148344516754 4505456 0 -1
-1.3869372606277466 4.982122898101807 0.198279470205307 4899181 4 -1
2.805549383163452 4.327016353607178 0.4362148344516754 4899181 0 -1
-1.1499872207641602 5.045831680297852 0.0396558940410614 5949540 4 -1
-1.1895371675491333 5.036186218261719 0.0793117880821228 6343264 4 -1
-1.1896419525146484 5.036629676818848 0.0396558940410614 6933851 4 -1
-1.1896768808364868 5.036777496337891 0 7589974 4 -1
-1.303987741470337 4.989367961883545 0.4362148344516754 10672695 4 -1
-1.1483654975891113 5.038715839385986 0.2775912582874298 10672695 4 -1
-1.1472830772399902 5.033967018127441 0.3569030463695526 11197490 4 -1
-1.1846370697021484 5.015440464019775 0.4758707284927368 11918891 4 -1
-1.2626771926879883 4.992428302764893 0.5155266523361206 12640037 4 -1
-1.2626771926879883 4.992428302764893 0.5155266523361206 12640037 4 -1
-1.2605788707733154 4.984131813049316 0.5948384404182434 13164576 4 -1
-1.47610604763031 4.992916107177734 0.11971590667963028 4147337 4 -1
-1.1514980792999268 5.05246114730835 -0.5187689065933228 4147337 4 -1
-1.1152472496032715 5.077079772949219 -0.3192424178123474 3757452 4 -1
-1.155587911605835 5.070405960083008 -0.2793371081352234 3562893 4 -1
-1.1152472496032715 5.077079772949219 -0.3192424178123474 3432845 4 -1
-1.1161669492721558 5.0812668800354 -0.23943181335926056 3302798 4 -1
-1.1567100286483765 5.075329780578613 -0.1596212089061737 2782862 4 -1
-1.1954357624053955 5.061159610748291 -0.2793371081352234 2458766 4 -1
-1.1962801218032837 5.06473445892334 -0.19952651858329773 2328718 4 -1
-1.1954357624053955 5.061159610748291 -0.2793371081352234 2264205 4 -1
-1.1958931684494019 5.063096046447754 -0.23943181335926056 2199437 4 -1
-1.1560300588607788 5.072346210479736 -0.23943181335926056 2070922 4 -1
-1.155587911605835 5.070405960083008 -0.2793371081352234 2666112 4 -1
-1.395208716392517 5.01183557510376 0.23943181335926056 4899181 4 -1
2.824946880340576 4.356932640075684 0.39905303716659546 4899181 0 -1
-1.3960294723510742 5.0147833824157715 -0.1596212089061737 5949540 4 -1
-1.1572197675704956 5.077566623687744 0.039905302226543427 5949540 4 -1
-1.1971238851547241 5.0683064460754395 0.039905302226543427 7589974 4 -1
-1.1560300588607788 5.072346210479736 -0.23943181335926056 8180304 4 -1
-1.1936395168304443 5.053554534912109 0.39905303716659546 11197490 4 -1
-1.2309117317199707 5.033702850341797 0.5187689065933228 11918891 4 -1
-1.272425651550293 5.030972003936768 0.4389583170413971 12640037 4 -1
-1.1912049055099487 5.043247222900391 0.5187689065933228 13164576 4 -1
-1.0276814699172974 5.05504035949707 -0.9235583543777466 4456788 0 -1
-0.8332881927490234 5.111084938049316 0.803094208240509 4456788 0 -1
-1.5236824750900269 5.006186485290527 0.28108298778533936 4212104 4 -1
-1.5242655277252197 5.0081024169921875 0.2409282624721527 2912910 4 -1
-1.2040753364562988 5.0977373123168945 -0.1606188416481018 2328718 4 -1
-1.2037569284439087 5.096388816833496 -0.20077355206012726 2264205 4 -1
-1.2040753364562988 5.0977373123168945 -0.1606188416481018 2199437 4 -1
-1.1639394760131836 5.107050895690918 -0.1606188416481018 2468738 4 -1
-1.1632553339004517 5.104048728942871 -0.2409282624721527 2666112 4 -1
-1.1632553339004517 5.104048728942871 -0.2409282624721527 3257723 4 -1
-1.4050434827804565 5.047163963317871 -0.12046413123607635 5949540 4 -1
-1.4039287567138672 5.043159484863281 0.2409282624721527 6343264 4 -1
-1.2046059370040894 5.0999836921691895 0.04015471041202545 6343264 4 -1
-1.2044998407363892 5.099534511566162 0.0803094208240509 7589974 4 -1
-1.1639394760131836 5.107050895690918 -0.1606188416481018 8180304 4 -1
-1.2386049032211304 5.065163612365723 0.5220112204551697 11918891 4 -1
-1.1586949825286865 5.084038734436035 0.5220112204551697 12640037 4 -1
-1.1995381116867065 5.078527450561523 0.4818565249443054 13164576 4 -1
-1.090622901916504 5.157574653625488 -0.12121235579252243 2977934 4 -1
-1.090622901916504 5.157574653625488 -0.12121235579252243 2912910 4 -1
-1.090879201889038 5.158786773681641 -0.04040411859750748 2588302 4 -1
-1.1311824321746826 5.149623870849609 -0.08080823719501495 2468738 4 -1
-1.1714098453521729 5.139828205108643 -0.12121235579252243 2666112 4 -1
-1.1695159673690796 5.131518363952637 -0.3232329487800598 3257723 4 -1
-1.4107774496078491 5.067761421203613 0.3636370599269867 6343264 4 -1
-1.4121085405349731 5.072542667388916 0.28282883763313293 8180304 4 -1
-1.2121235132217407 5.131811141967773 0 8180304 4 -1
-1.2121235132217407 5.131811141967773 0 8705099 4 -1
-1.0888596773147583 5.14923620223999 0.3232329487800598 11918891 4 -1
-1.1682746410369873 5.126071929931641 0.40404120087623596 12640037 4 -1
-1.2078102827072144 5.113549709320068 0.44444531202316284 13164576 4 -1
-0.8533229827880859 5.233971118927002 -0.162614107131958 4456788 0 -1
-1.0975162982940674 5.190173625946045 -0.081307053565979 2977934 4 -1
-1.0975162982940674 5.190173625946045 -0.081307053565979 2912910 4 -1
-1.0973552465438843 5.189411640167236 -0.1219605803489685 2523534 4 -1
-1.0975162982940674 5.190173625946045 -0.081307053565979 2458766 4 -1
-1.4619795083999634 5.094327926635742 0.243921160697937 2006409 4 -1
3.0027036666870117 4.362001419067383 0.325228214263916 2468738 5 -1
3.074301242828369 4.291668891906738 0.5284958481788635 2666112 5 -1
2.9976558685302734 4.354668617248535 0.4471887946128845 2994813 5 -1
-1.1777056455612183 5.167452812194824 -0.243921160697937 3257723 4 -1
-1.4208252429962158 5.103854656219482 0.2845746874809265 6933851 4 -1
-1.4218287467956543 5.107459545135498 0.2032676339149475 8180304 4 -1
-1.420197606086731 5.101600170135498 0.325228214263916 8705099 4 -1
-1.134952187538147 5.16678524017334 0.406535267829895 12640037 4 -1
-1.1747570037841797 5.154515266418457 0.4471887946128845 13164576 4 -1
-0.9403254985809326 5.252097129821777 0.1636117398738861 4456788 0 -1
-0.7769504189491272 5.279848098754883 0.12270880490541458 4456788 0 -1
-0.9389983415603638 5.244684219360352 -0.3272234797477722 4456788 4 -1
-1.1042495965957642 5.222015380859375 -0.08180586993694305 2977934 4 -1
-1.1043468713760376 5.222475528717041 -0.04090293496847153 2523534 4 -1
-1.145248532295227 5.213658809661865 0.04090293496847153 2458766 4 -1
-1.145248532295227 5.213658809661865 0.04090293496847153 2328718 4 -1
3.058701276779175 4.355748653411865 0.40902936458587646 2666112 5 -1
3.050017833709717 4.343383312225342 0.5726410746574402 2994813 5 -1
2.8628692626953125 4.504752159118652 0.08180586993694305 3257723 5 -1
-1.428194522857666 5.130326271057129 0.36812642216682434 8705099 4 -1
-1.427393913269043 5.127449989318848 0.40902936458587646 9360965 4 -1
-1.1404304504394531 5.1917243003845215 0.4908352196216583 13164576 4 -1
-0.9876272678375244 5.27891731262207 -0.04115234315395355 4456788 4 -1
-1.1109827756881714 5.253857135772705 -0.0823046863079071 2588302 4 -1
-1.1111133098602295 5.25447416305542 0 2523534 4 -1
-1.1521302461624146 5.2449870109558105 0.0823046863079071 2328718 4 -1
3.0344369411468506 4.408100128173828 0.45267578959465027 2468738 5 -1
3.0773518085479736 4.382308006286621 0.4115234315395355 2666112 5 -1
2.92104434967041 4.5051445960998535 0.12345702946186066 2994813 5 -1
2.8803257942199707 4.532219886779785 0.0823046863079071 3257723 5 -1
2.8793106079101562 4.530622959136963 0.1646093726158142 4045940 5 -1
2.7970447540283203 4.5818681716918945 0.1646093726158142 4899181 5 -1
2.7970447540283203 4.5818681716918945 0.1646093726158142 4899181 5 -1
-1.5224579572677612 5.14970064163208 0.0823046863079071 10672695 4 -1
-1.1905767917633057 5.223927974700928 0.37037110328674316 11197490 4 -1
-1.2606533765792847 5.155328750610352 0.823046863079071 11918891 4 -1
-0.7447845935821533 5.0612616539001465 1.7388736009597778 4456788 0 -1
-0.9806938171386719 5.241858005523682 0.8694368004798889 4456788 0 -1
-1.9037834405899048 4.931610107421875 1.1178473234176636 4456788 0 -1
-0.970503568649292 5.187390327453613 1.1592490673065186 4456788 0 -1
-0.7655677795410156 5.20249605178833 1.2420525550842285 4456788 0 -1
2.8499197959899902 4.57535457611084 -0.3726157546043396 4017546 5 -1
2.851348638534546 4.577648162841797 -0.3312140107154846 3887499 5 -1
3.0151326656341553 4.468208312988281 0.3726157546043396 2468738 5 -1
3.0460503101348877 4.424970626831055 0.5796245336532593 2666112 5 -1
2.938143253326416 4.5315165519714355 0.1656070053577423 2994813 5 -1
2.9394381046295166 4.53351354598999 -0.04140175133943558 3257723 5 -1
2.9391791820526123 4.533113956451416 0.08280350267887115 3651704 5 -1
2.896760940551758 4.558081150054932 0.1656070053577423 4045940 5 -1
2.854623556137085 4.5829057693481445 0.20700876414775848 4899181 5 -1
2.8537001609802246 4.581423282623291 0.24841050803661346 5424489 5 -1
-1.344873070716858 5.1458048820495605 0.9522402882575989 9360965 4 -1
-1.2682937383651733 5.186573505401611 0.8280350565910339 11918891 4 -1
-1.278887152671814 5.229894161224365 0.45541927218437195 13164576 4 -1
-1.116665244102478 5.2807297706604 0.24841050803661346 13164576 4 -1
-0.7450388669967651 5.062989711761475 1.8326510190963745 4456788 0 -1
-0.7887065410614014 5.085792064666748 1.749348759651184 4456788 0 -1
-0.9795894622802734 5.235954761505127 1.0829302072525024 4456788 0 -1
-1.2035853862762451 5.281006336212158 0.45816275477409363 4456788 4 -1
-1.2050080299377441 5.287248134613037 0.3748604357242584 4456788 4 -1
2.8282017707824707 4.632906913757324 -0.2915581166744232 4147337 5 -1
2.865480661392212 4.60033655166626 -0.416511595249176 4017546 5 -1
2.865480661392212 4.60033655166626 -0.416511595249176 3887499 5 -1
2.861755132675171 4.59435510635376 -0.49981391429901123 3757452 5 -1
2.8301994800567627 4.636179447174072 -0.208255797624588 3238030 5 -1
2.869792938232422 4.607259273529053 -0.2915581166744232 3107982 5 -1
2.8718199729919434 4.610513687133789 -0.208255797624588 2977934 5 -1
-3.811910390853882 3.5905075073242188 -1.4577906131744385 2006409 0 -1
-3.6078367233276367 3.708822250366211 -1.666046380996704 2006409 0 -1
2.8738455772399902 4.613765716552734 0.0416511595249176 2006409 5 -1
2.9142115116119385 4.5855393409729 0.1666046380996704 2666112 5 -1
2.9974746704101562 4.53154993057251 0.1666046380996704 2994813 5 -1
2.998795509338379 4.5335469245910645 0.0416511595249176 3257723 5 -1
2.9988834857940674 4.533679962158203 0 3651704 5 -1
2.9142115116119385 4.5855393409729 0.1666046380996704 4899181 5 -1
2.8282017707824707 4.632906913757324 0.2915581166744232 5949540 5 -1
-1.3119754791259766 5.1873459815979 0.9579766988754272 9360965 4 -1
-1.2774291038513184 5.223931789398193 0.7913720607757568 11918891 4 -1
2.8826394081115723 4.627883434295654 -0.41900569200515747 4017546 5 -1
2.918452024459839 4.592212200164795 -0.5447073578834534 3757452 5 -1
2.886977434158325 4.634847640991211 -0.2933039665222168 3238030 5 -1
2.885702133178711 4.632800579071045 -0.335204541683197 3107982 5 -1
2.885702133178711 4.632800579071045 -0.335204541683197 2977934 5 -1
2.845137119293213 4.660648822784424 -0.2933039665222168 2782862 5 -1
2.891139268875122 4.641529083251953 0 2006409 5 -1
2.9735426902770996 4.586112976074219 0.1676022708415985 2666112 5 -1
3.0573043823242188 4.530704021453857 0.1676022708415985 2994813 5 -1
3.0160436630249023 4.559622764587402 0.12570171058177948 3257723 5 -1
2.84714674949646 4.663940906524658 0.20950284600257874 3651704 5 -1
3.0160436630249023 4.559622764587402 0.12570171058177948 3651704 5 -1
-0.8349428772926331 5.383935928344727 -0.7586995959281921 4456788 0 -1
-1.1283528804779053 5.335999965667725 -0.7165495753288269 4456788 0 -1
-0.9140290021896362 5.344547271728516 -0.9272994995117188 4456788 0 -1
-0.7572727799415588 5.438046932220459 -0.3371998071670532 4456788 0 -1
-1.178951382637024 5.367088317871094 0.2528998553752899 4456788 4 -1
2.8997979164123535 4.655430316925049 -0.42149975895881653 4017546 5 -1
2.8979990482330322 4.652542591094971 -0.4636497497558594 3757452 5 -1
2.905273199081421 4.664220333099365 -0.2528998553752899 3238030 5 -1
2.902878999710083 4.66037654876709 -0.3371998071670532 3107982 5 -1
2.8608083724975586 4.686319828033447 -0.3371998071670532 2977934 5 -1
2.8640940189361572 4.691702365875244 -0.21074987947940826 2782862 5 -1
2.6422412395477295 4.793519973754883 -0.5479496717453003 2072968 5 -1
2.6547467708587646 4.816206932067871 0.12644992768764496 2666112 5 -1
2.865441083908081 4.69390869140625 0.12644992768764496 2666112 5 -1
3.025876045227051 4.574487209320068 0.42149975895881653 5424489 5 -1
-1.1338424682617188 5.3619608879089355 -0.763188898563385 4456788 0 -1
2.868818521499634 4.699441432952881 -0.5511919856071472 3757452 5 -1
2.9234097003936768 4.693337440490723 -0.211996927857399 3238030 5 -1
2.920055866241455 4.687952995300293 -0.3391950726509094 3107982 5 -1
2.8762941360473633 4.7116875648498535 -0.3815944492816925 2977934 5 -1
2.9676084518432617 4.669559955596924 -0.08479876816272736 2912910 5 -1
3.0071730613708496 4.637981414794922 -0.25439631938934326 2458766 5 -1
2.7982771396636963 4.773523807525635 -0.04239938408136368 2006409 5 -1
2.7558791637420654 4.798126220703125 0.04239938408136368 2072968 5 -1
2.755959987640381 4.798266887664795 0 2271109 5 -1
2.755636215209961 4.797703742980957 0.08479876816272736 2468738 5 -1
2.755959987640381 4.798266887664795 0 2666112 5 -1
2.821932554244995 4.717085361480713 0.6359907388687134 6343264 5 -1
3.0375723838806152 4.592169761657715 0.5511919856071472 6343264 5 -1
-1.0924724340438843 5.16632080078125 1.6535760164260864 11918891 0 -1
-1.1041711568832397 5.431283473968506 0.5117855072021484 4456788 4 -1
3.259183883666992 4.460049152374268 0.6823806762695312 4456788 5 -1
3.059786081314087 4.625751972198486 0.46913671493530273 4456788 5 -1
4.317907333374023 3.359753131866455 1.0235710144042969 4456788 0 -1
2.941988945007324 4.723165512084961 -0.1279463768005371 4017546 5 -1
2.8237156867980957 4.720066070556641 -0.8529758453369141 3887499 0 -1
2.8915915489196777 4.736746311187744 -0.42648792266845703 2977934 5 -1
-1.2355071306228638 5.421070098876953 -0.2558927536010742 2328718 4 -1
2.772090196609497 4.826350212097168 0.0426487922668457 2072968 5 -1
2.7714390754699707 4.825216770172119 0.1279463768005371 2139270 5 -1
2.771846055984497 4.825925350189209 0.0852975845336914 2271109 5 -1
2.7714390754699707 4.825216770172119 0.1279463768005371 2468738 5 -1
2.772090196609497 4.826350212097168 0.0426487922668457 2666112 5 -1
2.729442596435547 4.8505964279174805 0.0426487922668457 4505456 5 -1
2.7626919746398926 4.712819576263428 1.0662198066711426 5424489 0 -1
2.8946640491485596 4.741779327392578 0.3411903381347656 6343264 5 -1
2.788055658340454 4.854146957397461 0.08579640090465546 4456788 5 -1
3.1108152866363525 4.610003471374512 0.6434730291366577 4456788 5 -1
3.2414498329162598 4.525005340576172 0.600574791431427 4456788 5 -1
3.0385210514068604 4.6863298416137695 0.38608381152153015 4456788 5 -1
3.348926305770874 4.403629302978516 0.8579639792442322 4456788 0 -1
-1.2150843143463135 5.144346237182617 1.8446226119995117 4456788 0 -1
2.7617340087890625 4.808320045471191 -0.7721676230430603 3887499 0 -1
2.7617340087890625 4.808320045471191 -0.7721676230430603 3887499 0 -1
2.90256929397583 4.7547287940979 -0.5576766133308411 2977934 5 -1
2.7883012294769287 4.854574680328369 -0.04289820045232773 2139270 5 -1
2.788055658340454 4.854146957397461 0.08579640090465546 2271109 5 -1
2.7883012294769287 4.854574680328369 0.04289820045232773 2468738 5 -1
2.7883830070495605 4.854717254638672 0 2666112 5 -1
2.7876462936401367 4.8534345626831055 0.1286945939064026 2994813 5 -1
2.7870728969573975 4.852436542510986 0.1715928018093109 4045940 5 -1
2.7447593212127686 4.877816200256348 0.1286945939064026 4505456 5 -1
2.828287363052368 4.8247175216674805 0.2573891878128052 5424489 5 -1
2.7817447185516357 4.8431596755981445 0.38608381152153015 5949540 5 -1
2.783139228820801 4.845587730407715 0.3431856036186218 6343264 5 -1
2.803277015686035 4.880648136138916 -0.172590434551239 4456788 5 -1
3.059070348739624 4.71802282333374 0.3020332455635071 4456788 5 -1
3.2730515003204346 4.569120407104492 0.345180869102478 4456788 5 -1
2.890550374984741 4.831785202026367 -0.0862952172756195 4456788 5 -1
3.3535373210906982 4.498599052429199 0.4746236801147461 4456788 5 -1
2.890889883041382 4.832352638244629 0 4456788 5 -1
3.1385672092437744 4.651129245758057 0.4746236801147461 4456788 5 -1
3.1062629222869873 4.696015357971191 0.0862952172756195 2588302 5 -1
2.847407817840576 4.857334613800049 -0.0862952172756195 2666112 5 -1
2.8038535118103027 4.881651878356934 0.12944282591342926 2994813 5 -1
2.757471799850464 4.9004082679748535 0.3020332455635071 3651704 5 -1
2.8025355339050293 4.87935733795166 0.21573804318904877 4045940 5 -1
2.7594194412231445 4.90386962890625 0.21573804318904877 6343264 5 -1
2.8038535118103027 4.881651878356934 0.12944282591342926 6933851 5 -1
2.8038535118103027 4.881651878356934 0.12944282591342926 9360965 5 -1
2.8045122623443604 4.88279914855957 0.04314760863780975 10016830 5 -1
2.770796775817871 4.924088478088379 0.3905731439590454 3651704 5 -1
2.8155014514923096 4.9019317626953125 0.34717613458633423 4045940 5 -1
2.774472236633301 4.930620193481445 0.2603820860385895 6933851 5 -1
2.8178234100341797 4.905974388122559 0.2603820860385895 9360965 5 -1
2.8140904903411865 4.899475574493408 0.3905731439590454 10016830 5 -1
2.6905360221862793 4.983537197113037 0.04339701682329178 10672695 5 -1
2.7224299907684326 4.938997268676758 0.520764172077179 11197490 5 -1
2.7867209911346436 4.952388286590576 0.39281782507896423 3651704 5 -1
2.8776180744171143 4.908869743347168 0.2618785500526428 4045940 5 -1
2.7893500328063965 4.95706033706665 0.3055249750614166 6933851 5 -1
2.7920589447021484 4.961874008178711 0.17458570003509521 8705099 5 -1
2.8316824436187744 4.930103778839111 0.34917140007019043 9360965 5 -1
2.783431053161621 4.9465413093566895 0.48011067509651184 10016830 5 -1
2.783431053161621 4.9465413093566895 0.48011067509651184 10016830 5 -1
2.5690083503723145 5.0687432289123535 -0.39281782507896423 11197490 5 -1
2.917348623275757 4.876580715179443 0.39281782507896423 11197490 5 -1
2.7457666397094727 4.9813337326049805 -0.3055249750614166 11918891 5 -1
2.574458599090576 5.079496383666992 0.1309392750263214 13164576 5 -1
3.7389631271362305 4.267786026000977 -0.7901250123977661 4456788 0 -1
2.592526435852051 5.007758617401123 -1.0096042156219482 4456788 0 -1
2.831705331802368 4.930143356323242 -0.7023333311080933 4456788 0 -1
3.825915575027466 4.190013408660889 -0.7901250123977661 4456788 0 -1
2.675126552581787 4.954995155334473 -1.0534999370574951 4456788 0 -1
2.9354898929595947 4.906905651092529 0.35116666555404663 10016830 5 -1
2.7588539123535156 5.005076885223389 0.39506250619888306 10672695 5 -1
3.3847837448120117 4.631927013397217 0.5297428965568542 4456788 5 -1
3.664397716522217 4.3571553230285645 -0.8829048275947571 4456788 0 -1
2.654322385787964 5.020307540893555 -0.9711952805519104 4456788 0 -1
2.795193672180176 4.967444896697998 -0.8387596011161804 4456788 0 -1
3.698646068572998 4.309168338775635 -0.9711952805519104 4456788 0 -1
2.1960878372192383 5.055221080780029 -1.6775192022323608 4456788 0 -1
2.4442601203918457 5.034374713897705 -1.3685024976730347 4456788 0 -1
2.7449088096618652 4.979777812957764 -0.9270500540733337 4456788 0 -1
2.574613094329834 5.079801559448242 1.0654715299606323 4456788 0 -1
1.7653802633285522 5.193749904632568 1.8645752668380737 4456788 0 -1
2.7321362495422363 4.756788730621338 1.8645752668380737 4456788 0 -1
2.822711706161499 4.815206050872803 1.5538127422332764 4456788 0 -1
3.034580945968628 4.587646961212158 1.8201806545257568 4456788 0 -1
3.410249948501587 4.666776180267334 -0.3995518386363983 4456788 0 -1
3.3933682441711426 4.552030086517334 -1.1542608737945557 4456788 0 -1
3.529371976852417 4.4586968421936035 -1.1098662614822388 4456788 0 -1
2.814103364944458 5.001049995422363 -0.7991036772727966 4456788 0 -1
4.072299957275391 4.097259044647217 -0.4439464807510376 4456788 0 -1
3.2270803451538086 4.782299518585205 -0.5327357649803162 12640037 0 -1
2.6834352016448975 4.9703850746154785 1.428609848022461 4456788 0 -1
2.9165611267089844 4.682342529296875 1.87505042552948 4456788 0 -1
1.5774222612380981 5.496592998504639 1.1161013841629028 4456788 0 -1
2.789275646209717 4.856271266937256 1.6071860790252686 4456788 0 -1
3.0348849296569824 4.588106632232666 1.919694423675537 4456788 0 -1
3.0781784057617188 4.941808223724365 -0.22322028875350952 4456788 5 -1
4.2645134925842285 3.9272851943969727 -0.5803727507591248 4456788 0 -1
2.9242801666259766 4.98846960067749 -0.7143049240112305 4456788 0 -1
3.142721176147461 4.8470377922058105 0.7589489817619324 4899181 5 -1
3.1043736934661865 4.884761333465576 0.6696608662605286 6343264 5 -1
3.0541937351226807 4.903302192687988 0.7589489817619324 7589974 5 -1
2.7122418880462646 4.92051362991333 1.6610581874847412 4456788 0 -1
1.8226264715194702 5.222867012023926 1.9304189682006836 4456788 0 -1
3.1690430641174316 4.88763427734375 0.6285085082054138 6343264 5 -1
3.105421781539917 4.886411190032959 0.8978692889213562 6933851 5 -1
3.1188361644744873 4.90751838684082 0.7182954549789429 7589974 5 -1
3.061058759689331 4.914323806762695 0.8978692889213562 8180304 5 -1
3.126333236694336 4.919315338134766 0.8577145934104919 6933851 5 -1
3.12980055809021 4.924771308898926 0.8125717043876648 7589974 5 -1
2.912151336669922 5.070204257965088 0.7222859859466553 13164576 5 -1
3.1503868103027344 4.9571638107299805 0.7716687917709351 6933851 5 -1
2.970364809036255 5.067084312438965 0.7716687917709351 7589974 5 -1
3.1436057090759277 4.946493625640869 0.8624533414840698 7589974 5 -1
2.9309449195861816 5.102924823760986 0.6808842420578003 13164576 5 -1
3.088198661804199 5.058810710906982 0.5933419466018677 10016830 5 -1
2.8961799144744873 5.14691162109375 0.7759087085723877 13164576 5 -1
3.5794005393981934 4.801583290100098 0.04589109867811203 4456788 0 -1
3.0714523792266846 5.1341776847839355 0.275346577167511 10016830 5 -1
2.824230670928955 4.9171295166015625 -1.9274260997772217 13164576 0 -1
3.1040985584259033 4.983421325683594 1.3380746841430664 4456788 0 -1
-4.537637710571289 3.897587537765503 -0.692107617855072 3651704 0 -1
-4.5595479011535645 3.823519706726074 -0.9228101372718811 6933851 0 -1
-4.250264644622803 4.09346342086792 -1.199653148651123 6933851 0 -1
2.968269109725952 5.063509464263916 1.4844772815704346 4456788 0 -1
-4.608248233795166 3.864358425140381 -0.6958487033843994 3651704 0 -1
-4.497774600982666 3.9555742740631104 -0.8814083933830261 4899181 0 -1
-4.589565753936768 3.848691701889038 -0.8814083933830261 6343264 0 -1
-4.612045764923096 3.774127244949341 -1.0669680833816528 6933851 0 -1
-4.521955966949463 3.9768407344818115 -0.886147141456604 4899181 0 -1
-4.505243301391602 3.9621429443359375 -1.0260651111602783 5949540 0 -1
-4.603156089782715 3.860088348388672 -0.9794257879257202 6343264 0 -1
-4.669111251831055 3.726726531982422 -1.1659830808639526 7589974 0 -1
-4.193632125854492 3.9500579833984375 -2.0631041526794434 4017546 0 -1
-4.581494331359863 3.935257911682129 -0.9846633672714233 5424489 0 -1
-4.499748229980469 4.050246238708496 -0.8908858895301819 5949540 0 -1
-4.56857967376709 4.017843723297119 -0.6564422249794006 6343264 0 -1
-4.40546989440918 4.242942810058594 -0.18755492568016052 6343264 0 -1
-4.215938568115234 3.971068859100342 -2.07407808303833 4017546 0 -1
-4.533987522125244 3.987421751022339 -1.1784534454345703 5424489 0 -1
-4.39755916595459 4.235323905944824 -0.7542102336883545 5949540 0 -1
-4.670448303222656 3.7277939319610596 -1.7149304151535034 13164576 0 -1
-1.3804574012756348 6.057072639465332 0.23818477988243103 13164576 4 -1
-5.3557448387146 4.600297451019287 -1.3779799938201904 2072968 0 -1
-5.341193675994873 4.697320461273193 -1.2734780311584473 2072968 0 -1
-5.341304302215576 4.697417736053467 -1.4460684061050415 2458766 0 -1
-2.6730058193206787 6.444565296173096 2.002248525619507 2458766 0 -1
-5.36525297164917 4.718479633331299 -1.2792143821716309 2072968 0 -1
-5.365256309509277 4.718482494354248 -1.4525530338287354 2458766 0 -1
-2.6969099044799805 6.502197265625 1.8994923830032349 2458766 0 -1
-4.980388641357422 4.903224945068359 -2.188556432723999 3238030 0 -1
-5.271476745605469 4.636007785797119 -2.1982834339141846 3887499 0 -1
-4.8824615478515625 5.019124507904053 -2.2546496391296387 3887499 0 -1
-5.217686176300049 4.696465492248535 -2.1982834339141846 3302798 0 -1
-5.330830097198486 4.798306941986084 -1.6346209049224854 2782862 0 -1
-0.05379058048129082 7.019839286804199 -2.1982834339141846 10016830 0 -1
-5.564753532409668 4.893930435180664 -0.39805540442466736 2718350 0 -1
-5.583892345428467 4.910762310028076 -0.5140301585197449 2718350 0 -1
-5.608275890350342 4.932206630706787 -0.5162748694419861 3302798 0 -1
-5.791964054107666 5.455556392669678 -1.36077082157135 10672695 0 -1
-5.5521955490112305 5.830399036407471 -0.9315394163131714 10672695 0 -1
5.171727180480957 6.53350305557251 0 4456788 6 -1
4.771076679229736 6.794260025024414 1.0255662202835083 4456788 6 -1
4.756122589111328 6.7729644775390625 1.2178599834442139 4456788 6 -1
4.380485534667969 7.032574653625488 1.1537621021270752 4456788 6 -1
4.749647617340088 6.630422115325928 1.8588389158248901 4456788 0 -1
4.7902350425720215 6.821542739868164 -0.7050768136978149 3432845 6 -1
4.7902350425720215 6.821542739868164 -0.7050768136978149 3302798 6 -1
4.800421714782715 6.836048603057861 -0.44868525862693787 3238030 6 -1
4.7983012199401855 6.833029270172119 -0.5127831101417542 2523534 6 -1
4.793208599090576 6.82577657699585 -0.6409789323806763 6343264 6 -1
4.771076679229736 6.794260025024414 -1.0255662202835083 10672695 0 -1
4.7834320068359375 6.811854839324951 -0.8332725763320923 11197490 0 -1
4.478318691253662 7.046677589416504 0.9008622169494629 4456788 6 -1
4.813850402832031 6.720047473907471 1.4799878597259521 4456788 0 -1
5.103923320770264 6.578442096710205 1.0939041376113892 4456788 6 -1
4.362752437591553 7.146669864654541 0.6434730291366577 4456788 6 -1
5.042751789093018 6.3705668449401855 2.1234610080718994 4456788 0 -1
4.769040584564209 6.791360378265381 1.2869460582733154 4456788 6 -1
4.710967063903809 6.843580722808838 1.222598671913147 4456788 6 -1
4.971121311187744 6.6685051918029785 1.158251404762268 4456788 6 -1
4.538381099700928 6.999573230743408 0.9652094841003418 4456788 6 -1
4.4852294921875 7.057551383972168 0.7721676230430603 4456788 6 -1
4.779924392700195 6.806859493255615 1.158251404762268 4456788 6 -1
4.474460124969482 7.0406060218811035 0.9652094841003418 4456788 6 -1
5.027909755706787 6.480468273162842 1.8017244338989258 4456788 0 -1
4.744755744934082 6.892665386199951 -0.7078202962875366 4212104 6 -1
4.808874130249023 6.848085403442383 -0.7078202962875366 3432845 6 -1
4.90228271484375 6.8434977531433105 0.452176958322525 4456788 6 -1
4.444068908691406 7.134653568267822 0.6459670662879944 4456788 6 -1
4.889117240905762 6.6905412673950195 1.5503209829330444 4456788 0 -1
2.8369100093841553 7.921817302703857 0.5167736411094666 4456788 0 -1
3.1442623138427734 7.761768817901611 0.968950629234314 4456788 0 -1
4.555971622467041 7.026703357696533 0.968950629234314 4456788 6 -1
4.921213150024414 6.601555824279785 1.8087078332901 4456788 0 -1
3.3193509578704834 7.640884876251221 1.2919341325759888 4456788 0 -1
4.723691940307617 6.86206579208374 1.2919341325759888 4456788 6 -1
5.114015579223633 6.331940650939941 2.1962881088256836 4456788 0 -1
4.832508563995361 6.746094226837158 1.4857243299484253 4456788 0 -1
4.56693696975708 7.043615341186523 0.7751604914665222 4456788 6 -1
4.555971622467041 7.026703357696533 0.968950629234314 4456788 6 -1
4.851358890533447 6.772408962249756 1.2919341325759888 4456788 6 -1
5.0406599044799805 6.367923736572266 2.2608847618103027 4456788 0 -1
4.7687764167785645 6.927559852600098 -0.5813703536987305 4212104 6 -1
4.844610691070557 6.8989763259887695 -0.06459670513868332 4147337 6 -1
4.81679630279541 6.859367370605469 -0.90435391664505 3432845 0 -1
2.788055658340454 7.989373683929443 0.1296922266483307 4456788 0 -1
3.2113187313079834 7.742426872253418 1.1672301292419434 4456788 0 -1
4.907994270324707 6.716373443603516 1.5563068389892578 4456788 0 -1
5.196367263793945 6.305309772491455 2.204767942428589 4456788 0 -1
4.7873358726501465 6.817413806915283 1.4914606809616089 4456788 0 -1
3.161656379699707 7.804707050323486 0.8429995179176331 4456788 0 -1
4.595416069030762 7.087538242340088 0.5187689065933228 4456788 6 -1
4.978829383850098 6.678845405578613 1.4914606809616089 4456788 0 -1
2.852475166320801 7.9652814865112305 0.19453835487365723 4456788 0 -1
4.5775065422058105 7.0599164962768555 0.9078456163406372 4456788 6 -1
5.08184289932251 6.419951438903809 2.1399219036102295 4456788 0 -1
4.787188529968262 6.9543070793151855 -0.5836150646209717 4212104 6 -1
4.893059253692627 6.695935249328613 1.6859990358352661 2912910 0 -1
4.100897789001465 7.439795017242432 -0.06509552150964737 4456788 0 -1
4.478385925292969 7.189747333526611 0.6509552597999573 4456788 6 -1
4.848087787628174 6.767842769622803 1.69248366355896 4456788 0 -1
4.034026622772217 7.472013473510742 -0.2603820860385895 4456788 0 -1
4.485125541687012 7.200567245483398 0.45566868782043457 4456788 6 -1
4.116730690002441 7.468519687652588 0 4456788 0 -1
4.489699840545654 7.207910537719727 0.7841392159461975 4456788 6 -1
5.2147932052612305 6.456718921661377 1.9603480100631714 4456788 0 -1
4.498066425323486 7.22134256362915 0.5881044268608093 4456788 6 -1
4.447301864624023 7.2851715087890625 0.6559433937072754 4456788 6 -1
-6.3249430656433105 5.824780464172363 -1.4705103635787964 10672695 0 -1
-6.364635944366455 5.861334800720215 -1.3418158292770386 10016830 0 -1
-6.584832191467285 5.521871089935303 -1.677269697189331 10672695 0 -1
-6.348543643951416 5.846514701843262 -1.4759973287582397 10672695 0 -1
-6.348543643951416 5.846514701843262 -1.4759973287582397 10672695 0 -1
-6.3721442222595215 5.86824893951416 -1.4814844131469727 11197490 0 -1
-13.700567245483398 5.204784870147705 3.2193603515625 4212104 0 -1
-12.787129402160645 6.592011451721191 4.3786091804504395 3107982 0 -1
7.315316677093506 12.736339569091797 -3.2263436317443848 3107982 0 -1
8.539910316467285 12.161273956298828 -2.3045313358306885 3107982 0 -1
14.078941345214844 4.993350982666016 1.7283984422683716 3107982 0 -1
