VERSION .7
FIELDS x y z rgb label object
SIZE 4 4 4 4 4 4
TYPE F F F I I I
COUNT 1 1 1 1 1 1
WIDTH 685
HEIGHT 1
POINTS 685
VIEWPOINT 0 0 0 1 0 0 0
DATA ascii
-2.931044578552246 2.222014904022217 0 2070155 0 -1
-2.738413095474243 2.40830135345459 0.47911304235458374 2070155 0 -1
-0.9729629158973694 3.390329599380493 1.0427753925323486 2070155 0 -1
-2.7745838165283203 2.4401116371154785 0.3411903381347656 4456788 0 -1
-2.772529363632202 2.438304901123047 0.3696228563785553 4456788 0 -1
-2.808119058609009 2.4120235443115234 0.2558927536010742 4456788 0 -1
-2.9568960666656494 2.2416129112243652 -0.02843252755701542 4456788 0 -1
-2.652495861053467 2.5546398162841797 0.4549204409122467 4456788 0 -1
-2.790837287902832 2.397179365158081 0.48335298895835876 4456788 0 -1
-2.806544780731201 2.4106714725494385 0.2843252718448639 4657508 0 -1
-2.8008205890655518 2.405754566192627 0.3696228563785553 4729209 0 -1
-2.8095266819000244 2.4132328033447266 0.22746022045612335 4471684 0 -1
-2.8048038482666016 2.4091761112213135 0.31275781989097595 3562893 0 -1
-2.9264004230499268 2.277024984359741 0.14216263592243195 2264205 0 -1
-2.7653682231903076 2.432007074356079 0.4549204409122467 2070155 0 -1
-2.9181292057037354 2.2705893516540527 0.31275781989097595 5424489 0 -1
-2.571181058883667 2.586939573287964 0.6823806762695312 5424489 0 -1
-2.8311636447906494 2.4318177700042725 0.28681936860084534 4456788 0 -1
-2.8274827003479004 2.4286558628082275 0.3441832363605499 4456788 0 -1
-2.834171772003174 2.434401512145996 0.22945548593997955 4456788 0 -1
-2.981519937515259 2.260280132293701 -0.11472774296998978 4456788 0 -1
-2.680544137954712 2.581653118133545 0.4015471041202545 4456788 0 -1
-2.8123741149902344 2.4156785011291504 0.5162748694419861 4456788 0 -1
-2.8253891468048096 2.4268577098846436 0.3728651702404022 4657508 0 -1
-2.8231263160705566 2.4249141216278076 0.4015471041202545 4729209 0 -1
-2.9544131755828857 2.2397305965423584 0.5162748694419861 3562893 0 -1
-2.8274827003479004 2.4286558628082275 0.3441832363605499 2977934 0 -1
-2.981519937515259 2.260280132293701 0.11472774296998978 2264205 0 -1
-2.8123741149902344 2.4156785011291504 0.5162748694419861 2070155 0 -1
-2.867856740951538 2.4049110412597656 0.05736387148499489 5424489 0 -1
-2.85206937789917 2.449774742126465 0.34717613458633423 4456788 0 -1
-3.1237595081329346 2.1191556453704834 -0.08679403364658356 4456788 0 -1
-2.9785284996032715 2.3175857067108154 0.11572537571191788 4456788 0 -1
-2.8345224857330322 2.4928250312805176 0.08679403364658356 4456788 0 -1
-2.7302632331848145 2.5716843605041504 0.4339701533317566 4456788 0 -1
-2.5950753688812256 2.667712926864624 0.6364895701408386 4456788 0 -1
-2.8111603260040283 2.4146358966827393 0.723283588886261 4456788 0 -1
-2.839799165725708 2.439235210418701 0.4918328523635864 4456788 0 -1
-2.833686590194702 2.4339847564697266 0.5496955513954163 4456788 0 -1
-2.836829423904419 2.4366843700408936 0.520764172077179 4523353 0 -1
-2.836829423904419 2.4366843700408936 0.520764172077179 4657508 0 -1
-2.9575445652008057 2.2421045303344727 0.6943522691726685 3562893 0 -1
-2.759345054626465 2.4267101287841797 0.8679403066635132 3562893 0 -1
-2.847675323486328 2.446000337600708 0.40503883361816406 2977934 0 -1
-3.1526832580566406 2.075881242752075 -0.08679403364658356 2264205 0 -1
-3.0074462890625 2.279934883117676 0.11572537571191788 2264205 0 -1
-2.8628575801849365 2.459040880203247 -0.11572537571191788 2264205 0 -1
-2.88360595703125 2.4181177616119385 0.5836150646209717 4456788 0 -1
-2.6411359310150146 2.600215435028076 0.8754225969314575 4456788 0 -1
-2.91908860206604 2.388747453689575 0.5252535343170166 4456788 0 -1
-2.79709792137146 2.517681837081909 0.5836150646209717 4456788 0 -1
-2.6506147384643555 2.6095471382141113 0.8170610666275024 4456788 0 -1
-2.8512492179870605 2.4490699768066406 0.6127958297729492 4456788 0 -1
-3.023998975753784 2.292483329772949 0.320988267660141 4523353 0 -1
-2.80037522315979 2.520631790161133 0.5544342994689941 4523353 0 -1
-2.655097246170044 2.6139602661132812 0.7878803014755249 4523353 0 -1
-2.816455125808716 2.5351052284240723 0.37934979796409607 4728182 0 -1
-1.9418773651123047 3.3126087188720703 -0.08829048275947571 4456788 0 -1
-3.584273099899292 0.8481206893920898 1.0889159440994263 4456788 0 -1
-3.655132532119751 0.9863348007202148 0.6474635601043701 4456788 0 -1
3.1773650646209717 2.0285651683807373 -0.7357540130615234 4456788 0 -1
-2.823221206665039 2.5999670028686523 -0.14715079963207245 4456788 0 -1
-2.3488078117370605 3.0273759365081787 0.2648714482784271 4456788 0 -1
3.185075044631958 1.9695018529891968 -0.8534746766090393 4456788 0 -1
-2.489495038986206 2.9601361751556396 -0.20775698125362396 4456788 0 -1
-2.806941509246826 2.5265421867370605 -0.8607075214385986 4456788 0 -1
-2.7508480548858643 2.5333170890808105 -1.0091053247451782 4724328 0 -1
-2.5410468578338623 3.341317892074585 -0.09652095288038254 4456788 0 -1
-2.5405242443084717 3.3406307697296143 0.1286945939064026 4456788 0 -1
-2.5416438579559326 3.3421027660369873 0.03217364847660065 4523353 0 -1
-2.5611207485198975 3.3677139282226562 0.06484611332416534 4456788 0 -1
-2.5613465309143066 3.3680105209350586 0.03242305666208267 4523353 0 -1
-4.523020267486572 2.7054545879364014 -0.6098029017448425 4456788 0 -1
-4.295591354370117 2.914125442504883 1.0976452827453613 4726897 0 -1
-3.799964189529419 3.263965368270874 1.7481017112731934 4726897 0 -1
4.805708885192871 2.1638755798339844 0.6098029017448425 4726897 0 -1
4.947681427001953 1.6237499713897705 1.0163382291793823 4726897 0 -1
-4.956787109375 1.4874687194824219 1.3088939189910889 4456788 0 -1
-4.53231954574585 2.711016893386841 -0.7771557569503784 4456788 0 -1
-3.8832027912139893 3.2563540935516357 1.6770203113555908 4726897 0 -1
5.010375022888184 1.5035498142242432 1.063476324081421 4726897 0 -1
-4.875179290771484 1.5999559164047241 1.4725056886672974 4536450 0 -1
-4.00091552734375 3.1933953762054443 1.5134086608886719 4536450 0 -1
4.844391345977783 2.0711259841918945 0.8589616417884827 4536450 0 -1
4.768613815307617 2.356562376022339 0.4499322772026062 3757452 0 -1
4.9854631423950195 1.6361494064331055 0.9816704392433167 3757452 0 -1
-4.26719331741333 2.979854106903076 1.1861851215362549 3562893 0 -1
-3.8055388927459717 3.3467867374420166 1.6770203113555908 3562893 0 -1
-0.9933062195777893 5.089306831359863 -1.2679909467697144 3562893 0 -1
1.595167636871338 5.094042778015137 0.04090293496847153 3562893 0 -1
4.937889575958252 1.7513117790222168 1.0225733518600464 3562893 0 -1
5.090541362762451 1.204538106918335 1.063476324081421 3562893 0 -1
-4.528990268707275 2.800516366958618 -0.6995898485183716 4456788 0 -1
-4.015662670135498 3.2051658630371094 1.5637890100479126 4726897 0 -1
4.908173561096191 1.983492374420166 0.9053515791893005 4536450 0 -1
-4.763678073883057 1.9250987768173218 1.5637890100479126 3562893 0 -1
-4.3217549324035645 3.0179555416107178 1.02880859375 3562893 0 -1
-3.8581855297088623 3.3930869102478027 1.5637890100479126 3562893 0 -1
4.677574634552002 2.606724500656128 0.4115234315395355 3562893 0 -1
5.023019790649414 1.648474931716919 0.9465038776397705 3562893 0 -1
5.023019790649414 1.648474931716919 0.9465038776397705 3562893 0 -1
-4.9268083572387695 2.2184031009674072 0 4456788 0 -1
4.586952209472656 2.8363571166992188 -0.3312140107154846 4456788 0 -1
-4.565138816833496 2.822868824005127 -0.6210262775421143 4456788 0 -1
-4.0857439041137695 3.2611026763916016 1.3662577867507935 4726897 0 -1
-5.166932106018066 1.0276215076446533 1.2006508111953735 4726897 0 -1
-3.2306931018829346 4.081371784210205 1.4490612745285034 4536450 0 -1
-4.049706935882568 3.2323391437530518 1.5318647623062134 3757452 0 -1
-4.966982841491699 1.6300843954086304 1.3662577867507935 3562893 0 -1
-4.439707279205322 3.0118935108184814 0.874674379825592 4456788 0 -1
-3.0495283603668213 4.257086277008057 1.4577906131744385 4456788 0 -1
-4.915675163269043 1.475131630897522 1.7909998893737793 4456788 0 -1
4.922430992126465 1.989254117012024 1.1662324666976929 4456788 0 -1
-4.616623401641846 2.8547046184539795 0.2915581166744232 4456788 0 -1
-4.374139785766602 3.054536819458008 1.0412789583206177 4726897 0 -1
-4.061498165130615 3.323603391647339 1.4161394834518433 4726897 0 -1
-4.8889923095703125 1.7339694499969482 1.6243952512741089 4536450 0 -1
-4.182136535644531 3.1704635620117188 1.4161394834518433 4536450 0 -1
-5.008236408233643 1.351468801498413 1.6243952512741089 3757452 0 -1
-4.719048500061035 2.017538070678711 1.7909998893737793 3757452 0 -1
-4.054286479949951 3.235994338989258 1.6243952512741089 3757452 0 -1
-4.996904373168945 1.639904260635376 1.3744882345199585 3562893 0 -1
-3.7752387523651123 3.476701021194458 1.7909998893737793 3562893 0 -1
-2.997084856033325 4.183876037597656 1.749348759651184 3562893 0 -1
4.8489484786987305 2.3962621688842773 0.5414651036262512 3562893 0 -1
-4.460500717163086 3.0259997844696045 0.9218124747276306 4456788 0 -1
-3.099165916442871 4.326379299163818 1.2570170164108276 4456788 0 -1
3.504737377166748 4.167311191558838 -0.5028068423271179 4456788 0 -1
-5.012173175811768 1.3525310754776 1.7179232835769653 4456788 0 -1
-5.012173175811768 1.3525310754776 1.7179232835769653 4456788 0 -1
-4.137031555175781 3.1362698078155518 1.7179232835769653 4456788 0 -1
4.976076602935791 2.0109333992004395 1.0475142002105713 4456788 0 -1
-4.647548198699951 2.8738272190093994 0.20950284600257874 4456788 0 -1
-4.393487930297852 3.0680480003356934 1.0894147157669067 4726897 0 -1
-4.008504390716553 3.361428737640381 1.5922216176986694 4726897 0 -1
-5.034360885620117 1.5107476711273193 1.508420467376709 4536450 0 -1
-4.232938289642334 3.2089760303497314 1.2989176511764526 4536450 0 -1
-4.427358150482178 3.0035157203674316 1.1313153505325317 3562893 0 -1
-3.0232155323028564 4.220354080200195 1.7179232835769653 3562893 0 -1
-4.676449298858643 2.891698122024536 0.1685999035835266 4456788 0 -1
-4.553389549255371 2.815603494644165 -1.3991796970367432 4456788 0 -1
-4.648172378540039 3.060584545135498 0.0852975845336914 4456788 0 -1
-4.529861927032471 3.8909082412719727 0.4589109718799591 4456788 0 -1
-4.341185569763184 4.089041233062744 -0.550693154335022 4456788 0 -1
-4.389868259429932 4.042727470397949 -0.5048021078109741 4523353 0 -1
-4.2972636222839355 4.047670841217041 -1.0096042156219482 4724328 0 -1
-4.468357086181641 3.9297029972076416 0.9228101372718811 4456788 0 -1
-4.516988277435303 3.9724719524383545 -0.27684304118156433 4456788 0 -1
-4.515260696411133 3.9709525108337402 -0.3229835331439972 4523353 0 -1
-4.518449783325195 3.973757266998291 -0.23070253431797028 4590430 0 -1
-4.521238803863525 3.976209878921509 0.09228101372718811 4724328 0 -1
-4.521636962890625 3.976560115814209 -0.046140506863594055 4725613 0 -1
-4.2438764572143555 4.087311267852783 1.3916974067687988 4456788 0 -1
-4.309142589569092 4.1501688957214355 0.9277982711791992 4456788 0 -1
-4.589229583740234 3.9419021606445312 -0.2319495677947998 4456788 0 -1
-4.731215476989746 3.7762961387634277 -0.09277983009815216 4456788 0 -1
-4.530034065246582 3.98394513130188 -0.5102890729904175 4456788 0 -1
-4.345134735107422 4.184833526611328 -0.5102890729904175 4456788 0 -1
-4.587745189666748 3.940627098083496 -0.2783394753932953 4523353 0 -1
-4.356040954589844 4.195337295532227 -0.2783394753932953 4523353 0 -1
-4.592061996459961 3.9443349838256836 -0.09277983009815216 4590430 0 -1
-4.359499454498291 4.198668479919434 -0.13916973769664764 4590430 0 -1
-4.590444087982178 3.9429450035095215 -0.18555966019630432 4657508 0 -1
-4.345134735107422 4.184833526611328 -0.5102890729904175 4657508 0 -1
-4.538352012634277 3.8982009887695312 0.9277982711791992 4728182 0 -1
-4.4922027587890625 3.585524320602417 1.9019864797592163 3887499 0 -1
-4.4922027587890625 3.585524320602417 1.9019864797592163 3887499 0 -1
-4.38839054107666 4.133504390716553 0.8395078182220459 4456788 0 -1
-4.04002046585083 4.424493789672852 1.0727044343948364 4456788 0 -1
-4.266693115234375 4.109285831451416 1.3991796970367432 4456788 0 -1
-4.348681926727295 4.096102237701416 1.1659830808639526 4456788 0 -1
-4.655161380767822 3.903698682785034 -0.37311458587646484 4456788 0 -1
-4.428654193878174 4.171429634094238 -0.18655729293823242 4456788 0 -1
-4.660508155822754 3.908182144165039 -0.23319661617279053 4456788 0 -1
-4.426050662994385 4.1689772605896 -0.27983593940734863 4456788 0 -1
-4.659000873565674 3.9069180488586426 -0.27983593940734863 4523353 0 -1
-4.4243574142456055 4.167382717132568 -0.32647526264190674 4523353 0 -1
-4.660508155822754 3.908182144165039 -0.23319661617279053 4590430 0 -1
-4.430215358734131 4.172900199890137 -0.09327864646911621 4590430 0 -1
-4.663795471191406 3.9109387397766113 -0.046639323234558105 4657508 0 -1
-4.420187473297119 4.163454532623291 -0.41975390911102295 4657508 0 -1
-4.403502941131592 3.692664623260498 2.005490779876709 3887499 0 -1
-4.348681926727295 4.096102237701416 -1.1659830808639526 2977934 0 -1
-4.638576507568359 3.984288215637207 -0.23444364964962006 4456788 0 -1
-4.453906536102295 4.195215225219727 -0.09377746284008026 4456788 0 -1
-4.638576507568359 3.984288215637207 -0.23444364964962006 4523353 0 -1
-4.45325231552124 4.194599151611328 -0.1406661868095398 4523353 0 -1
-4.638576507568359 3.984288215637207 -0.23444364964962006 4590430 0 -1
-4.453906536102295 4.195215225219727 -0.09377746284008026 4590430 0 -1
-5.393771171569824 4.0889997482299805 -0.1556306779384613 4456788 0 -1
-5.389492034912109 4.085755825042725 -0.3112613558769226 4523353 0 -1
-5.173828601837158 3.9222617149353027 1.9194450378417969 3562893 0 -1
-5.419703006744385 4.108658313751221 -0.15637890994548798 4456788 0 -1
-5.410940647125244 4.102015495300293 -0.41701042652130127 4456788 0 -1
-5.4171552658081055 4.106727123260498 -0.2606315016746521 4456788 0 -1
-5.419703006744385 4.108658313751221 -0.15637890994548798 4456788 0 -1
-5.4171552658081055 4.106727123260498 -0.2606315016746521 4523353 0 -1
-5.420498847961426 4.109261512756348 -0.10425260663032532 4590430 0 -1
-5.210803031921387 3.9502921104431152 1.876546859741211 3562893 0 -1
-5.435579776763916 3.579052209854126 1.9807994365692139 2264205 0 -1
-5.43923282623291 4.123464107513428 -0.366629958152771 4456788 0 -1
-5.443074703216553 4.126376628875732 -0.2618785500526428 4456788 0 -1
-5.441314220428467 4.125041961669922 -0.3142542541027069 4523353 0 -1
-5.444514751434326 4.127468109130859 -0.20950284600257874 4590430 0 -1
-5.5152459144592285 4.071053981781006 -0.42100095748901367 4456788 0 -1
-5.521580696105957 4.075729846954346 -0.26312559843063354 4523353 0 -1
-0.747139036655426 6.924584865570068 -0.10674668103456497 8180304 4 -1
-0.8005766272544861 6.9192280769348145 0.053373340517282486 8705099 4 -1
-0.8005766272544861 6.9192280769348145 0.053373340517282486 9360965 4 -1
-0.48247721791267395 6.979637145996094 0.16086825728416443 3107982 4 -1
-0.4825480878353119 6.9806623458862305 0.10724549740552902 2977934 4 -1
-0.5358338356018066 6.972445487976074 0.26811376214027405 2912910 4 -1
-0.5896943807601929 6.971397399902344 0.16086825728416443 2139270 4 -1
-0.6969115734100342 6.961496353149414 0.16086825728416443 4505456 4 -1
-0.7506964802742004 6.957555294036865 -0.05362274870276451 8180304 4 -1
-0.7506964802742004 6.957555294036865 0.05362274870276451 8705099 4 -1
-0.7506964802742004 6.957555294036865 -0.05362274870276451 12640037 4 -1
-0.7506964802742004 6.957555294036865 -0.05362274870276451 13164576 4 -1
-0.5385792255401611 7.008169651031494 0.1616164743900299 3107982 4 -1
-0.5384684801101685 7.006728649139404 0.21548862755298615 2977934 4 -1
-0.5383260846138 7.004875659942627 0.2693607807159424 2912910 4 -1
-0.5919671654701233 6.998265743255615 0.3232329487800598 2328718 4 -1
-0.5919671654701233 6.998265743255615 0.3232329487800598 2264205 4 -1
-0.5923153162002563 7.002382278442383 0.21548862755298615 2072968 4 -1
-0.5917407274246216 6.995588779449463 0.37710511684417725 2139270 4 -1
-0.6995975375175476 6.9883270263671875 0.3232329487800598 4899181 4 -1
-0.754188060760498 6.9899163246154785 0.053872156888246536 11197490 4 -1
-0.7542102336883545 6.990121364593506 0 12640037 4 -1
-0.754188060760498 6.9899163246154785 -0.053872156888246536 13164576 4 -1
-0.4329216778278351 7.049130439758301 0.10824313014745712 3887499 4 -1
-0.4869653880596161 7.044564247131348 0.16236470639705658 3757452 4 -1
-0.48703691363334656 7.04559850692749 0.10824313014745712 3692940 4 -1
-0.5409613847732544 7.039167404174805 0.21648626029491425 3107982 4 -1
-0.5408183336257935 7.0373053550720215 0.2706078290939331 2977934 4 -1
-0.5408183336257935 7.0373053550720215 0.2706078290939331 2523534 4 -1
-0.5944802761077881 7.027976036071777 0.3788509666919708 2264205 4 -1
-0.5944802761077881 7.027976036071777 0.3788509666919708 2070155 4 -1
-0.6485239267349243 7.023195266723633 0.3788509666919708 2468738 4 -1
-0.6482374668121338 7.020092964172363 0.4329725205898285 2666112 4 -1
-0.5939199328422546 7.0213518142700195 0.48709410429000854 2994813 4 -1
-0.5939199328422546 7.0213518142700195 0.48709410429000854 3257723 4 -1
-0.6487720608711243 7.025882720947266 0.32472941279411316 4045940 4 -1
-0.6487720608711243 7.025882720947266 0.32472941279411316 4505456 4 -1
-0.7035596966743469 7.027905464172363 0.05412156507372856 5949540 4 -1
-0.4349677860736847 7.082447052001953 0 4147337 4 -1
-0.43491673469543457 7.081614971160889 0.10874194651842117 3887499 4 -1
-0.48920947313308716 7.077027320861816 0.16311292350292206 3757452 4 -1
-0.4892812967300415 7.078066825866699 0.10874194651842117 3692940 4 -1
-0.4891088902950287 7.075572490692139 0.21748389303684235 2977934 4 -1
-0.5433105826377869 7.069735527038574 0.27185487747192383 2523534 4 -1
-0.5433105826377869 7.069735527038574 0.27185487747192383 2264205 4 -1
-0.5433105826377869 7.069735527038574 0.27185487747192383 2070155 4 -1
-0.6515125036239624 7.055560111999512 0.3805968165397644 2468738 4 -1
-0.5963224172592163 7.049753665924072 0.5437097549438477 2994813 4 -1
-0.6505334973335266 7.044958114624023 0.5437097549438477 3257723 4 -1
-0.7067396640777588 7.059670448303223 0.10874194651842117 5424489 4 -1
-0.7068019509315491 7.0602922439575195 0.05437097325921059 5949540 4 -1
-0.7068019509315491 7.0602922439575195 0.05437097325921059 6343264 4 -1
-0.7068019509315491 7.0602922439575195 -0.05437097325921059 6933851 4 -1
-0.7606347799301147 7.049665451049805 0.27185487747192383 8180304 4 -1
-0.9243065714836121 7.035332679748535 0 12640037 4 -1
-0.6524325609207153 7.065523624420166 -0.05437097325921059 12640037 4 -1
-0.4369502365589142 7.1147260665893555 -0.05462038144469261 3692940 4 -1
-0.4369630515575409 7.114934921264648 0 3562893 4 -1
-0.49135249853134155 7.108028888702393 0.21848152577877045 2523534 4 -1
-0.5454175472259521 7.097152233123779 0.382342666387558 2264205 4 -1
-0.5460594892501831 7.105505466461182 0.16386115550994873 2199437 4 -1
-0.5459471940994263 7.104044437408447 0.21848152577877045 2070155 4 -1
-0.5996943116188049 7.089616775512695 0.4369630515575409 3651704 4 -1
-0.70973140001297 7.089554786682129 0.21848152577877045 4505456 4 -1
-0.7645955681800842 7.086374282836914 0.10924076288938522 4899181 4 -1
-0.7098773717880249 7.091012954711914 0.16386115550994873 5424489 4 -1
-0.7099816203117371 7.0920538902282715 0.10924076288938522 5949540 4 -1
-0.7100650072097778 7.092886924743652 0 6343264 4 -1
-0.9285192489624023 7.067397594451904 0.05462038144469261 12640037 4 -1
-0.9285464882850647 7.067605018615723 0 13164576 4 -1
-0.8189533352851868 7.078054428100586 -0.71330726146698 4536450 4 -1
-0.8189533352851868 7.078054428100586 -0.71330726146698 4341894 4 -1
-0.8206271529197693 7.092520713806152 -0.5486978888511658 4147337 4 -1
-0.43875211477279663 7.1440653800964355 0.21947915852069855 2977934 4 -1
-0.5932740569114685 7.013716220855713 1.3168749809265137 2523534 0 -1
-0.4381328225135803 7.133982181549072 0.4389583170413971 2523534 4 -1
-0.49289944767951965 7.130407333374023 0.4389583170413971 2328718 4 -1
-0.8214990496635437 7.100056171417236 0.4389583170413971 2468738 4 -1
-0.7127835750579834 7.1200432777404785 0.2743489444255829 3257723 4 -1
-0.7129721641540527 7.121927261352539 0.21947915852069855 3651704 4 -1
-0.7132235169410706 7.1244378089904785 0.10973957926034927 4045940 4 -1
-0.7129721641540527 7.121927261352539 0.21947915852069855 4505456 4 -1
-0.7678161859512329 7.116223335266113 0.21947915852069855 4899181 4 -1
-0.9323481917381287 7.096541404724121 0.21947915852069855 5424489 4 -1
-0.7132235169410706 7.1244378089904785 0.10973957926034927 5424489 4 -1
-0.7132863402366638 7.125065326690674 -0.05486978963017464 5949540 4 -1
-0.7673647999763489 7.112040042877197 0.3292187452316284 6343264 4 -1
-0.8776846528053284 7.104992389678955 0.1646093726158142 6933851 4 -1
-0.9327590465545654 7.099668502807617 0.05486978963017464 12640037 4 -1
-0.6051709651947021 7.154362201690674 0.4409535825252533 4456788 4 -1
-0.822675883769989 7.110227584838867 -0.7165495753288269 4456788 4 -1
-0.8220170140266418 7.104532718658447 -0.7716687917709351 4590430 4 -1
-0.822675883769989 7.110227584838867 -0.7165495753288269 4657508 4 -1
-0.8220170140266418 7.104532718658447 -0.7716687917709351 4726897 4 -1
-0.822675883769989 7.110227584838867 -0.7165495753288269 4536450 4 -1
-0.8232854604721069 7.1154961585998535 -0.6614304184913635 4341894 4 -1
-0.824357271194458 7.124759197235107 -0.5511919856071472 4147337 4 -1
-0.826399564743042 7.1424102783203125 0.22047679126262665 2977934 4 -1
-0.4266238510608673 6.946585178375244 1.8189336061477661 2977934 0 -1
-0.8267636895179749 7.145557880401611 0.05511919781565666 2328718 4 -1
-0.9027007222175598 6.870880603790283 -1.9291719198226929 2070922 0 -1
-0.8261809945106506 7.140521049499512 0.2755959928035736 2468738 4 -1
-0.7163602709770203 7.155770778656006 0.16535760462284088 2994813 4 -1
-0.7160235047340393 7.152407169342041 0.2755959928035736 3651704 4 -1
-0.7714648842811584 7.150040149688721 0.16535760462284088 4045940 4 -1
-0.7165285348892212 7.15745210647583 0.05511919781565666 4899181 4 -1
-0.8809746503829956 7.131625652313232 0.33071520924568176 5424489 4 -1
-0.6244968175888062 6.762993335723877 -2.3701255321502686 5424489 0 -1
-0.9914171695709229 7.119460105895996 0.2755959928035736 12640037 4 -1
-0.6032338738441467 7.1314616203308105 0.9966349601745605 4456788 0 -1
-4.416466236114502 5.692378997802734 -0.5536860823631287 4456788 0 -1
-0.8257365226745605 7.1366801261901855 -0.7751604914665222 4590430 4 -1
-0.8263983726501465 7.14240026473999 -0.7197918891906738 4657508 4 -1
-0.824263870716095 7.1239519119262695 -0.885897696018219 4726897 4 -1
-0.8275737166404724 7.152558326721191 -0.609054684638977 4341894 4 -1
-0.8151483535766602 7.045168399810791 1.384215235710144 3562893 0 -1
-0.6055401563644409 7.158726692199707 0.7751604914665222 3562893 4 -1
-0.968110203742981 6.952090263366699 1.7164268493652344 2977934 0 -1
-0.6072641015052795 7.179107189178467 0.5536860823631287 2977934 4 -1
-0.8305047154426575 7.177890777587891 0.05536860600113869 2199437 4 -1
-0.4403928220272064 7.170780658721924 0.7751604914665222 2199437 4 -1
-0.9952002763748169 7.146626949310303 0.3875802457332611 9360965 4 -1
-0.9959032535552979 7.151674747467041 0.27684304118156433 12640037 4 -1
-0.8262969851493835 7.141523838043213 -1.0011242628097534 4726897 0 -1
-0.8318175077438354 7.189236640930176 -0.5561801791191101 4341894 4 -1
-0.9441452026367188 7.186334133148193 0.3893260955810547 5949540 4 -1
-0.99688321352005 7.158712387084961 0.6674162149429321 6933851 4 -1
-0.7219933867454529 7.212040901184082 0.3893260955810547 6933851 4 -1
-0.999683141708374 7.178818702697754 0.3893260955810547 9360965 4 -1
-1.0008597373962402 7.187267780303955 0.16685405373573303 13164576 4 -1
-0.8810865879058838 7.132531642913818 -1.2290832996368408 4726897 0 -1
-0.8355476260185242 7.221475601196289 -0.5586742162704468 4341894 4 -1
-0.8810865879058838 7.132531642913818 -1.2290832996368408 3757452 0 -1
-0.7185384631156921 7.177529335021973 1.06148099899292 2718350 0 -1
-0.4927276372909546 7.127922058105469 -1.4525530338287354 2718350 0 -1
-0.8368050456047058 7.232342720031738 0.39107197523117065 4045940 4 -1
-0.44217750430107117 7.199840545654297 1.06148099899292 4045940 0 -1
-0.9479601383209229 7.215371131896973 0.4469393789768219 5949540 4 -1
-0.7226642966270447 7.218742370605469 0.7262765169143677 5949540 4 -1
-1.0045503377914429 7.213770389556885 0.335204541683197 6933851 4 -1
-0.7241412997245789 7.233496189117432 0.5586742162704468 6933851 4 -1
-0.8411344885826111 7.269761562347412 -0.2805841565132141 4212104 4 -1
-0.8769610524177551 7.09913444519043 -1.571271300315857 3757452 0 -1
-0.8754214644432068 7.086671352386475 -1.6273881196975708 3692940 0 -1
-1.0090348720550537 7.245974540710449 0.33670100569725037 4505456 4 -1
-0.9521920680999756 7.24758243560791 0.4489346444606781 5424489 4 -1
-0.7258904576301575 7.250968933105469 0.7295188307762146 5424489 4 -1
-0.9535379409790039 7.257826328277588 0.22446732223033905 10016830 4 -1
-0.9568467140197754 7.283010959625244 -0.3945636749267578 3692940 4 -1
-0.7279049754142761 7.271092414855957 0.8454936146736145 5424489 4 -1
-1.0138474702835083 7.280533790588379 0.28183120489120483 8705099 4 -1
-2.4416775703430176 6.996802806854248 0.39805540442466736 2139270 0 -1
-1.8623907566070557 7.125950813293457 0.9098408818244934 2139270 0 -1
-0.9656837582588196 7.350274085998535 0.3411903381347656 2139270 4 -1
-0.5605126619338989 7.293574810028076 1.2510312795639038 2139270 0 -1
-4.495467662811279 5.794204235076904 -1.1373010873794556 4045940 0 -1
-0.6219061017036438 7.352205753326416 0.7961108088493347 4045940 4 -1
-1.817116379737854 7.184593677520752 -0.7996025085449219 4456788 0 -1
-1.0269732475280762 7.374792098999023 0.3426867723464966 4456788 4 -1
-0.3995077311992645 7.437641143798828 0.2855723202228546 4456788 4 -1
-0.796757161617279 7.384451866149902 -0.6282591223716736 4456788 4 -1
-0.5673595666885376 7.382668972015381 0.8567169904708862 2271109 4 -1
-4.509616374969482 5.812439918518066 -1.1994037628173828 4045940 0 -1
-4.239619255065918 5.918431758880615 -1.5992050170898438 4045940 0 -1
-4.178484916687012 6.070048809051514 -1.3193690776824951 4899181 0 -1
-4.460814952850342 5.865693092346191 -1.3193690776824951 5424489 0 -1
-1.491066575050354 7.334375381469727 -0.17209161818027496 5424489 0 -1
-4.543102741241455 5.855600357055664 -1.2674921751022339 4505456 0 -1
-4.526226043701172 6.445580005645752 -0.12071353942155838 4456788 0 -1
2.715337038040161 7.391952037811279 0.18107031285762787 2458766 5 -1
2.957481861114502 7.300691604614258 0 2458766 0 -1
2.836435079574585 7.3475751876831055 -0.12071353942155838 2328718 5 -1
2.77632999420166 7.371237754821777 0.06035676971077919 2264205 5 -1
2.776411533355713 7.371454238891602 0 2199437 5 -1
2.848155975341797 7.377937316894531 -0.12121235579252243 2588302 5 -1
2.8484067916870117 7.378587245941162 -0.060606177896261215 2523534 5 -1
2.848155975341797 7.377937316894531 -0.12121235579252243 2458766 5 -1
2.7878024578094482 7.401697635650635 0.060606177896261215 2264205 5 -1
3.0299530029296875 7.3051581382751465 0.12121235579252243 2264205 5 -1
2.7875568866729736 7.401045799255371 0.12121235579252243 2199437 5 -1
3.0280840396881104 7.300652027130127 0.3030308783054352 2199437 5 -1
2.8117151260375977 6.940859794616699 -2.545459508895874 2134668 0 -1
2.859456777572632 7.4072113037109375 -0.18256676197052002 2782862 5 -1
2.86012864112854 7.408951759338379 -0.06085558608174324 2718350 5 -1
2.86012864112854 7.408951759338379 -0.06085558608174324 2588302 5 -1
2.798617362976074 7.430411338806152 0.18256676197052002 2264205 5 -1
3.0427794456481934 7.3360819816589355 0 2264205 5 -1
2.9818363189697266 7.360812187194824 0.06085558608174324 2199437 5 -1
2.9818363189697266 7.360812187194824 -0.06085558608174324 2134668 5 -1
2.9202961921691895 7.383437156677246 -0.18256676197052002 2070155 5 -1
2.920725107192993 7.384521484375 -0.12171117216348648 2070922 5 -1
3.024533748626709 6.962238788604736 2.444199800491333 4536450 0 -1
2.871175765991211 7.437568664550781 -0.1833149790763855 2782862 5 -1
2.871934652328491 7.439534664154053 0 2718350 5 -1
2.8715975284576416 7.438661098480225 0.12220998853445053 2588302 5 -1
2.93166184425354 7.412172794342041 0.24441997706890106 2328718 5 -1
2.8087661266326904 7.457356929779053 0.3055249750614166 2264205 5 -1
2.8078575134277344 7.454944610595703 0.366629958152771 2199437 5 -1
2.869826316833496 7.434072494506836 0.3055249750614166 2134668 5 -1
-4.474135398864746 6.630345344543457 -0.36812642216682434 4456788 0 -1
3.078789234161377 6.927886009216309 2.5768849849700928 3757452 0 -1
2.9442331790924072 7.4439568519592285 -0.18406321108341217 2782862 5 -1
2.9450113773345947 7.445924282073975 0 2718350 5 -1
2.881539821624756 7.464415550231934 0.30677202343940735 2588302 5 -1
2.881539821624756 7.464415550231934 0.30677202343940735 2328718 5 -1
2.9436278343200684 7.4424262046813965 0.24541760981082916 2264205 5 -1
3.004953384399414 7.417877674102783 0.24541760981082916 2199437 5 -1
2.8303494453430176 6.986859321594238 2.6995937824249268 2134668 0 -1
2.7492518424987793 7.484278678894043 -0.7362528443336487 11918891 5 -1
-4.49232292175293 6.6572980880737305 -0.3696228563785553 4456788 0 -1
3.003573417663574 7.414471626281738 -0.8008495569229126 4725613 0 -1
2.948289632797241 7.454212665557861 -0.6160380840301514 4726897 5 -1
2.8422563076019287 7.186127185821533 2.2177371978759766 4341894 0 -1
3.11580753326416 7.011184215545654 2.4025485515594482 4341894 0 -1
2.9562015533447266 7.474216938018799 0.18481142818927765 2718350 5 -1
2.892317533493042 7.492334842681885 0.3696228563785553 2588302 5 -1
2.9566357135772705 7.475314617156982 0.12320762127637863 2523534 5 -1
2.8932533264160156 7.4947590827941895 0.3080190420150757 2328718 5 -1
2.771846055984497 7.545786380767822 -0.12320762127637863 2264205 5 -1
2.771846055984497 7.545786380767822 -0.12320762127637863 2264205 5 -1
2.771846055984497 7.545786380767822 -0.12320762127637863 2199437 5 -1
3.0171685218811035 7.448031902313232 0.24641524255275726 2199437 5 -1
2.764021396636963 7.5244855880737305 -0.6160380840301514 10016830 5 -1
2.764021396636963 7.5244855880737305 -0.6160380840301514 11197490 5 -1
2.764021396636963 7.5244855880737305 -0.6160380840301514 11918891 5 -1
2.764021396636963 7.5244855880737305 -0.6160380840301514 12640037 5 -1
2.9563772678375244 7.474660873413086 -0.7422386407852173 4725613 5 -1
2.9646806716918945 7.495655059814453 -0.4329725205898285 4726897 5 -1
2.9016342163085938 7.5164690017700195 -0.4948257505893707 4536450 5 -1
2.8403117656707764 7.181210517883301 2.3504223823547363 3432845 0 -1
2.9016342163085938 7.5164690017700195 -0.4948257505893707 3302798 5 -1
2.839897394180298 7.540011405944824 -0.4948257505893707 2912910 5 -1
2.9001803398132324 7.512702941894531 -0.5566789507865906 2782862 5 -1
2.752444267272949 7.130002975463867 -2.5978353023529053 2718350 0 -1
3.0307188034057617 7.481481075286865 0.06185321882367134 2458766 5 -1
2.905735492706299 7.527092933654785 0.24741287529468536 2328718 5 -1
2.721222162246704 7.598768711090088 0.12370643764734268 2134668 5 -1
2.72082257270813 7.597652912139893 0.18555966019630432 2070155 5 -1
2.721222162246704 7.598768711090088 0.12370643764734268 2070922 5 -1
-4.79591178894043 6.306324481964111 -1.546330451965332 4505456 0 -1
-0.897647500038147 7.758192539215088 2.04115629196167 4505456 0 -1
2.7673332691192627 7.533501625061035 -0.865945041179657 4505456 5 -1
2.776768445968628 7.559186935424805 -0.5566789507865906 10016830 5 -1
2.7186639308929443 7.591625213623047 -0.37111932039260864 11197490 5 -1
2.776768445968628 7.559186935424805 -0.5566789507865906 11918891 5 -1
2.776768445968628 7.559186935424805 -0.5566789507865906 12640037 5 -1
2.9661002159118652 7.49924373626709 -0.8073341250419617 4725613 5 -1
2.9166805744171143 7.555445194244385 -0.31051313877105713 4536450 5 -1
2.9682979583740234 7.504800796508789 -0.7452315092086792 4471684 5 -1
2.79166316986084 7.599734783172607 -0.3726157546043396 2718350 5 -1
2.7807188034057617 7.56994104385376 -0.8073341250419617 2523534 5 -1
2.8563854694366455 7.583787441253662 0.12420525401830673 2328718 5 -1
2.732194662094116 7.629408836364746 0.12420525401830673 2070155 5 -1
2.732515573501587 7.63030481338501 0 2070922 5 -1
2.79166316986084 7.599734783172607 -0.3726157546043396 2666112 5 -1
2.726010322570801 7.612139701843262 -0.5589236617088318 4505456 5 -1
2.79166316986084 7.599734783172607 -0.3726157546043396 4899181 5 -1
2.7305095195770264 7.6247029304504395 -0.31051313877105713 11197490 5 -1
2.789362668991089 7.593472480773926 -0.49682101607322693 11918891 5 -1
2.7925665378570557 7.602193832397461 -0.31051313877105713 12640037 5 -1
2.9802188873291016 7.534940242767334 -0.7482244372367859 4725613 5 -1
2.93045973777771 7.59113883972168 -0.06235203519463539 4536450 5 -1
2.9780123233795166 7.529361248016357 -0.8105764389038086 4471684 5 -1
2.7958571910858154 7.611152172088623 -0.6858723759651184 2588302 5 -1
2.7434089183807373 7.66072416305542 0.06235203519463539 2328718 5 -1
2.8055121898651123 7.637435436248779 -0.12470407038927078 2070922 5 -1
2.7431674003601074 7.660048961639404 0.12470407038927078 2006409 5 -1
2.803781509399414 7.632724761962891 -0.31176018714904785 2666112 5 -1
2.936734676361084 7.607394218444824 -0.5008115768432617 4536450 5 -1
2.987529754638672 7.55342435836792 -0.8764201998710632 4471684 5 -1
3.0347886085510254 7.491527557373047 -1.189427375793457 4147337 0 -1
2.7541401386260986 7.690689563751221 0.12520289421081543 2328718 5 -1
2.7077670097351074 7.371344566345215 -2.2536518573760986 2070922 0 -1
2.945305347442627 7.629595756530762 -0.6285085082054138 4728182 5 -1
3.004060745239258 7.59522008895874 -0.7542102336883545 4536450 5 -1
2.7641382217407227 7.718608379364014 -0.25140342116355896 2458766 5 -1
2.7641382217407227 7.718608379364014 0.25140342116355896 2328718 5 -1
2.6986961364746094 7.7333083152771 0.4399559497833252 2264205 5 -1
2.6641323566436768 7.4393510818481445 -2.199779748916626 2134668 0 -1
2.6519696712493896 7.405387878417969 -2.325481414794922 2070155 0 -1
2.6755685806274414 7.471285820007324 -2.07407808303833 2070922 0 -1
1.7462897300720215 7.662245273590088 2.4609100818634033 4728182 0 -1
3.0891053676605225 7.110877513885498 -2.776411533355713 4728182 0 -1
2.8381776809692383 7.72636079788208 0.25240105390548706 2458766 5 -1
2.642787218093872 7.379746437072754 -2.524010419845581 2070155 0 -1
3.0874619483947754 7.621554374694824 -0.44170182943344116 2070155 5 -1
2.907147169113159 7.71856164932251 0.5701470375061035 2458766 5 -1
2.905517339706421 7.714234352111816 0.6334967017173767 2328718 5 -1
2.9110069274902344 7.728809356689453 0.8267880082130432 2523534 5 -1
2.915147066116333 7.739801406860352 0.6995898485183716 2458766 5 -1
2.851774215698242 7.7633748054504395 0.6995898485183716 2328718 5 -1
3.1071927547454834 7.670260906219482 0.6359907388687134 2328718 5 -1
2.913163900375366 7.734536170959473 0.763188898563385 2264205 5 -1
2.8515074253082275 7.762648582458496 1.021575689315796 2523534 0 -1
2.931506872177124 7.783237457275391 0.510787844657898 2458766 5 -1
2.8610100746154785 7.788517951965332 0.7661818265914917 2328718 5 -1
3.125267505645752 7.714879512786865 0.38309091329574585 2328718 5 -1
2.856602191925049 7.776517868041992 0.8938787579536438 2264205 5 -1
3.1211276054382324 7.704659461975098 0.5746363401412964 2264205 5 -1
3.080549478530884 7.427144527435303 2.3075242042541504 3302798 0 -1
2.8802530765533447 7.840902805328369 0.44868525862693787 2458766 5 -1
3.2015058994293213 7.718768119812012 0.3845873475074768 2328718 5 -1
3.13489031791687 7.738633632659912 0.5127831101417542 2264205 5 -1
2.8914601802825928 7.8714118003845215 0.45043110847473145 2458766 5 -1
2.885324478149414 7.854708671569824 0.7078202962875366 2328718 5 -1
3.212733745574951 7.745838165283203 0.45043110847473145 2328718 5 -1
3.1455113887786865 7.764852046966553 0.579125702381134 2264205 5 -1
2.9671711921691895 7.877927303314209 0.452176958322525 2458766 5 -1
3.0271193981170654 7.84152889251709 0.6459670662879944 2328718 5 -1
3.0961785316467285 7.828123569488525 0.452176958322525 2264205 5 -1
3.0405116081237793 7.876220703125 0.5836150646209717 2458766 5 -1
3.0369222164154053 7.866922378540039 0.71330726146698 2328718 5 -1
3.0420358180999756 7.880168914794922 0.5187689065933228 2264205 5 -1
-3.8120040893554688 7.68385124206543 -1.398431420326233 4456788 0 -1
-5.824755668640137 6.247012138366699 -2.451183319091797 4456788 0 -1
-5.488029956817627 6.795028209686279 -1.6341221332550049 4456788 0 -1
-3.892612934112549 7.846333980560303 -1.4979453086853027 4456788 0 -1
-3.4601528644561768 8.150314331054688 -0.7489726543426514 4456788 0 -1
-5.832515716552734 6.255334854125977 -2.5284998416900635 4456788 0 -1
-5.432853698730469 6.863387107849121 -1.7084457874298096 4456788 0 -1
-3.9015560150146484 7.864360332489014 -1.5717700719833374 4456788 0 -1
-3.5330612659454346 8.132829666137695 -0.9567296504974365 4456788 0 -1
-5.835718631744385 6.391081809997559 -2.409282684326172 4456788 0 -1
-3.6272895336151123 8.162120819091797 -0.9637130498886108 4456788 0 -1
-3.3006653785705566 8.345130920410156 -0.41301989555358887 4456788 0 -1
-1.9353231191635132 8.49167251586914 2.202772617340088 2070922 0 -1
-5.531454086303711 6.848793983459473 -1.7897528409957886 2006409 0 -1
-1.972682237625122 8.655594825744629 1.3767329454421997 2006409 0 -1
-5.455137729644775 6.891538619995117 -1.85858952999115 2139270 0 -1
-5.802546977996826 6.899523735046387 0.13817210495471954 4456788 0 -1
-7.1303205490112305 5.263214111328125 -1.6580653190612793 4456788 0 -1
-5.869631767272949 6.428222179412842 -2.348925828933716 4456788 0 -1
-5.45486307144165 7.030767917633057 -1.4508072137832642 4456788 0 -1
-5.45486307144165 7.030767917633057 -1.4508072137832642 4456788 0 -1
-2.9706132411956787 8.512505531311035 0.06908605247735977 4456788 0 -1
-5.827005386352539 6.515416145324707 -2.2107536792755127 4456788 0 -1
-5.210931777954102 7.2743659019470215 -1.1053768396377563 4456788 0 -1
-3.577256202697754 8.234561920166016 -0.8290326595306396 4456788 0 -1
-1.4674079418182373 8.580286979675293 2.348925828933716 2070155 0 -1
-5.372372627258301 7.064334869384766 -1.5889792442321777 2070922 0 -1
-1.9423351287841797 8.522439002990723 2.2107536792755127 2070922 0 -1
-5.513350009918213 6.82637882232666 -2.0725817680358887 2006409 0 -1
-5.296809196472168 7.105399131774902 -1.6580653190612793 2271109 0 -1
-2.6437041759490967 8.210411071777344 2.625270128250122 2271109 0 -1
-5.998081207275391 6.29862642288208 -2.4960765838623047 4456788 0 -1
-5.350545406341553 7.177483558654785 -1.3173737525939941 4456788 0 -1
-3.841417074203491 8.086292266845703 -1.3173737525939941 4456788 0 -1
-3.45851993560791 8.338423728942871 -0.6240191459655762 4456788 0 -1
-5.419142246246338 7.125833511352539 -1.3173737525939941 2070922 0 -1
-5.1114726066589355 7.279001235961914 -1.6640511751174927 2070922 0 -1
-1.937070369720459 8.49933910369873 2.426741123199463 2070922 0 -1
-5.55633544921875 7.019382953643799 -1.3173737525939941 2271109 0 -1
-5.55633544921875 7.019382953643799 -1.3173737525939941 2271109 0 -1
-2.66581392288208 8.27907657623291 2.4960765838623047 2271109 0 -1
-5.452237606048584 7.027383327484131 -1.6640511751174927 2666112 0 -1
-4.4501190185546875 8.416823387145996 -1.4764962196350098 4724328 0 -1
-4.4191670417785645 9.302472114562988 -0.6324990391731262 4456788 0 -1
-5.037923812866211 8.594091415405273 -2.6881208419799805 4724328 0 -1
-4.655892372131348 8.99338436126709 -1.9765595197677612 4724328 0 -1
-3.219251871109009 9.471040725708008 -2.529996156692505 4724328 0 -1
-3.0888516902923584 9.59288215637207 -2.2137465476989746 4728182 0 -1
-4.430886268615723 9.327141761779785 -0.7138060927391052 4456788 0 -1
-4.977243423461914 8.665635108947754 -2.696600914001465 4724328 0 -1
-4.733349323272705 8.95251750946045 -2.141418218612671 4724328 0 -1
-3.2995784282684326 9.455179214477539 -2.6172890663146973 4724328 0 -1
-0.951713502407074 10.30659008026123 -0.0793117880821228 4728182 0 -1
-1.9675230979919434 10.989409446716309 -0.08554699271917343 4456788 6 -1
-1.9661362171173096 10.981663703918457 -0.42773497104644775 4536450 6 -1
-2.4420180320739746 10.714912414550781 2.1449100971221924 4456788 0 -1
-2.0676839351654053 10.593992233276367 3.097649097442627 4456788 0 -1
-2.0661544799804688 11.043700218200684 -0.7766569256782532 4456788 6 -1
-1.90375816822052 11.131731986999512 0.17308925092220306 4456788 6 -1
-1.8847935199737549 10.527331352233887 3.7321434020996094 4456788 0 -1
-1.996204137802124 11.149604797363281 -0.08679403364658356 4456788 6 -1
-1.996204137802124 11.149604797363281 0.08679403364658356 4456788 6 -1
-2.0828120708465576 11.132736206054688 -0.17358806729316711 4456788 6 -1
-2.082995653152466 11.133716583251953 -0.08679403364658356 4456788 6 -1
-2.082995653152466 11.133716583251953 -0.08679403364658356 4456788 6 -1
-1.996204137802124 11.149604797363281 -0.08679403364658356 4456788 6 -1
-1.996204137802124 11.149604797363281 -0.08679403364658356 4456788 6 -1
-1.9957352876663208 11.14698600769043 0.2603820860385895 4456788 6 -1
-1.8213365077972412 11.171412467956543 0.4339701533317566 4456788 6 -1
-2.0019404888153076 11.18164348602295 0.08704344183206558 4456788 6 -1
-2.0880610942840576 11.160792350769043 0.34817376732826233 4456788 6 -1
-2.0017640590667725 11.180659294128418 0.17408688366413116 4456788 6 -1
-2.0019991397857666 11.18197250366211 0 4456788 6 -1
-2.0019404888153076 11.18164348602295 -0.08704344183206558 4456788 6 -1
-1.914449691772461 11.19424819946289 -0.26113033294677734 4456788 6 -1
-1.9147307872772217 11.195892333984375 -0.17408688366413116 4456788 6 -1
-2.0005292892456055 11.173762321472168 0.4352172017097473 4456788 6 -1
-1.9199352264404297 11.226323127746582 -0.2618785500526428 4456788 6 -1
-2.0947823524475098 11.196717262268066 0.17458570003509521 4456788 6 -1
-2.0947823524475098 11.196717262268066 0.17458570003509521 4456788 6 -1
-2.0940442085266113 11.192770957946777 0.34917140007019043 4456788 6 -1
-2.0074996948242188 11.212695121765137 0.17458570003509521 4456788 6 -1
-2.007205009460449 11.21104907989502 0.2618785500526428 4456788 6 -1
-2.00773549079895 11.214012145996094 0 4456788 6 -1
-1.9203863143920898 11.228960990905762 0.08729285001754761 4456788 6 -1
-1.9199352264404297 11.226323127746582 -0.2618785500526428 4456788 6 -1
-1.9202171564102173 11.227972030639648 -0.17458570003509521 4456788 6 -1
-1.9204427003860474 11.229290962219238 0 4456788 6 -1
-1.9203863143920898 11.228960990905762 -0.08729285001754761 4456788 6 -1
-1.9202171564102173 11.227972030639648 0.17458570003509521 4456788 6 -1
-2.007205009460449 11.21104907989502 -0.2618785500526428 4456788 6 -1
-2.092813014984131 11.18619155883789 -0.5237571001052856 4456788 6 -1
-2.0829389095306396 11.133414268493652 -1.2220999002456665 4456788 6 -1
-1.9258731603622437 11.261043548583984 -0.08754225820302963 4456788 6 -1
-2.1010141372680664 11.230026245117188 0 4456788 6 -1
-2.012526035308838 11.240768432617188 0.35016903281211853 4456788 6 -1
-2.012526035308838 11.240768432617188 0.35016903281211853 4456788 6 -1
-2.0134127140045166 11.245721817016602 0.08754225820302963 4456788 6 -1
-1.9254207611083984 11.25839900970459 -0.2626267671585083 4456788 6 -1
-1.9254207611083984 11.25839900970459 -0.2626267671585083 4456788 6 -1
-1.9258731603622437 11.261043548583984 -0.08754225820302963 4456788 6 -1
-1.9258731603622437 11.261043548583984 -0.08754225820302963 4456788 6 -1
-2.010573625564575 11.229863166809082 -0.6127958297729492 4456788 6 -1
-2.097989797592163 11.213860511779785 -0.6127958297729492 4456788 6 -1
-2.1879780292510986 11.210331916809082 -0.2626267671585083 4456788 6 -1
-2.098792552947998 11.218152046203613 -0.5252535343170166 4456788 6 -1
-2.0970630645751953 11.208908081054688 -0.7003380656242371 4456788 6 -1
-2.094837188720703 11.19701099395752 -0.8754225969314575 4456788 6 -1
-2.185405969619751 11.197153091430664 -0.6127958297729492 4456788 6 -1
-2.1030375957489014 11.24084186553955 -0.7023333311080933 4456788 6 -1
-2.0182597637176514 11.272793769836426 0.35116666555404663 4456788 6 -1
-2.0182597637176514 11.272793769836426 0.35116666555404663 4456788 6 -1
-2.0182597637176514 11.272793769836426 0.35116666555404663 4456788 6 -1
-1.912957787513733 11.185524940490723 -1.5802500247955322 4456788 0 -1
-1.9257383346557617 11.260255813598633 -0.8779166340827942 4456788 6 -1
-1.9257383346557617 11.260255813598633 -0.8779166340827942 4456788 6 -1
-1.9309062957763672 11.290473937988281 -0.2633749842643738 4456788 6 -1
-2.1047720909118652 11.250112533569336 -0.5267499685287476 4456788 6 -1
-2.1030375957489014 11.24084186553955 -0.7023333311080933 4456788 6 -1
-2.1039669513702393 11.245809555053711 -0.6145416498184204 4456788 6 -1
-2.1019837856292725 11.235209465026855 -0.7901250123977661 4456788 6 -1
-2.106752634048462 11.260698318481445 -0.17558333277702332 4456788 6 -1
-2.1060101985931396 11.256730079650879 -0.35116666555404663 4456788 6 -1
-2.1047720909118652 11.250112533569336 -0.5267499685287476 4456788 6 -1
-2.1019837856292725 11.235209465026855 -0.7901250123977661 4456788 6 -1
-2.0995023250579834 11.221945762634277 -0.965708315372467 4456788 6 -1
-2.0995023250579834 11.221945762634277 -0.965708315372467 4456788 6 -1
-2.1124274730682373 11.291030883789062 -0.26412323117256165 4456788 6 -1
-2.0247068405151367 11.30880355834961 0.17608214914798737 4456788 6 -1
-2.0248851776123047 11.309800148010254 0.08804107457399368 4456788 6 -1
-1.9354815483093262 11.31722640991211 0.4402053654193878 4456788 6 -1
-1.9272702932357788 11.26921272277832 -1.1445339918136597 4456788 6 -1
-1.9286983013153076 11.277563095092773 -1.0564929246902466 4456788 6 -1
-1.9183924198150635 11.217302322387695 -1.584739327430725 4456788 0 -1
-2.021136522293091 11.288862228393555 -0.7043285965919495 4456788 6 -1
-2.1099441051483154 11.27775764465332 -0.6162875294685364 4456788 6 -1
-2.10079288482666 11.228842735290527 -1.2325750589370728 4456788 6 -1
-2.1024765968322754 11.23784351348877 -1.1445339918136597 4456788 6 -1
-2.106773614883423 11.260811805725098 -0.8804107308387756 4456788 6 -1
-2.1099441051483154 11.27775764465332 -0.6162875294685364 4456788 6 -1
-2.1107516288757324 11.282073020935059 -0.5282464623451233 4456788 6 -1
-2.1119930744171143 11.28870964050293 -0.35216429829597473 4456788 6 -1
-2.098982810974121 11.219168663024902 -1.3206161260604858 4456788 6 -1
-2.193194627761841 11.237058639526367 -0.9684517979621887 4456788 6 -1
-2.104034662246704 11.246170997619629 -1.0564929246902466 4456788 6 -1
-2.098982810974121 11.219168663024902 -1.3206161260604858 4523353 6 -1
-2.097046136856079 11.208816528320312 -1.408657193183899 4590430 0 -1
-2.104034662246704 11.246170997619629 -1.0564929246902466 4657508 6 -1
-2.028533935546875 11.330179214477539 0.5297428965568542 4456788 6 -1
-1.9646897315979004 10.973584175109863 -2.913585901260376 4456788 0 -1
-1.8538824319839478 11.371036529541016 0.17658096551895142 4456788 6 -1
-1.8540457487106323 11.372037887573242 -0.08829048275947571 4456788 6 -1
-1.8540457487106323 11.372037887573242 0.08829048275947571 4456788 6 -1
-1.9414780139923096 11.352289199829102 -0.35316193103790283 4456788 6 -1
-2.113926887512207 11.29904556274414 -0.794614315032959 4456788 6 -1
-2.1945250034332275 11.243875503540039 -1.2360666990280151 4456788 6 -1
-2.1067440509796143 11.260652542114258 -1.2360666990280151 4456788 6 -1
-2.1084327697753906 11.269679069519043 -1.1477762460708618 4456788 6 -1
-2.109994888305664 11.278029441833496 -1.0594857931137085 4456788 6 -1
-2.1067440509796143 11.260652542114258 -1.2360666990280151 4456788 6 -1
-2.1127419471740723 11.29271125793457 -0.8829048275947571 4456788 6 -1
-2.111431360244751 11.285706520080566 -0.9711952805519104 4456788 6 -1
-2.104928731918335 11.250950813293457 -1.324357271194458 4456788 6 -1
-2.1084327697753906 11.269679069519043 -1.1477762460708618 4456788 6 -1
-2.104928731918335 11.250950813293457 -1.324357271194458 4523353 6 -1
-2.115955352783203 11.309887886047363 -1.0624786615371704 4456788 6 -1
