VERSION .7
FIELDS x y z rgb label object
SIZE 4 4 4 4 4 4
TYPE F F F I I I
COUNT 1 1 1 1 1 1
WIDTH 686
HEIGHT 1
POINTS 686
VIEWPOINT 0 0 0 1 0 0 0
DATA ascii
-1.8106577396392822 2.4778051376342773 0.37910038232803345 4456788 0 -1
-1.6511038541793823 2.5465075969696045 0.592344343662262 4456788 0 -1
-2.0376644134521484 2.3258631229400635 0 4456788 0 -1
-1.8138927221298218 2.482232093811035 0.33171284198760986 4456788 0 -1
-2.1037254333496094 2.2562317848205566 -0.21324396133422852 4456788 0 -1
-2.1037254333496094 2.2562317848205566 -0.21324396133422852 4456788 0 -1
-2.013911724090576 2.3463406562805176 -0.02369377389550209 4456788 0 -1
-1.725895881652832 2.5071940422058105 0.5449568033218384 4456788 0 -1
-2.0124921798706055 2.344686985015869 -0.11846886575222015 4456788 0 -1
-2.653001308441162 1.586898684501648 -0.07108131796121597 2070155 0 -1
-1.94009268283844 2.4021341800689697 0.16585642099380493 2070155 0 -1
-1.6815379858016968 2.542131185531616 0.5212630033493042 2070155 0 -1
-2.0585694313049316 2.3497250080108643 -0.07182954251766205 4456788 0 -1
-3.098543643951416 1.0168925523757935 0.9078456163406372 4657508 0 -1
-2.74519681930542 1.8623390197753906 0.6743996143341064 4657508 0 -1
-2.518139362335205 2.060642719268799 0.9337840676307678 4657508 0 -1
-3.0446419715881348 1.0798373222351074 1.0115994215011597 3887499 0 -1
-3.0446419715881348 1.0798373222351074 1.0115994215011597 3887499 0 -1
-2.4245169162750244 2.0825300216674805 1.1153532266616821 3887499 0 -1
-3.0770044326782227 1.0098236799240112 0.985660970211029 3757452 0 -1
-2.7566049098968506 1.8150837421417236 0.7522149682044983 3757452 0 -1
-2.524825096130371 2.0152299404144287 1.0115994215011597 3757452 0 -1
3.126474142074585 1.1088604927062988 0.6743996143341064 3757452 0 -1
-2.6655423641204834 1.9144607782363892 0.8300303220748901 3238030 0 -1
-2.4378936290740967 2.094019889831543 1.063476324081421 3238030 0 -1
3.2118239402770996 0.7599908113479614 0.7522149682044983 3238030 0 -1
-3.1433284282684326 0.9432728290557861 0.8300303220748901 2134668 0 -1
-3.048567056655884 1.1581370830535889 0.9078456163406372 2070922 0 -1
-2.3821969032287598 2.1938180923461914 0.985660970211029 2070922 0 -1
-2.913602113723755 1.7427774667739868 0.39281782507896423 4590430 0 -1
-2.7459299564361572 1.9175299406051636 0.6808842420578003 4657508 0 -1
-2.548081159591675 2.0851447582244873 0.9165748953819275 4657508 0 -1
3.2385623455047607 0.8739235997200012 0.6546963453292847 4657508 0 -1
-2.7473397254943848 1.8637927770614624 0.8118234872817993 3887499 0 -1
-2.479466676712036 2.079216957092285 1.099889874458313 3887499 0 -1
-2.479466676712036 2.079216957092285 1.099889874458313 3887499 0 -1
3.0975699424743652 1.3243063688278198 0.5761328339576721 3887499 0 -1
-2.7525486946105957 1.8673266172409058 0.7856356501579285 3757452 0 -1
-2.5554215908050537 2.0396509170532227 0.9951384663581848 3757452 0 -1
3.177039384841919 1.0426535606384277 0.7070720791816711 3757452 0 -1
3.2427070140838623 0.7672984004020691 0.7594478130340576 3238030 0 -1
-3.1535658836364746 0.9463449716567993 0.9165748953819275 2134668 0 -1
-3.0659685134887695 1.0062018632888794 1.1260777711868286 5949540 0 -1
-2.4901156425476074 2.037710428237915 1.1522656679153442 5949540 0 -1
3.166107654571533 1.039065957069397 0.7594478130340576 5949540 0 -1
-2.686436414718628 2.2527763843536377 -0.5437097549438477 4456788 0 -1
-2.519253730773926 2.4802215099334717 -0.2990403473377228 4456788 0 -1
-2.1169185638427734 2.783615827560425 -0.5980806946754456 4456788 0 -1
-1.84665846824646 3.0250303745269775 -0.16311292350292206 4456788 0 -1
-2.866509437561035 1.8874503374099731 -1.2290832996368408 4456788 0 -1
-2.832797050476074 2.261042833328247 0.39107197523117065 4456788 0 -1
-2.2384352684020996 2.7161335945129395 -0.9497461915016174 4456788 0 -1
-2.063453197479248 2.8805432319641113 0.9864091873168945 4456788 0 -1
-1.1267218589782715 3.314816474914551 -1.1273248195648193 4456788 0 -1
-0.9083854556083679 3.4756991863250732 -0.7891273498535156 4456788 0 -1
1.0704554319381714 3.517071008682251 0.11273247748613358 4456788 0 -1
1.9532036781311035 2.8945066928863525 1.1555079221725464 4456788 0 -1
-3.0718698501586914 2.022669792175293 -0.028183119371533394 4456788 0 -1
2.9641637802124023 2.0699262619018555 -0.6763948798179626 4456788 0 -1
3.322091817855835 1.5695490837097168 -0.16909871995449066 4456788 0 -1
-2.05440616607666 3.0444812774658203 -0.1972818374633789 4456788 0 -1
-2.8662269115448 2.2877252101898193 -0.28183120489120483 4456788 0 -1
-2.514869213104248 2.6408815383911133 0.47911304235458374 4456788 0 -1
-2.7631514072418213 2.150001287460327 1.1273248195648193 4456788 0 -1
-2.7187156677246094 2.3909785747528076 0.6482117772102356 4456788 0 -1
-2.7411105632781982 2.4106736183166504 0.4509299099445343 4456788 0 -1
-2.6488702297210693 2.49501895904541 0.5354793071746826 4725613 0 -1
-2.0138771533966064 3.044558048248291 0.4509299099445343 4725613 0 -1
-2.6660542488098145 2.511204719543457 0.3381974399089813 4729209 0 -1
-3.5191650390625 1.0560566186904907 0.16909871995449066 4212104 0 -1
-2.6488702297210693 2.49501895904541 0.5354793071746826 4212104 0 -1
-1.9796819686889648 3.0532758235931396 0.5354793071746826 4212104 0 -1
-3.296593427658081 1.4843631982803345 -0.6763948798179626 2782862 0 -1
-3.1472294330596924 1.8825222253799438 -0.28183120489120483 2782862 0 -1
-3.039395332336426 2.061923027038574 -0.1972818374633789 2782862 0 -1
-2.282564640045166 2.8835904598236084 -0.05636623874306679 2782862 0 -1
-1.9216645956039429 3.0851032733917236 0.5636624097824097 2782862 0 -1
-1.2761318683624268 3.3881678581237793 0.6482117772102356 2782862 0 -1
-2.2721970081329346 2.9286327362060547 0.1705951690673828 4456788 0 -1
-3.2335915565490723 1.8020198345184326 -0.2558927536010742 4456788 0 -1
-3.0419232845306396 2.1242270469665527 0.05686505511403084 4456788 0 -1
-2.8291115760803223 2.372420310974121 0.3696228563785553 4456788 0 -1
-2.659364938735962 2.5612552165985107 0.3696228563785553 4456788 0 -1
-1.8520934581756592 3.1594481468200684 0.5970830917358398 4456788 0 -1
-0.8298037648200989 3.3934080600738525 1.2510312795639038 4456788 0 -1
0.32476940751075745 3.5170929431915283 -1.1373010873794556 4456788 0 -1
3.5205583572387695 1.155390977859497 -0.19902770221233368 4456788 0 -1
-3.3922150135040283 1.4502761363983154 0.39805540442466736 4456788 0 -1
-3.1533756256103516 1.8220422267913818 0.7108132243156433 4456788 0 -1
-2.574850082397461 2.5906312465667725 0.6539481282234192 4456788 0 -1
-2.836483955383301 2.3786025047302246 0.2558927536010742 4456788 0 -1
-3.639256715774536 0.7237909436225891 0.02843252755701542 4456788 0 -1
-2.749846935272217 2.4751510620117188 0.2843252718448639 4456788 0 -1
-2.9568960666656494 2.2416129112243652 -0.02843252755701542 4456788 0 -1
-2.652495861053467 2.5546398162841797 0.4549204409122467 4456788 0 -1
-2.652495861053467 2.5546398162841797 0.4549204409122467 4456788 0 -1
-3.6389362812042236 0.7237271666526794 -0.05686505511403084 4456788 0 -1
-2.7879185676574707 2.3946726322174072 0.5117855072021484 4456788 0 -1
-2.784830093383789 2.392019510269165 0.5402180552482605 4456788 0 -1
-2.9568960666656494 2.2416129112243652 -0.02843252755701542 4725613 0 -1
-2.649885892868042 2.552125930786133 0.48335298895835876 4725613 0 -1
-2.8118438720703125 2.4152231216430664 0.1705951690673828 4729209 0 -1
-2.5879228115081787 2.6037840843200684 0.5402180552482605 4729209 0 -1
-3.523045063018799 1.1562070846557617 0.14216263592243195 4212104 0 -1
-3.301510810852051 1.6315467357635498 0.4549204409122467 4212104 0 -1
-2.6471147537231445 2.54945707321167 0.5117855072021484 4212104 0 -1
-2.379716634750366 2.7162938117980957 0.8529758453369141 4212104 0 -1
-3.2168567180633545 1.792693853378296 -0.4549204409122467 3692940 0 -1
-3.3922150135040283 1.4502761363983154 0.39805540442466736 2782862 0 -1
-2.8686487674713135 2.3474714756011963 0.1705951690673828 2782862 0 -1
-2.644181966781616 2.5466325283050537 0.5402180552482605 2782862 0 -1
-3.5823934078216553 0.9667061567306519 0.02843252755701542 2139270 0 -1
-2.459390640258789 2.693441390991211 0.6823806762695312 2139270 0 -1
-2.706266403198242 2.492260694503784 0.48335298895835876 3257723 0 -1
-2.375213146209717 2.711153507232666 0.8814083933830261 3257723 0 -1
-1.9563333988189697 3.0783092975616455 0.6823806762695312 3257723 0 -1
-2.8048038482666016 2.4091761112213135 0.31275781989097595 8180304 0 -1
-2.55979323387146 2.631443500518799 0.5402180552482605 8180304 0 -1
-3.584294557571411 1.0756012201309204 0.08604580909013748 4456788 0 -1
-3.0399281978607178 2.183354377746582 0.05736387148499489 4456788 0 -1
-2.682692766189575 2.5837223529815674 0.3728651702404022 4456788 0 -1
-2.0799055099487305 3.0822696685791016 0.4302290380001068 4456788 0 -1
3.5527994632720947 1.1659719944000244 -0.17209161818027496 4456788 0 -1
-3.0688769817352295 2.143049478530884 0.028681935742497444 4456788 0 -1
-3.613924026489258 0.9752146601676941 0 4456788 0 -1
-2.9213461875915527 2.3317196369171143 0.20077355206012726 4456788 0 -1
-2.7132408618927 2.5556509494781494 0.3441832363605499 4456788 0 -1
3.5175063610076904 1.2475471496582031 -0.28681936860084534 4456788 0 -1
-2.635911703109741 2.595072031021118 0.5736387372016907 4456788 0 -1
-3.0686068534851074 2.1428606510162354 -0.05736387148499489 4456788 0 -1
-2.86136531829834 2.3994674682617188 0.25813743472099304 4456788 0 -1
-3.1490797996520996 2.0105066299438477 -0.22945548593997955 4456788 0 -1
-3.1490797996520996 2.0105066299438477 -0.22945548593997955 4456788 0 -1
-2.8008275032043457 2.4631917476654053 0.31550130248069763 4456788 0 -1
-3.4655184745788574 1.4004862308502197 0.20077355206012726 4456788 0 -1
-2.982133150100708 2.260745048522949 0.08604580909013748 4456788 0 -1
-2.6419272422790527 2.600994348526001 0.5162748694419861 4456788 0 -1
-3.6122260093688965 0.9747564792633057 0.11472774296998978 4456788 0 -1
-2.952070474624634 2.2969987392425537 0.14340968430042267 4456788 0 -1
-2.952070474624634 2.2969987392425537 0.14340968430042267 4456788 0 -1
-2.8025660514831543 2.4647207260131836 0.28681936860084534 4456788 0 -1
-3.3840694427490234 1.5237512588500977 0.4875929057598114 4456788 0 -1
-2.635911703109741 2.595072031021118 0.5736387372016907 4456788 0 -1
-2.635911703109741 2.595072031021118 0.5736387372016907 4456788 0 -1
-2.8153181076049805 2.4182074069976807 0.4875929057598114 4456788 0 -1
-2.809258460998535 2.4130022525787354 0.5449568033218384 4456788 0 -1
-2.9829213619232178 2.2613425254821777 0 4725613 0 -1
-2.6757633686065674 2.5770487785339355 0.4589109718799591 4725613 0 -1
-2.8365092277526855 2.4364092350006104 0.17209161818027496 4729209 0 -1
-3.4926156997680664 1.326829195022583 0.22945548593997955 4212104 0 -1
-2.6757633686065674 2.5770487785339355 0.4589109718799591 4212104 0 -1
-3.216609239578247 1.8585789203643799 -0.4589109718799591 3692940 0 -1
-3.458164691925049 1.3975143432617188 0.31550130248069763 2782862 0 -1
-2.8927054405212402 2.367157459259033 0.20077355206012726 2782862 0 -1
-3.583557605743408 1.0753800868988037 0.11472774296998978 2139270 0 -1
-2.635911703109741 2.595072031021118 0.5736387372016907 2139270 0 -1
-2.853928327560425 2.39323091506958 0.3728651702404022 3257723 0 -1
-2.7015678882598877 2.5446557998657227 0.4875929057598114 3257723 0 -1
-2.547736167907715 2.6753952503204346 0.602320671081543 8180304 0 -1
-2.547736167907715 2.6753952503204346 0.602320671081543 8180304 0 -1
-3.55488920211792 1.16665780544281 0.11472774296998978 11197490 0 -1
-3.367635488510132 1.591066598892212 0.3728651702404022 11197490 0 -1
-3.1293978691101074 1.935073733329773 0.6883664727210999 11197490 0 -1
-2.644692897796631 2.603717088699341 0.4875929057598114 11197490 0 -1
-2.3770124912261963 2.7693772315979004 0.8317761421203613 11197490 0 -1
-3.1778666973114014 2.02888560295105 -0.20251941680908203 4456788 0 -1
-2.9199204444885254 2.38942813873291 0.1446567177772522 4456788 0 -1
-2.7923827171325684 2.5134377479553223 0.37610748410224915 4456788 0 -1
-2.5915443897247314 2.664083242416382 0.6654209494590759 4456788 0 -1
-2.9791409969329834 2.3180623054504395 0.08679403364658356 4456788 0 -1
-3.6742806434631348 0.8694186210632324 0 4456788 0 -1
-3.0955629348754883 2.16168475151062 -0.02893134392797947 4456788 0 -1
-2.854011058807373 2.451442241668701 0.3182447850704193 4456788 0 -1
-2.664900541305542 2.6236116886138916 0.520764172077179 4456788 0 -1
-2.664900541305542 2.6236116886138916 0.520764172077179 4456788 0 -1
-2.880878210067749 2.415830373764038 0.34717613458633423 4456788 0 -1
-2.839799165725708 2.439235210418701 0.4918328523635864 4456788 0 -1
-2.833686590194702 2.4339847564697266 0.5496955513954163 4456788 0 -1
-2.833686590194702 2.4339847564697266 0.5496955513954163 4523353 0 -1
-2.845221519470215 2.44389271736145 0.4339701533317566 4590430 0 -1
-2.7326176166534424 2.573902130126953 0.40503883361816406 4725613 0 -1
-3.0087714195251465 2.2809393405914307 -0.02893134392797947 4729209 0 -1
-2.831190347671509 2.489894390106201 0.20251941680908203 4729209 0 -1
-3.67384934425354 0.8693165183067322 -0.05786268785595894 4729209 0 -1
-3.459407329559326 1.4790029525756836 0.3182447850704193 4212104 0 -1
-2.921722650527954 2.3909027576446533 0.05786268785595894 3692940 0 -1
-3.582322597503662 1.1756610870361328 0.20251941680908203 2139270 0 -1
-3.377525568008423 1.5957392454147339 0.5496955513954163 2139270 0 -1
-2.9488306045532227 2.353656768798828 0.1446567177772522 2139270 0 -1
-2.6555533409118652 2.6144094467163086 0.6075582504272461 2139270 0 -1
-2.8846287727355957 2.418975591659546 0.2893134355545044 3257723 0 -1
-3.67384934425354 0.8693165183067322 0.05786268785595894 8180304 0 -1
-2.9756388664245605 2.3153374195098877 0.20251941680908203 8180304 0 -1
-2.6935553550720215 2.594184398651123 0.520764172077179 8180304 0 -1
-3.6154625415802 1.0849542617797852 0.08679403364658356 11197490 0 -1
-3.3594322204589844 1.660170316696167 0.4629015028476715 11197490 0 -1
-3.1470043659210205 1.9459607601165771 0.7522149682044983 11197490 0 -1
-2.527204751968384 2.7104103565216064 0.723283588886261 11197490 0 -1
-2.814953565597534 2.4756147861480713 -0.6711573004722595 4456788 0 -1
-2.896062135696411 2.428563356399536 0.4668920338153839 4456788 0 -1
-2.896062135696411 2.428563356399536 0.4668920338153839 4456788 0 -1
-2.6675267219543457 2.626197338104248 0.7003380656242371 4456788 0 -1
-2.992884874343872 2.328756332397461 0.35016903281211853 4456788 0 -1
-2.8612849712371826 2.4576902389526367 0.5252535343170166 4456788 0 -1
-2.8581149578094482 2.454967498779297 0.5544342994689941 4523353 0 -1
-2.992884874343872 2.328756332397461 0.35016903281211853 4590430 0 -1
-2.7936480045318604 2.5145766735076904 0.6127958297729492 4590430 0 -1
-2.8138718605041504 2.532780170440674 -0.6474635601043701 4456788 0 -1
-3.2296106815338135 2.0619208812713623 0.2648714482784271 4456788 0 -1
-2.8916068077087402 2.4837350845336914 0.4708825647830963 4456788 0 -1
-2.7660770416259766 2.6054179668426514 -0.559173047542572 4456788 0 -1
-3.322091817855835 1.9195274114608765 -0.17658096551895142 4456788 0 -1
-2.3510236740112305 3.0302321910858154 0.20601113140583038 4456788 0 -1
3.201263189315796 1.9795118570327759 -0.7651841640472412 4456788 0 -1
2.938779592514038 2.4643850326538086 -0.20601113140583038 4725613 0 -1
3.4910929203033447 0.9420688152313232 1.2949271202087402 4725613 0 -1
-3.626394033432007 1.2861660718917847 0.4451935291290283 4456788 0 -1
-2.8046422004699707 2.582857370376587 0.6826300621032715 4456788 0 -1
-2.360452175140381 2.8066978454589844 1.2465418577194214 4456788 0 -1
-2.77345609664917 2.496401786804199 -1.0387848615646362 4456788 0 -1
-3.05475115776062 2.376894474029541 0.14839784801006317 4725613 0 -1
-2.8249623775482178 2.6015703678131104 0.5045526623725891 4725613 0 -1
3.739515781402588 1.0091055631637573 -0.029679568484425545 4725613 0 -1
-2.3930375576019287 2.8454434871673584 1.1971590518951416 4456788 0 -1
-2.4421215057373047 2.903806447982788 1.0562435388565063 4456788 0 -1
-2.5414199829101562 3.341808557510376 -0.0643472969532013 4456788 0 -1
-2.5611207485198975 3.3677139282226562 -0.06484611332416534 4456788 0 -1
-0.9333893656730652 4.41401481628418 1.4929571151733398 4456788 0 -1
-1.9230526685714722 4.327249526977539 0.4005494713783264 4725613 0 -1
-1.45022714138031 4.382495403289795 1.1288212537765503 4725613 0 -1
-0.8244037628173828 4.6046271324157715 0.8375125527381897 4725613 4 -1
-0.5612746477127075 4.543604850769043 1.2744755744934082 4725613 0 -1
-1.0612274408340454 4.656377792358398 0.2933039665222168 4456788 4 -1
-1.0612274408340454 4.656377792358398 0.2933039665222168 4456788 4 -1
-1.0246334075927734 4.664566993713379 0.2933039665222168 4456788 4 -1
-0.9504354596138 4.675076484680176 -0.366629958152771 4456788 4 -1
-0.9730184674263 4.601421356201172 0.8799118995666504 4536450 4 -1
-1.5856596231460571 4.427812576293945 0.8799118995666504 3302798 0 -1
-0.9369807243347168 4.608894348144531 0.8799118995666504 3302798 4 -1
-1.0247411727905273 4.665058135986328 0.6275109052658081 4456788 4 -1
-0.7917700409889221 4.629670143127441 1.0704597234725952 4456788 0 -1
-1.106201171875 4.683363914489746 0.22147442400455475 4456788 4 -1
-1.1047358512878418 4.677159786224365 0.3322116434574127 4456788 4 -1
-1.1052896976470947 4.67950439453125 0.295299232006073 4456788 4 -1
-1.1047358512878418 4.677159786224365 0.3322116434574127 4456788 4 -1
-1.0679112672805786 4.685704708099365 0.3322116434574127 4456788 4 -1
-0.9966056942939758 4.712965488433838 0.036912404000759125 4456788 4 -1
-0.9961667060852051 4.71088981628418 0.1476496160030365 4456788 4 -1
-0.9587077498435974 4.715766906738281 0.22147442400455475 4456788 4 -1
-1.5167800188064575 4.462368011474609 0.9966349601745605 3302798 0 -1
-1.2389252185821533 4.450437545776367 1.365759015083313 3302798 0 -1
-0.7210568785667419 4.649568557739258 1.033547282218933 3302798 0 -1
-1.341894507408142 4.408906936645508 1.4026713371276855 11918891 0 -1
-0.9104218482971191 4.664640426635742 0.9662071466445923 4456788 4 -1
-0.9132007360458374 4.678878307342529 0.8918834924697876 4456788 4 -1
-0.683129072189331 4.642274856567383 1.2263398170471191 4456788 0 -1
-1.1492736339569092 4.699851036071777 0.33445632457733154 4456788 4 -1
-1.1132495403289795 4.713204860687256 0.26013270020484924 4456788 4 -1
-1.1507980823516846 4.706085205078125 0.2229708731174469 4456788 4 -1
-0.9648162722587585 4.745814323425293 -0.26013270020484924 4456788 4 -1
-0.9643900990486145 4.743718147277832 -0.2972944974899292 4456788 4 -1
-0.8446254730224609 4.717573642730713 -0.743236243724823 4456788 4 -1
-0.7205475568771362 4.646284580230713 1.1891779899597168 4536450 0 -1
-0.725383460521698 4.677467346191406 1.1971590518951416 4456788 0 -1
-0.9273116588592529 4.751176834106445 -0.6359907388687134 4456788 4 -1
-1.1207209825515747 4.744836807250977 0.2618785500526428 4456788 4 -1
-1.1211498975753784 4.746652603149414 0.22446732223033905 4456788 4 -1
-1.0472373962402344 4.767470359802246 -0.11223366111516953 4456788 4 -1
-1.0475142002105713 4.768730163574219 0 4456788 4 -1
-0.9719776511192322 4.781040191650391 -0.18705610930919647 4456788 4 -1
-0.9719776511192322 4.781040191650391 -0.18705610930919647 4456788 4 -1
-0.9719776511192322 4.781040191650391 -0.18705610930919647 4456788 4 -1
-0.8492453694343567 4.743377685546875 -0.7856356501579285 4456788 4 -1
-0.6891142725944519 4.682948589324951 1.1971590518951416 3887499 0 -1
-0.8078047037124634 4.723428249359131 0.9352805018424988 2468738 4 -1
-0.5381432175636292 4.651066780090332 1.384215235710144 2468738 0 -1
-1.0920300483703613 4.791531085968018 0.0753212571144104 4456788 4 -1
-1.0920300483703613 4.791531085968018 0.0753212571144104 4456788 4 -1
-1.0542190074920654 4.799253463745117 -0.1129818856716156 4456788 4 -1
-1.0543737411499023 4.799958229064941 -0.0753212571144104 4456788 4 -1
-0.9789175987243652 4.815176963806152 -0.1129818856716156 4456788 4 -1
-0.9787163138389587 4.814187049865723 -0.1506425142288208 4456788 4 -1
-0.9787163138389587 4.814187049865723 -0.1506425142288208 4456788 4 -1
-0.9781410098075867 4.811357021331787 -0.2259637713432312 4456788 4 -1
-0.9240795969963074 4.734617233276367 -0.9415157437324524 4456788 4 -1
-0.941405177116394 4.8233866691589355 -0.0753212571144104 4726897 4 -1
-1.6682024002075195 4.541341304779053 0.866194486618042 3562893 0 -1
-0.9702333807945251 4.772460460662842 0.8719308376312256 4456788 4 -1
-1.1297640800476074 4.783122539520264 0.5686505436897278 4456788 4 -1
-1.1710292100906372 4.788818836212158 0.41701042652130127 4456788 4 -1
-1.1346285343170166 4.639961242675781 1.2889412641525269 4456788 0 -1
-1.1626899242401123 4.754716396331787 0.7202907204627991 4456788 4 -1
-1.0982285737991333 4.818728923797607 0.22746022045612335 4456788 4 -1
-1.0607017278671265 4.828765392303467 -0.18955019116401672 4456788 4 -1
-1.060982346534729 4.830042839050293 -0.1516401469707489 4456788 4 -1
-1.0603586435317993 4.827203750610352 0.22746022045612335 4456788 4 -1
-1.0613564252853394 4.831745624542236 0.07582007348537445 4456788 4 -1
-0.9855452179908752 4.847777366638184 -0.07582007348537445 4456788 4 -1
-0.985197901725769 4.846068859100342 -0.1516401469707489 4456788 4 -1
-0.909814178943634 4.863002777099609 0.037910036742687225 4017546 4 -1
-0.9096004962921143 4.861860275268555 -0.11373011022806168 3887499 4 -1
-1.2527613639831543 4.500139236450195 1.6301316022872925 2468738 0 -1
-1.8333854675292969 4.525803565979004 0.7961108088493347 2666112 0 -1
-1.2417241334915161 4.601693153381348 1.3268513679504395 2666112 0 -1
-0.7365002036094666 4.749151706695557 1.1752111911773682 2666112 0 -1
-0.4678785800933838 4.673670768737793 1.5543115139007568 2666112 0 -1
-1.322129726409912 4.749322891235352 0.41701042652130127 5424489 4 -1
-2.1734914779663086 4.476679801940918 0.19079722464084625 4456788 0 -1
-1.732460618019104 4.599733829498291 0.8013483881950378 4456788 0 -1
-1.021526575088501 4.830816745758057 0.6487105488777161 4456788 4 -1
-1.2036272287368774 4.75895357131958 0.8395078182220459 4456788 4 -1
-1.2198110818862915 4.82294225692749 0.2289566695690155 4456788 4 -1
-1.0604043006896973 4.827411651611328 0.610551118850708 4456788 4 -1
-0.991883397102356 4.8789544105529785 0.11447833478450775 4456788 4 -1
-0.9537340402603149 4.886554718017578 0.11447833478450775 4456788 4 -1
-2.1734914779663086 4.476679801940918 0.19079722464084625 2070922 0 -1
-1.0593608617782593 4.822661399841309 0.6487105488777161 2070922 4 -1
-1.0593608617782593 4.822661399841309 0.6487105488777161 2070922 4 -1
-1.6827528476715088 4.580952167510986 0.9921455979347229 2468738 0 -1
-1.4368269443511963 4.5883941650390625 1.2974210977554321 2468738 0 -1
-1.5197585821151733 4.592615127563477 1.1829428672790527 2666112 0 -1
-1.2894600629806519 4.631967544555664 1.2974210977554321 2666112 0 -1
-0.4709567427635193 4.704418659210205 1.5645372867584229 2666112 0 -1
-1.7654221057891846 4.573195457458496 0.877667248249054 5424489 0 -1
-1.2277836799621582 4.854464530944824 0.23045311868190765 4456788 4 -1
-1.1906744241714478 4.869156360626221 0 4456788 4 -1
-1.1889605522155762 4.862147331237793 0.2688619792461395 4456788 4 -1
-1.183803677558899 4.841058731079102 0.537723958492279 4456788 4 -1
-1.1473842859268188 4.857722282409668 0.4609062373638153 4456788 4 -1
-1.0339901447296143 4.8897576332092285 0.38408854603767395 4456788 4 -1
-0.9936634302139282 4.887709617614746 0.4993151128292084 4456788 4 -1
-0.9200789332389832 4.917868137359619 -0.3072708249092102 4471684 4 -1
-1.4060698747634888 4.619760513305664 1.34430992603302 2468738 0 -1
-1.2753854990005493 4.879929065704346 0.1159747838973999 4456788 4 -1
-1.1563382148742676 4.895630836486816 0.386582612991333 4456788 4 -1
-1.0761851072311401 4.899252891540527 0.5412156581878662 4456788 4 -1
-1.042669415473938 4.930801868438721 0.2319495677947998 4456788 4 -1
-0.9277982711791992 4.959128379821777 0 4725613 4 -1
-0.8890355825424194 4.9656219482421875 0.0773165225982666 4341894 4 -1
-0.9273623824119568 4.956798553466797 0.1546330451965332 4212104 4 -1
-0.88872230052948 4.963871955871582 0.1546330451965332 3692940 4 -1
-1.2838023900985718 4.912133693695068 0.07781533896923065 4456788 4 -1
-1.1283224821090698 4.950772762298584 0 4456788 4 -1
-1.283915400505066 4.912566184997559 0.038907669484615326 4456788 4 -1
-1.2836138010025024 4.911412239074707 0.11672300845384598 4456788 4 -1
-1.1614247560501099 4.917165756225586 0.5057997107505798 4456788 4 -1
-1.1227105855941772 4.926149368286133 -0.5057997107505798 4456788 4 -1
-1.1277923583984375 4.948446750640869 -0.1556306779384613 4456788 4 -1
-1.1256362199783325 4.938986301422119 -0.35016903281211853 4456788 4 -1
-1.1256362199783325 4.938986301422119 -0.35016903281211853 4456788 4 -1
-1.1274940967559814 4.947137832641602 -0.19453835487365723 4456788 4 -1
-1.0474185943603516 4.953260898590088 -0.38907670974731445 4456788 4 -1
-0.933345377445221 4.988778114318848 0.1556306779384613 4600703 4 -1
-0.8946399688720703 4.996924877166748 0.11672300845384598 4341894 4 -1
-0.8948764204978943 4.9982452392578125 0 4017546 4 -1
-0.8946399688720703 4.996924877166748 0.11672300845384598 3692940 4 -1
-0.855968713760376 5.0050554275512695 0 2977934 4 -1
-0.8559436202049255 5.004908561706543 -0.038907669484615326 2912910 4 -1
-0.855968713760376 5.0050554275512695 0 2782862 4 -1
-1.0421110391616821 4.928161144256592 0.8614557385444641 4456788 4 -1
-1.1705322265625 4.955724239349365 -0.43072786927223206 4456788 4 -1
-1.1730213165283203 4.9662628173828125 -0.27409955859184265 4456788 4 -1
-1.1328518390655518 4.970646381378174 -0.35241371393203735 4456788 4 -1
-1.1328518390655518 4.970646381378174 -0.35241371393203735 4456788 4 -1
-1.0007208585739136 4.922424793243408 0.9397698640823364 4456788 4 -1
-1.003514289855957 4.9361653327941895 0.8614557385444641 4456788 4 -1
-1.199530839920044 4.905373573303223 -0.783141553401947 4456788 4 -1
-1.090071439743042 4.96246862411499 -0.5481991171836853 4456788 4 -1
-0.9384170770645142 5.015886306762695 0.27409955859184265 4729209 4 -1
-0.9393283724784851 5.02075719833374 0.1566283106803894 4600703 4 -1
-0.9003748297691345 5.028956413269043 0.11747123301029205 4341894 4 -1
-0.8594592213630676 4.800426006317139 1.5271260738372803 2458766 0 -1
-0.5218151807785034 4.836252689361572 1.566283106803894 10016830 0 -1
-1.2099260091781616 4.9478840827941895 -0.7093167304992676 4456788 4 -1
-1.089003324508667 4.957606792449951 0.8275362253189087 4456788 4 -1
-1.197113037109375 4.895486354827881 -1.0245686769485474 4456788 4 -1
-1.0458292961120605 4.94574499130249 0.945755660533905 4456788 4 -1
-0.9710636138916016 4.975344657897949 0.8669427037239075 4456788 4 -1
-1.1695990562438965 4.951773166656494 -0.7487232685089111 4456788 4 -1
-1.0124660730361938 4.980197906494141 -0.7881297469139099 4456788 4 -1
-0.9932917356491089 4.885881423950195 1.26100754737854 4657508 0 -1
-0.8908916711807251 4.975988864898682 0.945755660533905 4725613 4 -1
-0.9417491555213928 5.03369665145874 0.4728778302669525 4729209 4 -1
-0.9062427282333374 5.061730861663818 -0.07881297171115875 4600703 4 -1
-1.4805541038513184 4.728033542633057 1.3792270421981812 13164576 0 -1
-1.1251404285430908 4.9368109703063965 1.0707091093063354 4456788 4 -1
-1.1001912355422974 4.827340602874756 1.506924033164978 4456788 0 -1
-1.2554682493209839 4.963925361633301 -0.753462016582489 4456788 4 -1
-1.2554682493209839 4.963925361633301 -0.753462016582489 4456788 4 -1
-1.1710560321807861 4.957942008972168 -0.9120855927467346 4456788 4 -1
-1.2148114442825317 4.967862606048584 -0.793117880821228 4456788 4 -1
-1.0944746732711792 4.982514381408691 0.8724296689033508 4456788 4 -1
-1.208366870880127 4.941507816314697 -0.9517414569854736 4456788 4 -1
-1.210091233253479 4.948559284210205 -0.9120855927467346 4456788 4 -1
-0.9772095680236816 5.006834030151367 0.8724296689033508 4456788 4 -1
-1.141345500946045 5.0079145431518555 -0.6344943046569824 4456788 4 -1
-1.5314595699310303 4.7561726570129395 1.3483004570007324 13164576 0 -1
-1.2914806604385376 4.786085605621338 1.5962121486663818 4456788 0 -1
-1.196596622467041 5.066074371337891 -0.1596212089061737 4456788 4 -1
-1.1572197675704956 5.077566623687744 -0.039905302226543427 4456788 4 -1
-1.1375170946121216 4.991116523742676 0.9577272534370422 4456788 4 -1
-1.1406924724578857 5.005048751831055 0.8779166340827942 4456788 4 -1
-1.2193608283996582 4.986466884613037 -0.8779166340827942 4456788 4 -1
-1.1089195013046265 5.04827356338501 -0.6384848356246948 4456788 4 -1
-0.9464142918586731 5.058631896972656 0.7981060743331909 4523353 4 -1
-1.5017783641815186 4.795811176300049 1.4857243299484253 4456788 0 -1
-1.3250665664672852 5.0700201988220215 -0.04015471041202545 4456788 4 -1
-1.2849507331848145 5.080494403839111 0 4456788 4 -1
-1.123803734779358 5.116032600402832 -0.1606188416481018 4456788 4 -1
-1.2430042028427124 5.08315372467041 0.28108298778533936 4456788 4 -1
-1.1995381116867065 5.078527450561523 -0.4818565249443054 4456788 4 -1
-1.030417799949646 5.06850004196167 0.8432489037513733 4456788 4 -1
-1.1955538988113403 5.061659336090088 -0.6424753665924072 4456788 4 -1
-3.5814599990844727 3.603410482406616 -1.2849507331848145 4456788 0 -1
-1.1507313251495361 5.049096584320068 -0.803094208240509 4456788 4 -1
-3.5589041709899902 3.580716371536255 -1.4054148197174072 4456788 0 -1
-0.9078073501586914 5.070469856262207 0.9637130498886108 4725613 4 -1
-0.9091027975082397 5.077705383300781 0.9235583543777466 4726897 4 -1
-1.333296775817871 5.101511001586914 0.04040411859750748 4456788 4 -1
-1.2905004024505615 5.102436542510986 0.3232329487800598 4456788 4 -1
-1.2501722574234009 5.112466812133789 0.3232329487800598 4456788 4 -1
-1.2495458126068115 5.109905242919922 0.3636370599269867 4456788 4 -1
-1.1592354774475098 5.0864105224609375 -0.7676782608032227 4456788 4 -1
-1.160521149635315 5.092051982879639 -0.7272741198539734 4456788 4 -1
-1.298466444015503 5.133933067321777 0.325228214263916 4456788 4 -1
-1.2990401983261108 5.136201858520508 0.2845746874809265 4456788 4 -1
-1.2178502082824707 5.1560564041137695 0.2845746874809265 4456788 4 -1
-1.2649723291397095 5.172990798950195 0.36812642216682434 4456788 4 -1
-5.055562973022461 1.1962615251541138 1.2270880937576294 4657508 0 -1
-4.288881301879883 2.9949991703033447 1.063476324081421 4657508 0 -1
-3.756510019302368 3.381253480911255 1.7179232835769653 4657508 0 -1
-2.873570203781128 4.174410343170166 1.6770203113555908 4657508 0 -1
4.901954650878906 1.980979084968567 0.7362528443336487 4657508 0 -1
-4.00091552734375 3.1933953762054443 1.5134086608886719 4725613 0 -1
-3.6967828273773193 3.404449462890625 1.7997291088104248 4725613 0 -1
-0.7705341577529907 5.236245632171631 -0.6953498721122742 4725613 4 -1
-4.93630838394165 1.4813233613967896 1.3906997442245483 4536450 0 -1
-4.044738292694092 3.2283732891082764 1.3088939189910889 4536450 0 -1
-3.766706705093384 3.3904316425323486 1.6770203113555908 4536450 0 -1
5.032840251922607 1.510291337966919 0.9407675266265869 4536450 0 -1
-3.756510019302368 3.381253480911255 1.7179232835769653 3887499 0 -1
3.7613019943237305 3.7843549251556396 0.1636117398738861 3887499 0 -1
3.9559202194213867 3.560743570327759 0.40902936458587646 3887499 0 -1
5.0181803703308105 1.5058921575546265 1.0225733518600464 3887499 0 -1
4.843240737915039 2.1807749271392822 0.5317381620407104 3757452 0 -1
-3.979860305786133 3.2567975521087646 1.4316027164459229 2134668 0 -1
-1.2726855278015137 5.204533100128174 0.37037110328674316 4456788 4 -1
-1.2726855278015137 5.204533100128174 0.37037110328674316 4456788 4 -1
-4.528990268707275 2.800516366958618 -0.6995898485183716 4456788 0 -1
-4.572737693786621 2.8275678157806396 -0.5382227897644043 4456788 0 -1
-4.905867099761963 1.7399544715881348 1.4490612745285034 4657508 0 -1
-4.214478015899658 3.110898017883301 1.3248560428619385 4657508 0 -1
-1.1575802564620972 5.2697978019714355 0.28981226682662964 4657508 4 -1
5.144266128540039 1.2172505855560303 1.1178473234176636 4657508 0 -1
-0.9772480130195618 5.007030963897705 -1.7802753448486328 4536450 0 -1
-4.564417839050293 2.7302165031433105 0.9522402882575989 3887499 0 -1
3.999307155609131 3.5171964168548584 0.9108385443687439 2134668 0 -1
-5.127208232879639 1.0197210311889648 1.3662577867507935 2134668 0 -1
-4.616623401641846 2.8547046184539795 0.2915581166744232 4456788 0 -1
-4.591914176940918 2.7466635704040527 0.9579766988754272 3887499 0 -1
-3.9146947860717773 3.3625128269195557 1.7076975107192993 3887499 0 -1
-4.647548198699951 2.8738272190093994 0.20950284600257874 4456788 0 -1
-4.676449298858643 2.891698122024536 0.1685999035835266 4456788 0 -1
2.914989709854126 5.075145721435547 0.2693607807159424 2977934 5 -1
2.913874626159668 5.073204517364502 0.3142542541027069 2912910 5 -1
2.913874626159668 5.073204517364502 0.3142542541027069 2782862 5 -1
2.9311840534210205 5.103341102600098 0.2708572447299957 3107982 5 -1
2.9311840534210205 5.103341102600098 0.2708572447299957 2977934 5 -1
2.930062770843506 5.101388931274414 0.3160001039505005 2912910 5 -1
2.930062770843506 5.101388931274414 0.3160001039505005 2782862 5 -1
2.947378396987915 5.131536483764648 0.2723536789417267 3107982 5 -1
2.946251153945923 5.129573345184326 0.31774598360061646 2977934 5 -1
2.902034282684326 5.157315731048584 0.2723536789417267 2782862 5 -1
2.9009242057800293 5.1553425788879395 0.31774598360061646 2718350 5 -1
2.9653160572052 5.162766456604004 0.18256676197052002 3238030 5 -1
2.9635729789733887 5.159731864929199 0.27385014295578003 3107982 5 -1
2.9624392986297607 5.1577582359313965 0.31949183344841003 2977934 5 -1
2.9653160572052 5.162766456604004 0.18256676197052002 2912910 5 -1
2.9106736183166504 5.172668933868408 0.5020585656166077 2588302 5 -1
2.4542102813720703 5.399765491485596 0.5477002859115601 2458766 0 -1
2.709324359893799 5.233366966247559 0.8671920895576477 2458766 0 -1
2.9443299770355225 5.1262288093566895 0.7302670478820801 2458766 5 -1
2.9443299770355225 5.1262288093566895 0.7302670478820801 2458766 5 -1
-4.586953639984131 3.846501588821411 -0.18356439471244812 4456788 0 -1
-4.3492751121521 4.09666109085083 -0.41301989555358887 4456788 0 -1
-4.281221389770508 4.1232781410217285 0.7342575788497925 4729209 0 -1
2.9825711250305176 5.192808628082275 0.09178219735622406 3238030 5 -1
2.931506872177124 5.209692478179932 0.36712878942489624 3107982 5 -1
2.9758198261260986 5.181054592132568 0.41301989555358887 2977934 5 -1
2.982133150100708 5.192046165466309 0.1376732885837555 2912910 5 -1
2.467621326446533 5.429272174835205 0.550693154335022 2458766 0 -1
2.717585325241089 5.249323844909668 0.9637130498886108 2458766 0 -1
2.719236373901367 5.143083572387695 1.4226239919662476 2070155 0 -1
-4.5657639503479 3.921746253967285 -0.18456202745437622 4456788 0 -1
-4.400679588317871 3.8701841831207275 -1.384215235710144 4590430 0 -1
2.8606274127960205 5.298588752746582 0.046140506863594055 3562893 5 -1
2.8606274127960205 5.298588752746582 0.046140506863594055 3432845 5 -1
2.8607113361358643 5.298744201660156 0 3302798 5 -1
2.810519218444824 5.315733432769775 0.3229835331439972 3238030 5 -1
2.8606274127960205 5.298588752746582 0.046140506863594055 3107982 5 -1
2.95082426071167 5.244022369384766 0.23070253431797028 2977934 5 -1
2.853900909423828 5.286129474639893 0.4152645468711853 2523534 5 -1
2.8138270378112793 5.321990013122559 -0.13842152059078217 2458766 5 -1
2.812504529953003 5.319488048553467 -0.23070253431797028 2070155 5 -1
-4.636812210083008 3.8883113861083984 0.18555966019630432 4456788 0 -1
-4.730520725250244 3.7757418155670166 -0.13916973769664764 4456788 0 -1
-4.541404724121094 3.9939448833465576 -0.2783394753932953 4456788 0 -1
-4.357450485229492 4.196694850921631 -0.2319495677947998 4456788 0 -1
2.8760902881622314 5.3272294998168945 0.04638991504907608 4017546 5 -1
2.9225645065307617 5.302078723907471 0 3887499 5 -1
2.8760902881622314 5.3272294998168945 0.04638991504907608 3562893 5 -1
2.8760902881622314 5.3272294998168945 0.04638991504907608 3432845 5 -1
2.8760902881622314 5.3272294998168945 0.04638991504907608 3302798 5 -1
2.827707290649414 5.348242282867432 0.2319495677947998 3238030 5 -1
2.8760902881622314 5.3272294998168945 0.04638991504907608 3107982 5 -1
2.8760902881622314 5.3272294998168945 0.04638991504907608 2977934 5 -1
2.8761746883392334 5.327385902404785 0 2134668 5 -1
2.8758368492126465 5.326760292053223 -0.09277983009815216 2070155 5 -1
2.8754146099090576 5.3259782791137695 0.13916973769664764 2139270 5 -1
2.8760902881622314 5.3272294998168945 0.04638991504907608 2271109 5 -1
-4.663384437561035 3.9105944633483887 0.09327864646911621 4456788 0 -1
-4.708358287811279 3.8529419898986816 -0.18655729293823242 4456788 0 -1
-4.4243574142456055 4.167382717132568 -0.32647526264190674 4456788 0 -1
-4.35946798324585 3.74454927444458 -2.005490779876709 4590430 0 -1
-4.280935287475586 4.214608192443848 0.9794257879257202 4729209 0 -1
2.891298532485962 5.355398654937744 0.09327864646911621 3887499 5 -1
2.8915531635284424 5.355870723724365 0.046639323234558105 3562893 5 -1
2.8915531635284424 5.355870723724365 0.046639323234558105 3432845 5 -1
2.891298532485962 5.355398654937744 0.09327864646911621 3302798 5 -1
2.8436620235443115 5.378418445587158 0.18655729293823242 3238030 5 -1
2.8915531635284424 5.355870723724365 0.046639323234558105 3107982 5 -1
2.8442468643188477 5.3795247077941895 0.13991796970367432 2977934 5 -1
2.8446645736694336 5.380314826965332 0.09327864646911621 2912910 5 -1
2.8449151515960693 5.380788803100586 0.046639323234558105 2782862 5 -1
2.891298532485962 5.355398654937744 -0.09327864646911621 2134668 5 -1
2.891298532485962 5.355398654937744 0.09327864646911621 2139270 5 -1
2.8581125736236572 5.405750274658203 0.23444364964962006 3887499 5 -1
3.047677993774414 5.3061628341674805 -0.04688873142004013 3692940 5 -1
2.8598766326904297 5.40908670425415 0.09377746284008026 3562893 5 -1
2.9063332080841064 5.383246898651123 0.1406661868095398 3432845 5 -1
3.000790596008301 5.33281946182251 -0.04688873142004013 3302798 5 -1
2.8581125736236572 5.405750274658203 0.23444364964962006 3238030 5 -1
2.859456777572632 5.408292293548584 0.1406661868095398 3107982 5 -1
2.86012864112854 5.409563064575195 0.04688873142004013 2912910 5 -1
2.9070160388946533 5.384511470794678 0.04688873142004013 2782862 5 -1
2.812002182006836 5.431700706481934 0.18755492568016052 2718350 5 -1
2.7657041549682617 5.4568305015563965 0.1406661868095398 2458766 5 -1
2.9536430835723877 5.358460903167725 0.09377746284008026 2458766 5 -1
2.8163068294525146 5.44001579284668 -0.5656576752662659 4725613 5 -1
2.8163068294525146 5.44001579284668 -0.5656576752662659 4726897 5 -1
2.8142216205596924 5.435987949371338 -0.6127958297729492 4729209 5 -1
2.8163068294525146 5.44001579284668 0.5656576752662659 3432845 5 -1
2.8282053470611572 5.462998867034912 0.047138139605522156 3302798 5 -1
3.0160436630249023 5.359926223754883 0.14141441881656647 3302798 5 -1
2.874666690826416 5.4370598793029785 0.14141441881656647 3107982 5 -1
2.827540874481201 5.4617156982421875 0.14141441881656647 2912910 5 -1
2.967522382736206 5.383640766143799 0.23569069802761078 2782862 5 -1
2.8252978324890137 5.457382678985596 0.28282883763313293 2718350 5 -1
2.798424482345581 5.292857646942139 1.4141441583633423 2588302 0 -1
3.0530760288238525 5.315561294555664 0.5185195207595825 2588302 5 -1
2.801258087158203 5.410947322845459 0.8484864830970764 2458766 0 -1
2.8312079906463623 5.468799114227295 -0.5686505436897278 4590430 5 -1
2.8291115760803223 5.464749813079834 -0.6160380840301514 4657508 5 -1
2.8312079906463623 5.468799114227295 -0.5686505436897278 4724328 5 -1
2.8331351280212402 5.472521781921387 -0.5212630033493042 4725613 5 -1
2.8331351280212402 5.472521781921387 -0.5212630033493042 4726897 5 -1
2.8391599655151367 5.484159469604492 -0.33171284198760986 4729209 5 -1
2.8331351280212402 5.472521781921387 -0.5212630033493042 4471684 5 -1
2.6960105895996094 5.552897930145264 0.37910038232803345 3432845 5 -1
2.700376510620117 5.561890125274658 0.14216263592243195 3302798 5 -1
2.6807138919830322 5.521391868591309 0.7582007646560669 3238030 5 -1
2.7918405532836914 5.50839900970459 0.33171284198760986 2977934 5 -1
3.03244686126709 5.3890767097473145 0.09477509558200836 2977934 5 -1
2.8402464389801025 5.486258029937744 0.2843252718448639 2912910 5 -1
2.795126438140869 5.5148820877075195 0.14216263592243195 2782862 5 -1
2.741934299468994 5.526913166046143 0.42648792266845703 2718350 5 -1
2.595005512237549 5.230749130249023 2.0376644134521484 2588302 0 -1
2.7471864223480225 5.537499904632568 0.18955019116401672 2070922 5 -1
2.8076083660125732 5.539509296417236 0.28582173585891724 4729209 5 -1
2.8480465412139893 5.501324653625488 -0.5240064859390259 4471684 5 -1
2.7145888805389404 5.591163158416748 0.14291086792945862 3562893 5 -1
2.713312864303589 5.588535308837891 0.23818477988243103 3432845 5 -1
2.713312864303589 5.588535308837891 0.23818477988243103 3302798 5 -1
2.8076083660125732 5.539509296417236 0.28582173585891724 2977934 5 -1
2.8052947521209717 5.534944534301758 0.38109564781188965 2912910 5 -1
2.7563655376434326 5.556002140045166 0.42873260378837585 2718350 5 -1
2.7616453170776367 5.566644191741943 0.19054782390594482 2588302 5 -1
2.7548203468322754 5.552887439727783 0.47636955976486206 2523534 5 -1
2.8052947521209717 5.534944534301758 0.38109564781188965 2328718 5 -1
2.886563539505005 5.459561347961426 -0.9577272534370422 4523353 0 -1
2.7854723930358887 5.38045597076416 -1.5323636531829834 4729209 0 -1
2.7288014888763428 5.620436191558838 0.1436590850353241 3692940 5 -1
2.7282402515411377 5.619280815124512 0.19154545664787292 3562893 5 -1
2.7266366481781006 5.6159772872924805 0.2873181700706482 3432845 5 -1
2.775369882583618 5.594309329986572 0.23943181335926056 2977934 5 -1
2.772186040878296 5.587891101837158 0.38309091329574585 2912910 5 -1
2.770796775817871 5.5850911140441895 0.4309772551059723 2718350 5 -1
2.774472236633301 5.592499732971191 0.2873181700706482 2588302 5 -1
2.7656431198120117 5.574702739715576 0.5746363401412964 2523534 5 -1
2.721733570098877 5.486194133758545 1.2450454235076904 2458766 0 -1
3.0333118438720703 5.281150817871094 1.5403447151184082 4456788 0 -1
3.073718786239624 5.243393898010254 1.5884804725646973 4456788 0 -1
3.073718786239624 5.243393898010254 1.5884804725646973 4456788 0 -1
2.857374668121338 5.519343376159668 -0.9145796298980713 4523353 0 -1
2.7889225482940674 5.621627330780029 0.28881463408470154 2977934 5 -1
2.7866244316101074 5.616994857788086 0.38508617877960205 2912910 5 -1
2.657506227493286 5.356731414794922 1.9254308938980103 2458766 0 -1
2.6969451904296875 5.55482292175293 -1.1552585363388062 2264205 0 -1
2.7550389766693115 5.6744771003723145 -0.2903110682964325 4341894 5 -1
2.697458505630493 5.437263011932373 -1.7418664693832397 3107982 0 -1
2.8323709964752197 5.246250629425049 -2.0805628299713135 3107982 0 -1
3.176574468612671 5.203579902648926 1.6450960636138916 2458766 0 -1
2.769770860671997 5.5830230712890625 1.0160887241363525 2070155 0 -1
3.0460283756256104 5.526064872741699 -0.2419258952140808 4045940 5 -1
3.1391496658325195 5.247338771820068 1.702210545539856 2588302 0 -1
3.002570629119873 5.561502456665039 -0.5836150646209717 2994813 5 -1
3.2751314640045166 5.474643707275391 -0.04888399690389633 4456788 5 -1
2.828521728515625 5.701447486877441 -0.4399559497833252 4147337 5 -1
3.174099922180176 5.526269912719727 0.2933039665222168 2977934 5 -1
3.0739002227783203 5.576629638671875 0.39107197523117065 2782862 5 -1
2.9787707328796387 5.6339592933654785 0.2933039665222168 2523534 5 -1
3.156402349472046 5.495457649230957 0.733259916305542 2523534 5 -1
2.9787707328796387 5.6339592933654785 -0.2933039665222168 2666112 5 -1
3.021897315979004 5.597300052642822 -0.4888399541378021 2994813 5 -1
2.207820415496826 6.010341644287109 -0.3439338207244873 4456788 0 -1
3.3877158164978027 5.43874979019165 -0.24566702544689178 4456788 5 -1
2.407466173171997 5.94295072555542 -0.04913340508937836 4456788 0 -1
3.4875497817993164 5.378869533538818 -0.14740021526813507 4456788 0 -1
2.4531338214874268 5.91445779800415 0.3439338207244873 4456788 0 -1
2.72802734375 5.742574691772461 0.8352678418159485 4456788 5 -1
2.9864723682403564 5.648526191711426 0.5404674410820007 2977934 5 -1
3.1876652240753174 5.5498881340026855 0.39306724071502686 2977934 5 -1
2.928467273712158 5.6566667556762695 0.7370010614395142 2912910 5 -1
3.1312167644500732 5.56460428237915 0.5896008610725403 2782862 5 -1
2.9355156421661377 5.670280933380127 0.5896008610725403 2458766 5 -1
3.0921313762664795 5.609704494476318 -0.29480043053627014 2006409 5 -1
3.0405423641204834 5.631835460662842 -0.39306724071502686 2271109 5 -1
3.0390188694000244 5.629013538360596 -0.442200630903244 2666112 5 -1
3.050839424133301 5.65090799331665 0.5432109236717224 2912910 5 -1
2.937723398208618 5.674545764923096 0.8395078182220459 2782862 5 -1
3.1529757976531982 5.603273391723633 0.44444531202316284 2782862 5 -1
2.8557825088500977 5.756396293640137 0.4938281178474426 2523534 5 -1
2.899094820022583 5.720015048980713 0.641976535320282 2458766 5 -1
2.8557825088500977 5.756396293640137 0.4938281178474426 2328718 5 -1
2.901243209838867 5.7242536544799805 0.5925937294960022 2264205 5 -1
3.060925245285034 5.669589996337891 -0.14814843237400055 2271109 5 -1
3.046506404876709 5.642882823944092 -0.641976535320282 2666112 5 -1
3.060295820236206 5.668424129486084 -0.19753125309944153 2994813 5 -1
3.000359296798706 5.557406425476074 1.283953070640564 13164576 0 -1
3.2277445793151855 5.287402153015137 1.7777812480926514 13164576 0 -1
3.1087865829467773 5.639920234680176 0.6948511004447937 2912910 5 -1
3.001769781112671 5.677458763122559 0.8437477350234985 2782862 5 -1
2.868425130844116 5.7818803787231445 0.5459544062614441 2523534 5 -1
2.868425130844116 5.7818803787231445 0.5459544062614441 2328718 5 -1
2.868425130844116 5.7818803787231445 0.5459544062614441 2264205 5 -1
3.012507438659668 5.697768211364746 0.6452188491821289 2199437 5 -1
3.012507438659668 5.697768211364746 0.6452188491821289 2199437 5 -1
3.0689234733581543 5.567600727081299 1.2408055067062378 10016830 0 -1
3.0663106441497803 5.679564476013184 0.847987711429596 2912910 5 -1
3.1217164993286133 5.663377285003662 0.7482244372367859 2782862 5 -1
2.880878210067749 5.806982040405273 0.5985795259475708 2264205 5 -1
3.0784194469451904 5.701993465423584 0.9023586511611938 2912910 5 -1
3.1373250484466553 5.691694259643555 0.7519655227661133 2782862 5 -1
2.8506662845611572 5.871438026428223 0.4511793255805969 2070155 5 -1
-5.418588638305664 4.107813358306885 -0.20850521326065063 4456788 0 -1
-5.444514751434326 4.127468109130859 -0.20950284600257874 4456788 0 -1
-5.523041248321533 4.076808452606201 -0.21050047874450684 4456788 0 -1
-5.870378017425537 3.7478995323181152 -0.10674668103456497 4456788 0 -1
-4.4786200523376465 5.3253068923950195 0.3202400505542755 4456788 0 -1
-4.856886863708496 4.886653900146484 -1.4006761312484741 4017546 0 -1
-2.5485799312591553 6.29129695892334 1.831653356552124 4017546 0 -1
-4.871711254119873 4.901569843292236 -1.2929317951202393 3692940 0 -1
-2.4614100456237793 6.223227024078369 2.154886245727539 3692940 0 -1
-4.932408809661865 4.855988025665283 -1.407160758972168 4017546 0 -1
-2.618138551712036 6.312281131744385 1.7860116958618164 4017546 0 -1
-4.901249885559082 4.931289196014404 -1.2447960376739502 3757452 0 -1
-2.450531005859375 6.34791898727417 1.8942548036575317 3757452 0 -1
-2.5081262588500977 6.341340065002441 1.8401333093643188 3692940 0 -1
-2.518531322479248 6.367647647857666 1.731890082359314 3562893 0 -1
-4.8869733810424805 4.916925430297852 -1.3530391454696655 3432845 0 -1
-4.774150848388672 4.7001824378967285 -2.337951898574829 4456788 0 -1
-2.533662796020508 6.563265800476074 0.9243065714836121 4456788 0 -1
-2.575798273086548 6.512436389923096 1.141790509223938 4728182 0 -1
-4.930544853210449 4.960763454437256 -1.1961613893508911 3757452 0 -1
-2.519684314727783 6.370562553405762 1.8486131429672241 3692940 0 -1
-4.930544853210449 4.960763454437256 -1.1961613893508911 3562893 0 -1
