VERSION .7
FIELDS x y z rgb label object
SIZE 4 4 4 4 4 4
TYPE F F F I I I
COUNT 1 1 1 1 1 1
WIDTH 686
HEIGHT 1
POINTS 686
VIEWPOINT 0 0 0 1 0 0 0
DATA ascii
-2.2254438400268555 1.09977388381958 0.3456796705722809 3887499 0 -1
-1.77079439163208 1.7433583736419678 0.32647526264190674 3887499 0 -1
-1.5505831241607666 1.8437222242355347 0.6913593411445618 3887499 0 -1
-1.7649147510528564 1.7375699281692505 0.38408854603767395 6933851 0 -1
-1.6290134191513062 1.821467399597168 0.5569283962249756 6933851 0 -1
-1.9059721231460571 1.6762099266052246 -0.05836150422692299 4456788 0 -1
-1.5050618648529053 2.275336503982544 0.7594478130340576 4456788 0 -1
-1.9508007764816284 2.0485494136810303 -0.13019104301929474 4456788 0 -1
-1.5606406927108765 2.3593599796295166 -0.13019104301929474 4456788 0 -1
-2.160186290740967 1.767722725868225 -0.47736719250679016 4456788 0 -1
-1.7771055698394775 2.1130688190460205 -0.6292567253112793 4456788 0 -1
-1.6896506547927856 2.221785068511963 -0.47736719250679016 4456788 0 -1
-1.4527326822280884 2.428358554840088 -0.10849253833293915 4456788 0 -1
-1.5160391330718994 2.3855020999908447 -0.17358806729316711 4456788 0 -1
-1.6548172235488892 2.2645442485809326 -0.3905731439590454 4456788 0 -1
-1.6315165758132935 2.2775676250457764 -0.412271648645401 4456788 0 -1
-1.410237431526184 2.4552953243255615 -0.04339701682329178 4456788 0 -1
-1.410237431526184 2.4552953243255615 -0.04339701682329178 4456788 0 -1
-1.5115225315093994 2.2851037979125977 -0.7160508036613464 4456788 0 -1
-1.4993380308151245 2.3124382495880127 -0.6509552597999573 4724328 0 -1
-1.5376968383789062 2.3715994358062744 -0.17358806729316711 4600703 0 -1
-1.4664478302001953 2.261711359024048 0.8679403066635132 3432845 0 -1
-1.9311898946762085 2.114973783493042 -0.04389583319425583 4456788 0 -1
-1.4701218605041504 2.457425832748413 -0.06584374606609344 4456788 0 -1
-1.3143985271453857 2.538909673690796 0.17558333277702332 4456788 0 -1
-1.5798324346542358 2.388373851776123 -0.06584374606609344 4456788 0 -1
-1.4701218605041504 2.457425832748413 -0.06584374606609344 4456788 0 -1
-1.4701218605041504 2.457425832748413 -0.06584374606609344 4456788 0 -1
-1.6336761713027954 2.326439142227173 -0.35116666555404663 4456788 0 -1
-1.4485199451446533 2.4710004329681396 0.021947916597127914 4456788 0 -1
-1.5537207126617432 2.396312952041626 -0.21947915852069855 4456788 0 -1
-1.5779752731323242 2.385565996170044 -0.1536354124546051 4456788 0 -1
-1.6538294553756714 2.3087158203125 -0.37311458587646484 4456788 0 -1
-1.7112910747528076 2.2502408027648926 -0.4609062373638153 4456788 0 -1
-1.547974944114685 2.387451410293579 -0.3292187452316284 4456788 0 -1
-1.4259443283081055 2.4826419353485107 -0.08779166638851166 4456788 0 -1
-1.6700268983840942 2.28535795211792 -0.4389583170413971 4456788 0 -1
-1.4265726804733276 2.4837357997894287 -0.021947916597127914 4456788 0 -1
-1.5555158853530884 2.3516123294830322 -0.5048021078109741 4456788 0 -1
-1.5379319190979004 2.325029134750366 -0.6584374904632568 4724328 0 -1
-1.5764878988265991 2.383317470550537 -0.19753125309944153 4600703 0 -1
-1.5746266841888428 2.3805038928985596 -0.24142707884311676 4341894 0 -1
-1.4833035469055176 2.287708044052124 0.8779166340827942 3432845 0 -1
-1.57600998878479 2.430690050125122 0 4456788 0 -1
-2.1568033695220947 1.8968037366867065 -0.37735453248023987 4456788 0 -1
-1.6522406339645386 2.3528761863708496 -0.35515719652175903 4456788 0 -1
-1.4870461225509644 2.4857161045074463 -0.04439464956521988 4456788 0 -1
-1.3752237558364868 2.5472540855407715 0.1109866201877594 4456788 0 -1
-2.193512201309204 1.8394229412078857 -0.4439464807510376 4456788 0 -1
-2.0621683597564697 2.0302181243896484 -0.13318394124507904 4456788 0 -1
-1.562582015991211 2.409979820251465 -0.37735453248023987 4456788 0 -1
-1.4870461225509644 2.4857161045074463 0.04439464956521988 4456788 0 -1
-1.6096659898757935 2.385408639907837 -0.3329598605632782 4456788 0 -1
-1.6180721521377563 2.3978657722473145 -0.15538127720355988 4456788 0 -1
-1.7722525596618652 2.2389070987701416 -0.48834115266799927 4456788 0 -1
-1.6726229190826416 2.334951162338257 -0.37735453248023987 4456788 0 -1
-1.708829402923584 2.2923073768615723 -0.46614381670951843 4456788 0 -1
-1.5669156312942505 2.416663646697998 -0.31076255440711975 4456788 0 -1
-1.6869213581085205 2.3084774017333984 -0.46614381670951843 4456788 0 -1
-1.5492445230484009 2.437751054763794 -0.2219732403755188 4456788 0 -1
-1.4205870628356934 2.5245792865753174 0.02219732478260994 4456788 0 -1
-1.5731922388076782 2.3783352375030518 -0.5105384588241577 4456788 0 -1
-1.5524649620056152 2.3469998836517334 -0.6881170868873596 4724328 0 -1
-1.6387418508529663 2.333653211593628 -0.5105384588241577 4341894 0 -1
-1.50404691696167 2.4637949466705322 -0.24417057633399963 4341894 0 -1
-1.5610451698303223 2.3133559226989746 0.7769063711166382 3432845 0 -1
-1.5610451698303223 2.3133559226989746 0.7769063711166382 3432845 0 -1
-1.774526834487915 2.2871859073638916 -0.4489346444606781 4456788 0 -1
-1.5729501247406006 2.4259707927703857 -0.47138139605522156 4456788 0 -1
-2.132434844970703 2.053764820098877 -0.09078456461429596 4456788 0 -1
-1.5885432958602905 2.4995880126953125 -0.04539228230714798 4456788 0 -1
-1.8493455648422241 2.3362996578216553 0.2982921302318573 4456788 0 -1
-1.8577163219451904 2.346874475479126 -0.09178219735622406 4456788 0 -1
-1.8580983877182007 2.3473572731018066 0.06883664429187775 4456788 0 -1
-1.8519757986068726 2.3396224975585938 -0.25240105390548706 4456788 0 -1
-1.8577163219451904 2.346874475479126 -0.09178219735622406 4456788 0 -1
-1.973317265510559 2.2524149417877197 0 4724328 0 -1
-1.85858952999115 2.347977638244629 0 4724328 0 -1
-1.9727957248687744 2.251819610595703 -0.06883664429187775 4600703 0 -1
-1.8768049478530884 2.3709893226623535 -0.13916973769664764 4456788 0 -1
-1.8708324432373047 2.3634443283081055 -0.2783394753932953 4456788 0 -1
-1.8785709142684937 2.373220443725586 -0.04638991504907608 4456788 0 -1
-1.992537021636963 2.3214378356933594 -0.04688873142004013 4456788 0 -1
-1.992537021636963 2.3214378356933594 0.04688873142004013 4456788 0 -1
-1.9913079738616943 2.3200061321258545 -0.11722182482481003 4456788 0 -1
-1.9927124977111816 2.3216423988342285 -0.023444365710020065 4724328 0 -1
-2.0137343406677246 2.3461341857910156 -0.04738754779100418 4456788 0 -1
-2.0137343406677246 2.3461341857910156 0.04738754779100418 4456788 0 -1
-2.0110716819763184 2.343031883239746 -0.16585642099380493 4456788 0 -1
-2.011841297149658 2.343928575515747 -0.14216263592243195 4456788 0 -1
-2.037126064300537 2.3252487182617188 -0.07108131796121597 4724328 0 -1
-2.0361685752868652 2.324155569076538 -0.11846886575222015 4600703 0 -1
-2.0585694313049316 2.3497250080108643 -0.07182954251766205 4456788 0 -1
-2.8635313510894775 1.7128275632858276 0.570645809173584 4456788 0 -1
-3.0915770530700684 1.014606237411499 0.9337840676307678 4725613 0 -1
-2.8273093700408936 1.6911612749099731 0.7781534194946289 4725613 0 -1
-2.4988255500793457 2.0954508781433105 0.9078456163406372 4725613 0 -1
-3.0915770530700684 1.014606237411499 0.9337840676307678 4536450 0 -1
-2.7494733333587646 1.865240216255188 0.6484611630439758 4536450 0 -1
-2.487417459487915 2.0858843326568604 0.9597225189208984 4536450 0 -1
-2.8071846961975098 1.7358320951461792 0.7522149682044983 3432845 0 -1
-2.913602113723755 1.7427774667739868 0.39281782507896423 4456788 0 -1
-2.8983936309814453 1.7336806058883667 0.5237571001052856 4456788 0 -1
-2.9109137058258057 1.7411695718765259 0.41900569200515747 4456788 0 -1
-2.7502076625823975 1.9205172061920166 0.6546963453292847 4536450 0 -1
-2.5171804428100586 2.110842704772949 0.9427627921104431 4536450 0 -1
3.212859630584717 0.9641382694244385 0.6546963453292847 4536450 0 -1
-2.874244451522827 1.7192356586456299 0.6808842420578003 3432845 0 -1
-2.8948190212249756 1.7315424680709839 0.5499449372291565 2977934 0 -1
-2.913602113723755 1.7427774667739868 0.39281782507896423 2588302 0 -1
-2.956883430480957 1.6478155851364136 0.47138139605522156 2271109 0 -1
-2.7670986652374268 1.877197265625 0.7070720791816711 2271109 0 -1
-2.9176025390625 1.8041092157363892 0.37012168765068054 4456788 0 -1
-3.0274057388305664 1.6243070363998413 0.3172471523284912 4536450 0 -1
-2.0524046421051025 2.865119695663452 -0.40778231620788574 4456788 0 -1
-2.0463509559631348 2.8566689491271973 -0.48933878540992737 4456788 0 -1
-2.0473833084106445 2.9155797958374023 -0.35665363073349 4456788 0 -1
-2.917374610900879 1.8039683103561401 -1.135056495666504 4456788 0 -1
-2.068934202194214 2.9462692737579346 -0.3045273423194885 4456788 0 -1
-2.2344346046447754 2.879960536956787 0.05586742237210274 4456788 0 -1
-2.3743655681610107 2.766293525695801 0 4724328 0 -1
-2.8733277320861816 2.2933928966522217 0.11273247748613358 4456788 0 -1
-2.595980644226074 2.5557596683502197 0.5072961449623108 4456788 0 -1
-2.710796594619751 2.384014129638672 -0.7045779824256897 4456788 0 -1
-2.8662269115448 2.2877252101898193 0.28183120489120483 4456788 0 -1
-2.7325189113616943 2.4031176567077637 0.5354793071746826 4456788 0 -1
-2.7619457244873047 2.428997278213501 0 4724328 0 -1
-2.729320764541626 2.4003050327301025 -0.5636624097824097 4726897 0 -1
-2.7538256645202637 2.421856164932251 0.28183120489120483 4017546 0 -1
-2.7502453327178955 2.4187073707580566 0.3381974399089813 2199437 0 -1
-2.4895071983337402 2.614248514175415 0.7045779824256897 2199437 0 -1
-1.8198432922363281 3.104433298110962 0.7609442472457886 2199437 0 -1
-3.579151153564453 0.8469087481498718 0.028183119371533394 2271109 0 -1
-2.7156455516815186 2.444366216659546 0.42274680733680725 2271109 0 -1
-2.0118954181671143 3.041562080383301 0.47911304235458374 2271109 0 -1
-2.7679219245910645 2.434252977371216 0.42648792266845703 4456788 0 -1
-2.928206443786621 2.278430223464966 0.05686505511403084 4456788 0 -1
-2.6807138919830322 2.5250132083892822 0.4549204409122467 4456788 0 -1
-2.928206443786621 2.278430223464966 -0.05686505511403084 4456788 0 -1
-2.6549456119537354 2.5569989681243896 0.42648792266845703 4456788 0 -1
-2.776472568511963 2.441772699356079 0.31275781989097595 4456788 0 -1
-2.798577308654785 2.4038279056549072 0.39805540442466736 4456788 0 -1
-2.7879185676574707 2.3946726322174072 0.5117855072021484 4456788 0 -1
-2.814737558364868 2.4177086353302 0.02843252755701542 4724328 0 -1
-2.7500782012939453 2.418560266494751 0.5970830917358398 4725613 0 -1
-2.8391599655151367 2.3808465003967285 0.19902770221233368 4017546 0 -1
-2.808119058609009 2.4120235443115234 0.2558927536010742 2199437 0 -1
-2.7653682231903076 2.432007074356079 0.4549204409122467 2271109 0 -1
-2.841917037963867 2.3831584453582764 0.11373011022806168 4505456 0 -1
-2.5879228115081787 2.6037840843200684 0.5402180552482605 4505456 0 -1
-2.808119058609009 2.4120235443115234 0.2558927536010742 6933851 0 -1
-2.81809139251709 2.4205892086029053 0.4589109718799591 4456788 0 -1
-2.954152822494507 2.298619031906128 0.028681935742497444 4456788 0 -1
-2.7922019958496094 2.455605983734131 0.4302290380001068 4456788 0 -1
-2.680544137954712 2.581653118133545 0.4015471041202545 4456788 0 -1
-2.98073148727417 2.2596824169158936 -0.14340968430042267 4456788 0 -1
-2.680544137954712 2.581653118133545 0.4015471041202545 4456788 0 -1
-2.8206937313079834 2.4228246212005615 0.4302290380001068 4456788 0 -1
-2.8123741149902344 2.4156785011291504 0.5162748694419861 4456788 0 -1
-2.809258460998535 2.4130022525787354 0.5449568033218384 4725613 0 -1
-2.8365092277526855 2.4364092350006104 0.17209161818027496 4017546 0 -1
-2.8025097846984863 2.407205581665039 0.602320671081543 3692940 0 -1
-2.832751750946045 2.4331817626953125 0.25813743472099304 2199437 0 -1
-2.8206937313079834 2.4228246212005615 0.4302290380001068 2271109 0 -1
-2.8381776809692383 2.43784236907959 0.11472774296998978 4505456 0 -1
-2.864064931869507 2.401731252670288 0.20077355206012726 6933851 0 -1
-3.584294557571411 1.0756012201309204 -0.08604580909013748 11197490 0 -1
-2.8123741149902344 2.4156785011291504 0.5162748694419861 11197490 0 -1
-2.759345054626465 2.4267101287841797 0.8679403066635132 4456788 0 -1
-2.8425965309143066 2.4416377544403076 0.4629015028476715 4456788 0 -1
-2.847675323486328 2.446000337600708 0.40503883361816406 4456788 0 -1
-2.703853130340576 2.604102373123169 0.40503883361816406 4456788 0 -1
-3.2700717449188232 1.8223496675491333 0.4918328523635864 4456788 0 -1
-2.839799165725708 2.439235210418701 0.4918328523635864 4456788 0 -1
-2.823213815689087 2.4249892234802246 0.6364895701408386 4456788 0 -1
-2.833686590194702 2.4339847564697266 0.5496955513954163 4456788 0 -1
-2.74668288230896 2.359253406524658 -1.0704597234725952 4724328 0 -1
-2.833686590194702 2.4339847564697266 0.5496955513954163 4725613 0 -1
-2.8251826763153076 2.4846107959747314 0.3182447850704193 4017546 0 -1
-2.857384204864502 2.4543397426605225 0.2603820860385895 2199437 0 -1
-2.8739612102508545 2.410029888153076 0.4339701533317566 2271109 0 -1
-2.8628575801849365 2.459040880203247 0.11572537571191788 4505456 0 -1
-2.8923699855804443 2.425467014312744 0.08679403364658356 6933851 0 -1
-2.829245090484619 2.4881837368011475 0.5544342994689941 4456788 0 -1
-2.8259339332580566 2.485271692276001 0.5836150646209717 4456788 0 -1
-2.8512492179870605 2.4490699768066406 0.6127958297729492 4456788 0 -1
-2.6411359310150146 2.600215435028076 0.8754225969314575 4456788 0 -1
-2.876314878463745 2.412003755569458 0.641976535320282 4456788 0 -1
3.1724228858947754 2.0254099369049072 -0.7651841640472412 4456788 0 -1
3.2281599044799805 1.9961435794830322 0.5886031985282898 4724328 0 -1
-3.7098371982574463 1.1132749319076538 -0.029679568484425545 4456788 0 -1
-3.1342580318450928 2.0010437965393066 -1.297670602798462 4456788 0 -1
-2.5405242443084717 3.3406307697296143 0.1286945939064026 4456788 0 -1
-2.5611207485198975 3.3677139282226562 0.06484611332416534 4456788 0 -1
-4.514400482177734 2.700298547744751 -0.6911099553108215 4456788 0 -1
-4.788459777832031 1.8191145658493042 1.382219910621643 4590430 0 -1
-3.820929527282715 3.2819736003875732 1.6667946577072144 4600703 0 -1
4.947107791900635 1.754581093788147 0.7724170088768005 4600703 0 -1
-4.049543857574463 3.150940179824829 1.4725056886672974 4456788 0 -1
-4.53231954574585 2.711016893386841 -0.7771557569503784 4456788 0 -1
-4.817836761474609 1.8302748203277588 1.3906997442245483 4590430 0 -1
-3.988537073135376 3.2638978958129883 1.3906997442245483 4590430 0 -1
-5.082286834716797 1.202584981918335 1.1043792963027954 3887499 0 -1
-4.092421531677246 3.1843032836914062 1.2679909467697144 3887499 0 -1
4.846829414367676 2.1823909282684326 0.4908352196216583 3887499 0 -1
-4.9649739265441895 1.3397945165634155 1.4316027164459229 3107982 0 -1
-3.850815534591675 3.2291948795318604 1.7997291088104248 3107982 0 -1
4.962233066558838 1.6285256147384644 1.1043792963027954 3107982 0 -1
-4.528990268707275 2.800516366958618 -0.6995898485183716 4456788 0 -1
-4.315032958984375 3.013261318206787 1.0699609518051147 4590430 0 -1
-3.8188161849975586 3.43733549118042 1.5637890100479126 4590430 0 -1
5.0967631340026855 1.375357747077942 0.9876562356948853 4590430 0 -1
-4.3113555908203125 3.010693311691284 1.2420525550842285 4456788 0 -1
-1.156667947769165 5.0751447677612305 -1.4490612745285034 4456788 0 -1
4.890447616577148 2.0908167362213135 0.9522402882575989 4456788 0 -1
-4.584653854370117 2.8349359035491943 0.3726157546043396 4456788 0 -1
-4.832156658172607 1.8357148170471191 1.5732665061950684 4590430 0 -1
-3.9703011512756348 3.329392433166504 1.5318647623062134 4590430 0 -1
5.160647869110107 1.221126914024353 1.0350438356399536 4590430 0 -1
-5.027098655700684 1.508568286895752 1.2834542989730835 4600703 0 -1
-3.9803242683410645 3.2571773529052734 1.6560701131820679 4600703 0 -1
5.095143795013428 1.3749207258224487 1.1592490673065186 4600703 0 -1
-3.9509894847869873 3.3131980895996094 1.6146682500839233 3887499 0 -1
-3.0174288749694824 4.212275981903076 1.5318647623062134 3887499 0 -1
4.253133296966553 3.1394312381744385 1.1178473234176636 3887499 0 -1
5.1200127601623535 1.38163161277771 1.0350438356399536 3887499 0 -1
-4.975545883178711 1.63289475440979 1.4577906131744385 4456788 0 -1
-4.616623401641846 2.8547046184539795 0.2915581166744232 4456788 0 -1
-4.3122124671936035 3.0971412658691406 1.1662324666976929 4590430 0 -1
-3.994218587875366 3.3494489192962646 1.541092872619629 4590430 0 -1
5.027301788330078 1.9098496437072754 0.7913720607757568 4590430 0 -1
-5.216005802154541 1.0373814105987549 1.1245813369750977 4590430 0 -1
-4.647548198699951 2.8738272190093994 0.20950284600257874 4456788 0 -1
-4.596024513244629 2.8419671058654785 0.8380113840103149 4590430 0 -1
-4.036564350128174 3.3849589824676514 1.466519832611084 4590430 0 -1
5.0988593101501465 1.8084025382995605 0.7961108088493347 4590430 0 -1
-5.206244945526123 1.2319163084030151 1.1313153505325317 4590430 0 -1
-4.677411079406738 2.8922927379608154 0.12644992768764496 4456788 0 -1
-4.533926486968994 2.8035688400268555 -1.4839783906936646 4456788 0 -1
-4.687922954559326 2.9929697513580322 0.21324396133422852 4456788 0 -1
-5.079090118408203 3.0380687713623047 0.9178219437599182 4456788 0 -1
-4.3492751121521 4.09666109085083 0.41301989555358887 4456788 0 -1
-5.640460968017578 2.0004913806915283 0.22945548593997955 4536450 0 -1
-5.328754425048828 2.633373498916626 0.7342575788497925 4536450 0 -1
-4.515260696411133 3.9709525108337402 -0.3229835331439972 4456788 0 -1
-4.518449783325195 3.973757266998291 -0.23070253431797028 4523353 0 -1
-4.592466831207275 3.9446825981140137 -0.04638991504907608 4456788 0 -1
-4.25910758972168 4.101979732513428 1.2989176511764526 4456788 0 -1
-4.589229583740234 3.9419021606445312 -0.2319495677947998 4456788 0 -1
-4.350270748138428 4.189779758453369 -0.4175092279911041 4456788 0 -1
-4.542873859405518 3.995237112045288 -0.2319495677947998 4523353 0 -1
-4.591387748718262 3.943755865097046 -0.13916973769664764 4724328 0 -1
-5.478755474090576 2.4669294357299805 0.7422386407852173 3887499 0 -1
-4.77816104888916 3.7178754806518555 0 3887499 0 -1
-4.213797569274902 4.148510932922363 1.2989176511764526 3887499 0 -1
-4.526952743530273 3.9812350273132324 0.5566789507865906 6933851 0 -1
-3.781352996826172 4.405527114868164 1.7164268493652344 6933851 0 -1
-4.6626996994018555 3.910020112991333 -0.13991796970367432 4456788 0 -1
-4.6626996994018555 3.910020112991333 -0.13991796970367432 4456788 0 -1
-4.428654193878174 4.171429634094238 -0.18655729293823242 4456788 0 -1
-4.661741256713867 3.9092161655426025 -0.18655729293823242 4523353 0 -1
-4.4243574142456055 4.167382717132568 -0.32647526264190674 4523353 0 -1
-4.6639323234558105 3.9110536575317383 0 4724328 0 -1
-4.661741256713867 3.9092161655426025 0.18655729293823242 4536450 0 -1
-5.564422607421875 2.3789618015289307 0.6529505252838135 3887499 0 -1
-4.397311687469482 4.141907691955566 0.7462291717529297 3238030 0 -1
-5.415402889251709 4.105398654937744 0.31275781989097595 4456788 0 -1
-5.420976161956787 4.109623432159424 -0.05212630331516266 4456788 0 -1
-5.4171552658081055 4.106727123260498 -0.2606315016746521 4456788 0 -1
-5.415402889251709 4.105398654937744 -0.31275781989097595 4523353 0 -1
-5.289791584014893 4.328739643096924 0.052375711500644684 4456788 0 -1
-5.446913719177246 4.129286766052246 -0.052375711500644684 4456788 0 -1
-5.441314220428467 4.125041961669922 -0.3142542541027069 4456788 0 -1
-5.441314220428467 4.125041961669922 -0.3142542541027069 4523353 0 -1
-6.537539482116699 1.9618324041366577 0.366629958152771 3887499 0 -1
-6.258459568023682 2.6756837368011475 0.6285085082054138 3887499 0 -1
6.191404342651367 2.7878150939941406 -0.7856356501579285 3887499 0 -1
-6.1714372634887695 2.915745258331299 0.366629958152771 8705099 0 -1
-5.524988651275635 4.078245639801025 -0.10525023937225342 4456788 0 -1
-5.519794464111328 4.074411869049072 -0.31575071811676025 4456788 0 -1
-0.6853534579277039 7.422040939331055 -0.05711446329951286 5424489 4 -1
-0.7424880266189575 7.4167633056640625 0 5949540 4 -1
-0.5736218690872192 7.464156150817871 0.05736387148499489 2139270 4 -1
-0.6309285163879395 7.458868980407715 0.11472774296998978 2271109 4 -1
-0.6309840679168701 7.459526062011719 -0.05736387148499489 4899181 4 -1
-0.688346266746521 7.454451560974121 -0.05736387148499489 5424489 4 -1
-0.7457303404808044 7.449150562286377 0 5949540 4 -1
-0.688346266746521 7.454451560974121 -0.05736387148499489 6343264 4 -1
-0.6337460875511169 7.492178916931152 0 3432845 4 -1
-0.6337460875511169 7.492178916931152 0 2264205 4 -1
-0.7489506602287292 7.481318950653076 0.05761327967047691 2134668 4 -1
-0.7489506602287292 7.481318950653076 0.05761327967047691 2134668 4 -1
-0.6334483623504639 7.488658905029297 0.23045311868190765 2072968 4 -1
-0.6912781596183777 7.486202716827393 -0.11522655934095383 5424489 4 -1
-0.6913390755653381 7.4868621826171875 0.05761327967047691 5949540 4 -1
-0.6913390755653381 7.4868621826171875 0.05761327967047691 6343264 4 -1
-0.6364148259162903 7.523728847503662 -0.11572537571191788 4147337 4 -1
-0.6364709138870239 7.5243916511535645 -0.05786268785595894 3562893 4 -1
-0.5786098837852478 7.529061794281006 0.05786268785595894 2458766 4 -1
-0.6364709138870239 7.5243916511535645 -0.05786268785595894 2328718 4 -1
-0.6364895701408386 7.5246124267578125 0 2199437 4 -1
-0.6943318843841553 7.519272804260254 0.05786268785595894 2134668 4 -1
-0.6364148259162903 7.523728847503662 0.11572537571191788 2072968 4 -1
-0.6364895701408386 7.5246124267578125 0 2139270 4 -1
-0.7521928548812866 7.513705253601074 0.05786268785595894 2468738 4 -1
-0.5203818678855896 7.527975082397461 0.2893134355545044 4505456 4 -1
-0.6943522691726685 7.519493579864502 0 4899181 4 -1
-0.6941688060760498 7.5175065994262695 0.17358806729316711 6343264 4 -1
-0.4626840353012085 7.5337419509887695 0.23145075142383575 6933851 4 -1
-0.5222560167312622 7.555087089538574 -0.40678468346595764 4728182 4 -1
-0.5220252871513367 7.5517497062683105 -0.4648967683315277 4536450 4 -1
-0.4640224874019623 7.555535793304443 -0.4648967683315277 4147337 4 -1
-0.5810527205467224 7.560848712921143 -0.11622419208288193 3562893 4 -1
-0.6387637853622437 7.551497936248779 -0.2905604839324951 2912910 4 -1
-0.5811039209365845 7.561514854431152 0.058112096041440964 2458766 4 -1
-0.6392330527305603 7.557045936584473 0 2328718 4 -1
-0.639214277267456 7.556824207305908 0.058112096041440964 2199437 4 -1
-0.6971608996391296 7.549909591674805 0.1743362843990326 2070922 4 -1
-0.639214277267456 7.556824207305908 0.058112096041440964 2072968 4 -1
-0.6391580104827881 7.556158542633057 0.11622419208288193 2139270 4 -1
-0.7546584606170654 7.538334369659424 0.3486725687980652 2468738 4 -1
-0.6968331933021545 7.546360969543457 0.2905604839324951 2666112 4 -1
-0.5211477875709534 7.539054870605469 0.6392330527305603 3257723 4 -1
-0.522870659828186 7.563979148864746 0.1743362843990326 4505456 4 -1
-0.4648967683315277 7.5697712898254395 0 6343264 4 -1
-0.4645554721355438 7.564213752746582 0.2905604839324951 6933851 4 -1
-0.5242657661437988 7.584160804748535 -0.4668920338153839 4726897 4 -1
-0.5230284333229065 7.566260814666748 -0.7003380656242371 4728182 4 -1
-0.5242657661437988 7.584160804748535 -0.4668920338153839 4536450 4 -1
-0.5811426639556885 7.562019348144531 -0.7003380656242371 4471684 4 -1
-0.5818992257118225 7.571864128112793 -0.5836150646209717 4341894 4 -1
-0.5240030884742737 7.580360412597656 -0.5252535343170166 4147337 4 -1
-0.5248678922653198 7.59287166595459 -0.29180753231048584 3562893 4 -1
-0.641505241394043 7.583907604217529 -0.29180753231048584 2912910 4 -1
-0.6419011950492859 7.588588714599609 -0.11672300845384598 2782862 4 -1
-0.641957700252533 7.589256763458252 -0.05836150422692299 2718350 4 -1
-0.641957700252533 7.589256763458252 0.05836150422692299 2328718 4 -1
-0.6416749358177185 7.585914134979248 0.23344601690769196 2070922 4 -1
-0.6419011950492859 7.588588714599609 0.11672300845384598 2072968 4 -1
-0.6419011950492859 7.588588714599609 0.11672300845384598 2139270 4 -1
-0.7572727799415588 7.564448833465576 0.4668920338153839 2468738 4 -1
-0.641505241394043 7.583907604217529 0.29180753231048584 2666112 4 -1
-0.5831865668296814 7.5886149406433105 0.29180753231048584 3257723 4 -1
-0.9336744546890259 7.5582380294799805 0.11672300845384598 3651704 4 -1
-0.6995975375175476 7.576297283172607 0.35016903281211853 3651704 4 -1
-0.8164612054824829 7.567071914672852 0.29180753231048584 4505456 4 -1
-0.5833408832550049 7.590622901916504 0.23344601690769196 4505456 4 -1
-0.46676868200302124 7.600250720977783 0.17508451640605927 5424489 4 -1
-0.46676868200302124 7.600250720977783 0.17508451640605927 6343264 4 -1
-0.40794244408607483 7.59467077255249 0.4085305333137512 9360965 4 -1
-0.40833860635757446 7.60204553604126 0.23344601690769196 10672695 4 -1
-0.8778981566429138 7.587502479553223 0.4102763831615448 4456788 4 -1
-0.8765789866447449 7.576101303100586 0.5861091613769531 4456788 4 -1
-1.172183871269226 7.55855655670166 0.058610912412405014 4456788 4 -1
-0.818599283695221 7.586887836456299 0.5274982452392578 4456788 4 -1
-0.6392268538475037 7.556972503662109 -0.9963855147361755 4523353 4 -1
-0.5822249054908752 7.576101303100586 -0.8791636824607849 4725613 4 -1
-0.5816876888275146 7.569111347198486 -0.9377745985984802 4726897 4 -1
-0.5840234756469727 7.599505424499512 -0.6447200179100037 4471684 4 -1
-0.5847137570381165 7.608487606048584 -0.5274982452392578 3757452 4 -1
-0.5274362564086914 7.630025863647461 -0.11722182482481003 3562893 4 -1
-0.5273588299751282 7.628905773162842 0.17583273351192474 2782862 4 -1
-0.6445496678352356 7.619899272918701 -0.17583273351192474 2718350 4 -1
-0.5858337879180908 7.623061180114746 0.23444364964962006 2072968 4 -1
-0.703000545501709 7.613150119781494 0.23444364964962006 2271109 4 -1
-0.7016565203666687 7.59859561920166 0.5274982452392578 2666112 4 -1
-0.819685161113739 7.596951961517334 0.3516654670238495 3257723 4 -1
-0.5858337879180908 7.623061180114746 0.23444364964962006 3257723 4 -1
-0.8790604472160339 7.597548484802246 0.11722182482481003 3651704 4 -1
-0.7618523836135864 7.610195159912109 0.11722182482481003 4045940 4 -1
-0.5860403180122375 7.625748634338379 -0.11722182482481003 4045940 4 -1
-0.8204564452171326 7.604100227355957 0.11722182482481003 4505456 4 -1
-0.5858337879180908 7.623061180114746 0.23444364964962006 4505456 4 -1
-0.5240024328231812 7.580350875854492 0.8791636824607849 5424489 4 -1
-0.4100836515426636 7.634532928466797 0.23444364964962006 9360965 4 -1
-0.41016799211502075 7.63610315322876 0.17583273351192474 10672695 4 -1
-0.6462459564208984 7.639952659606934 0.4708825647830963 4456788 4 -1
-0.6412756443023682 7.581193447113037 -1.0594857931137085 4523353 4 -1
-0.5841629505157471 7.601320266723633 -0.9417651295661926 4725613 4 -1
-0.5841629505157471 7.601320266723633 -0.9417651295661926 4726897 4 -1
-0.5835881233215332 7.593840599060059 -1.000625491142273 4729209 4 -1
-0.5865086913108826 7.631843566894531 -0.6474635601043701 4471684 4 -1
-0.5865086913108826 7.631843566894531 -0.6474635601043701 3757452 4 -1
-0.6459221243858337 7.636124610900879 -0.5297428965568542 3692940 4 -1
-0.4009885787963867 7.4652099609375 1.7658096551895142 3692940 0 -1
-0.7637451887130737 7.6291022300720215 0.4708825647830963 2264205 4 -1
-0.7633625268936157 7.625279426574707 0.5297428965568542 2271109 4 -1
-0.8224948048591614 7.622992038726807 0.4708825647830963 2666112 4 -1
-0.8231731653213501 7.629279136657715 0.35316193103790283 3257723 4 -1
-0.8826715350151062 7.628757953643799 0.17658096551895142 3651704 4 -1
-0.8822566270828247 7.625172138214111 0.2943015992641449 4505456 4 -1
-0.8822566270828247 7.625172138214111 0.2943015992641449 5424489 4 -1
-0.41171973943710327 7.664992809295654 0.2943015992641449 9360965 4 -1
-0.41201016306877136 7.670399188995361 0.05886032059788704 10672695 4 -1
-0.6439929008483887 7.613317012786865 -1.0639750957489014 4523353 4 -1
-0.5866382122039795 7.633529186248779 -0.945755660533905 4725613 4 -1
-0.5854480862617493 7.618042945861816 -1.0639750957489014 4729209 4 -1
-0.82743901014328 7.668816089630127 0.11821945756673813 2328718 4 -1
-0.693970799446106 7.515362739562988 1.595962643623352 2139270 0 -1
-0.6751784682273865 7.3118510246276855 -2.364389181137085 2468738 0 -1
-0.886229395866394 7.659507751464844 0.23643891513347626 3651704 4 -1
-0.8859949707984924 7.657482147216797 0.2955486476421356 5424489 4 -1
-0.4155139625072479 7.735629558563232 0 4341894 4 -1
-0.6506270170211792 7.691745758056641 -0.6529505252838135 3432845 4 -1
-0.64802485704422 7.660983085632324 0.9497461915016174 2006409 4 -1
-0.5865796804428101 7.632767200469971 1.1871827840805054 2139270 0 -1
-0.9483790397644043 7.677274227142334 0.4155139625072479 2994813 4 -1
-0.8897333741188049 7.689792156219482 0.29679569602012634 5424489 4 -1
-0.890360951423645 7.695216178894043 0.05935913696885109 6933851 4 -1
-0.4747476279735565 7.730169296264648 0.17807741463184357 6933851 4 -1
-0.4747476279735565 7.730169296264648 0.17807741463184357 11197490 4 -1
-0.4160330891609192 7.745294094085693 0.5960854291915894 4536450 4 -1
-0.41724756360054016 7.767904281616211 0.059608545154333115 4341894 4 -1
-0.5954551696777344 7.748258113861084 -0.3576512634754181 2977934 4 -1
-0.7122723460197449 7.713559150695801 0.7153025269508362 2006409 4 -1
-0.6519103050231934 7.7069172859191895 0.834519624710083 2139270 4 -1
-0.952728271484375 7.71248197555542 0.3576512634754181 2994813 4 -1
-0.8941282033920288 7.727775573730469 0 6933851 4 -1
-0.41244739294052124 7.678539276123047 1.3767329454421997 2264205 0 -1
-0.7729964852333069 7.721513748168945 0.8978692889213562 2006409 4 -1
-0.6481316089630127 7.662245273590088 -1.3767329454421997 2994813 0 -1
-0.8368050456047058 7.755621433258057 0.41900569200515747 3651704 4 -1
-0.5985619425773621 7.788684844970703 0.05985795333981514 3651704 4 -1
-0.8754214644432068 7.566097259521484 -1.7358806133270264 4899181 0 -1
-0.8978692889213562 7.7601094245910645 0 6933851 4 -1
-0.5985092520713806 7.787998676300049 -0.11971590667963028 6933851 4 -1
-0.6574896574020386 7.772876739501953 -0.41900569200515747 7589974 4 -1
-0.4801667034626007 7.818406581878662 -0.42075154185295105 3757452 4 -1
-0.6583800315856934 7.783402442932129 0.7212883234024048 2468738 4 -1
-0.8394997119903564 7.780595779418945 0.540966272354126 3651704 4 -1
-0.5989347100257874 7.793535232543945 0.6611809730529785 3651704 4 -1
-0.6010559797286987 7.821137428283691 -0.060107361525297165 6933851 4 -1
-0.9614636898040771 7.783196449279785 0.1803220808506012 12640037 4 -1
-5.984251499176025 5.0182390213012695 -1.0260651111602783 4456788 0 -1
-4.746192455291748 6.1173624992370605 -1.448562502861023 4456788 0 -1
-4.444186687469482 6.456031799316406 -0.784637987613678 4456788 0 -1
-0.7212129831314087 7.810381889343262 -0.7242812514305115 3107982 4 -1
-0.5984251499176025 7.786904335021973 1.0260651111602783 3651704 0 -1
-0.9654531478881836 7.815491676330566 0.18107031285762787 12640037 4 -1
-0.41845953464508057 7.790467262268066 1.0864218473434448 12640037 0 -1
0.11629149317741394 7.587533950805664 2.1124870777130127 12640037 0 -1
2.7653563022613525 7.722009658813477 -0.06285085529088974 2718350 5 -1
2.7653563022613525 7.722009658813477 -0.06285085529088974 2588302 5 -1
2.7651126384735107 7.721329689025879 -0.12570171058177948 2523534 5 -1
2.702507257461548 7.744229316711426 0.06285085529088974 2328718 5 -1
2.776085376739502 7.751969814300537 -0.12620052695274353 2718350 5 -1
2.77632999420166 7.752652645111084 -0.06310026347637177 2588302 5 -1
2.77632999420166 7.752652645111084 -0.06310026347637177 2523534 5 -1
2.7132315635681152 7.774960041046143 -0.06310026347637177 2328718 5 -1
2.776085376739502 7.751969814300537 -0.12620052695274353 2199437 5 -1
2.712495803833008 7.772852420806885 -0.7601960301399231 4724328 5 -1
2.7104873657226562 7.767096996307373 -0.8235456943511963 4726897 5 -1
2.7083165645599365 7.760876178741455 -0.8868953585624695 4728182 5 -1
2.7083165645599365 7.760876178741455 -0.8868953585624695 4729209 5 -1
2.848642110824585 7.754848480224609 -0.31674835085868835 2912910 5 -1
2.849395751953125 7.756899833679199 -0.25339868664741516 2718350 5 -1
2.7237157821655273 7.805003643035889 0.12669934332370758 2588302 5 -1
2.7873034477233887 7.783295631408691 0.06334967166185379 2523534 5 -1
2.8507349491119385 7.76054573059082 0 2458766 5 -1
2.7240357398986816 7.805920600891113 0 2199437 5 -1
2.786648750305176 7.781467437744141 -0.19004900753498077 2134668 5 -1
2.7873034477233887 7.783295631408691 -0.06334967166185379 2070155 5 -1
2.721158742904663 7.797676086425781 -0.8267880082130432 4523353 5 -1
2.7250287532806396 7.808765888214111 -0.6995898485183716 4724328 5 -1
2.721158742904663 7.797676086425781 -0.8267880082130432 4726897 5 -1
2.705622911453247 7.753157615661621 -1.208382487297058 4728182 5 -1
2.721158742904663 7.797676086425781 -0.8267880082130432 4729209 5 -1
2.7250287532806396 7.808765888214111 -0.6995898485183716 4536450 5 -1
2.666137933731079 7.84377908706665 -0.5087926387786865 3887499 5 -1
2.7982771396636963 7.813938617706299 -0.06359907984733582 2718350 5 -1
2.7980306148529053 7.8132500648498535 0.12719815969467163 2523534 5 -1
2.7970447540283203 7.810496807098389 0.25439631938934326 2458766 5 -1
2.734679937362671 7.836422443389893 0.06359907984733582 2199437 5 -1
2.6704554557800293 7.856481075286865 -0.19079722464084625 2134668 5 -1
2.7982771396636963 7.813938617706299 0.06359907984733582 2070155 5 -1
2.8612022399902344 7.789040565490723 0.19079722464084625 2070922 5 -1
2.733854055404663 7.8340559005737305 -0.7661818265914917 4724328 5 -1
2.731829881668091 7.8282551765441895 -0.8300303220748901 4726897 5 -1
2.702512502670288 7.744243621826172 -1.468515157699585 4728182 0 -1
2.7389485836029053 7.848654270172119 -0.5746363401412964 4536450 5 -1
2.6661620140075684 7.843850135803223 -0.8938787579536438 3757452 5 -1
2.8730974197387695 7.821423053741455 0.06384848058223724 2523534 5 -1
2.872422695159912 7.819585800170898 0.19154545664787292 2458766 5 -1
2.8728444576263428 7.820734024047852 0.1276969611644745 2070922 5 -1
2.7425010204315186 7.858834266662598 -0.8332725763320923 4726897 5 -1
2.729867935180664 7.822632789611816 -1.1537621021270752 4728182 5 -1
2.749647617340088 7.879312992095947 -0.5768810510635376 4536450 5 -1
2.7445333003997803 7.864657402038574 -0.7691746950149536 4471684 5 -1
2.6742703914642334 7.867705345153809 -0.9614683985710144 3757452 5 -1
2.627319097518921 7.93959379196167 0.1922936737537384 2458766 5 -1
2.947117805480957 7.8246846199035645 0.2563915550708771 2458766 5 -1
2.6267788410186768 7.937961101531982 0.2563915550708771 2264205 5 -1
2.947117805480957 7.8246846199035645 0.2563915550708771 2070922 5 -1
2.7485971450805664 7.876302719116211 -0.9652094841003418 4471684 5 -1
2.746061086654663 7.869035720825195 -1.0295567512512207 4341894 5 -1
2.7649025917053223 7.923027038574219 -0.32173651456832886 2588302 5 -1
2.6369998455047607 7.96884822845459 -0.2573891878128052 2523534 5 -1
2.6382393836975098 7.972593784332275 0 2458766 5 -1
2.5738165378570557 7.993365287780762 0.0643472969532013 2328718 5 -1
2.6382393836975098 7.972593784332275 0 2264205 5 -1
2.6382393836975098 7.972593784332275 0 2199437 5 -1
2.6382393836975098 7.972593784332275 0 2134668 5 -1
2.892566680908203 7.874423980712891 0.38608381152153015 2271109 5 -1
2.689945697784424 7.913821697235107 -1.0981440544128418 4471684 5 -1
2.6481540203094482 8.002555847167969 -0.12919341027736664 2458766 5 -1
2.5837924480438232 8.024347305297852 0.06459670513868332 2264205 5 -1
2.6483871936798096 8.003260612487793 -0.06459670513868332 2199437 5 -1
2.5837924480438232 8.024347305297852 0.06459670513868332 2134668 5 -1
2.5811362266540527 8.016098022460938 0.3875802457332611 2006409 5 -1
2.906510591506958 7.912383079528809 0.12919341027736664 2006409 5 -1
2.6481540203094482 8.002555847167969 0.12919341027736664 2072968 5 -1
2.6477651596069336 8.00137996673584 0.19379012286663055 2139270 5 -1
2.9054861068725586 7.909595012664795 0.2583868205547333 2271109 5 -1
2.6574416160583496 8.030622482299805 -0.2593844532966614 3238030 5 -1
2.656738758087158 8.028497695922852 -0.3242305815219879 2977934 5 -1
2.6579883098602295 8.03227424621582 -0.19453835487365723 2912910 5 -1
2.5938446521759033 8.05556583404541 0 2458766 5 -1
2.59376859664917 8.055329322814941 -0.06484611332416534 2328718 5 -1
2.59376859664917 8.055329322814941 0.06484611332416534 2264205 5 -1
2.5926260948181152 8.051780700683594 0.2593844532966614 2072968 5 -1
2.6579883098602295 8.03227424621582 0.19453835487365723 2139270 5 -1
2.655879497528076 8.025901794433594 0.38907670974731445 2271109 5 -1
2.666957139968872 8.05937671661377 -0.32547762989997864 3238030 5 -1
2.6686031818389893 8.064351081848145 -0.13019104301929474 2912910 5 -1
2.603821039199829 8.086548805236816 0 2458766 5 -1
2.603821039199829 8.086548805236816 0 2328718 5 -1
2.490999221801758 7.73616361618042 -2.473629951477051 2264205 0 -1
2.6688382625579834 8.065061569213867 0.06509552150964737 2072968 5 -1
2.6019093990325928 8.080611228942871 0.32547762989997864 2139270 5 -1
2.603132963180542 8.08441162109375 0.1952865719795227 2271109 5 -1
2.6686031818389893 8.064351081848145 0.13019104301929474 2468738 5 -1
2.925081968307495 7.962940216064453 -0.45566868782043457 12640037 5 -1
2.6118783950805664 8.111572265625 0.32672467827796936 2264205 5 -1
2.613720655441284 8.117293357849121 0.0653449296951294 2271109 5 -1
2.6118783950805664 8.111572265625 0.32672467827796936 2468738 5 -1
2.9258971214294434 7.965158939361572 -0.8494841456413269 10672695 5 -1
2.8643786907196045 7.998521327972412 -1.0495094060897827 2070922 5 -1
2.5569775104522705 8.165506362915039 0.2623773515224457 2072968 5 -1
2.886066198348999 8.05908203125 -0.06559433788061142 2072968 5 -1
2.623080253601074 8.146361351013184 0.19678302109241486 2468738 5 -1
2.8858120441436768 8.058371543884277 -0.13118867576122284 2468738 5 -1
2.896784782409668 8.089012145996094 0.1316874921321869 2072968 5 -1
2.882715940475464 8.049725532531738 -0.855968713760376 5424489 5 -1
2.9504168033599854 8.031908988952637 -0.7901250123977661 13164576 5 -1
2.779754161834717 8.178038597106934 0.5970830917358398 2070155 5 -1
3.0485310554504395 8.093939781188965 0.39805540442466736 2070155 5 -1
2.776472568511963 8.168383598327637 0.7297682166099548 2070922 5 -1
3.042785882949829 8.078686714172363 0.6634256839752197 2070922 5 -1
2.912123441696167 8.131843566894531 0.5970830917358398 2006409 5 -1
2.913583278656006 8.135920524597168 0.53074049949646 2072968 5 -1
2.9822587966918945 8.118592262268066 0.39805540442466736 2994813 5 -1
2.9798011779785156 8.111902236938477 0.53074049949646 3257723 5 -1
-5.294058322906494 6.688045024871826 -1.6647993326187134 4456788 0 -1
2.989504814147949 8.138318061828613 0.5993277430534363 2070922 5 -1
2.9878287315368652 8.133755683898926 0.6659197211265564 2006409 5 -1
2.9934701919555664 8.149113655090332 0.3995518386363983 2072968 5 -1
2.9230713844299316 8.16241455078125 0.5993277430534363 3257723 5 -1
2.9934701919555664 8.149113655090332 0.3995518386363983 3651704 5 -1
2.9934701919555664 8.149113655090332 0.3995518386363983 4045940 5 -1
3.000701427459717 8.168798446655273 0.6015724539756775 2006409 5 -1
3.0046818256378174 8.179634094238281 0.40104830265045166 3651704 5 -1
2.7314276695251465 7.8271026611328125 -2.8178131580352783 2666112 0 -1
2.746762752532959 8.300544738769531 0.4696355164051056 4045940 5 -1
2.688542366027832 8.349663734436035 0.5387215614318848 4045940 5 -1
-5.01348352432251 7.28304386138916 -0.8851494789123535 4456788 0 -1
-3.8873167037963867 7.835658550262451 -1.5660337209701538 4456788 0 -1
-3.3923065662384033 8.17878532409668 -0.7489726543426514 4456788 0 -1
-5.883911609649658 6.178736209869385 -2.5968375205993652 4456788 0 -1
-5.3349175453186035 7.015083312988281 -1.366756558418274 4456788 0 -1
-3.9068715572357178 7.875075340270996 -1.503432273864746 4456788 0 -1
-3.4047327041625977 8.208744049072266 -0.751716136932373 4456788 0 -1
-5.286611080169678 7.091718673706055 -1.3717447519302368 4456788 0 -1
-3.858527898788452 7.94730281829834 -1.440332055091858 4456788 0 -1
-3.285996198654175 8.308042526245117 -0.5486978888511658 4456788 0 -1
-5.861006259918213 6.285890579223633 -2.6157925128936768 4456788 0 -1
-5.580395221710205 6.771292209625244 -1.9274260997772217 4456788 0 -1
-5.181586265563965 7.233400344848633 -1.2390596866607666 4456788 0 -1
-3.867537498474121 7.9658589363098145 -1.5144062042236328 4456788 0 -1
-3.3649656772613525 8.306586265563965 -0.6195298433303833 4456788 0 -1
-5.090710639953613 7.395230770111084 -0.8290326595306396 4456788 0 -1
-3.571744441986084 8.221875190734863 -0.967204749584198 4456788 0 -1
-2.69150710105896 8.59511661529541 0.4145163297653198 4456788 0 -1
-5.856862545013428 6.414237976074219 -2.4180119037628174 4456788 0 -1
-5.20035982131958 7.259608268737793 -1.2435489892959595 4456788 0 -1
-5.20035982131958 7.259608268737793 -1.2435489892959595 4456788 0 -1
-3.8231194019317627 8.047774314880371 -1.3817211389541626 4456788 0 -1
-3.3788504600524902 8.340861320495605 -0.5526884198188782 4456788 0 -1
-4.490461826324463 7.8181233406066895 -0.06908605247735977 4456788 0 -1
-5.878006458282471 6.437394142150879 -2.426741123199463 4456788 0 -1
-5.418534755706787 7.125035285949707 -1.5308672189712524 4456788 0 -1
-5.691097259521484 6.905618667602539 -1.8922595977783203 4456788 0 -1
-5.350464820861816 7.321874618530273 -1.191422700881958 4456788 0 -1
-3.8255248069763184 8.231935501098633 -1.121338963508606 4456788 0 -1
-3.083320140838623 8.609895706176758 -0.14016737043857574 4456788 0 -1
-3.831350088119507 8.244470596313477 -1.265995740890503 4456788 0 -1
-5.561638355255127 7.313207149505615 -2.0182106494903564 2468738 0 -1
-5.3867645263671875 7.519825458526611 -1.8805373907089233 2070155 0 -1
-2.2438528537750244 8.871843338012695 2.314507484436035 2070922 0 -1
-1.3420495986938477 9.120038032531738 2.177333116531372 2134668 0 -1
-5.421838283538818 7.568787574768066 -1.7418664693832397 2070155 0 -1
-5.61870813369751 7.388250350952148 -1.8870220184326172 2006409 0 -1
-5.405339241027832 7.545755863189697 -1.8870220184326172 2139270 0 -1
-5.24489164352417 7.619208335876465 -2.1848154067993164 2134668 0 -1
-1.4120798110961914 9.105470657348633 2.3304696083068848 2134668 0 -1
-5.376546382904053 7.656479835510254 -1.6750251054763794 2070155 0 -1
-5.893383979797363 7.007533073425293 -2.5489511489868164 2666112 0 -1
-5.680512428283691 7.3216071128845215 -2.111988067626953 2666112 0 -1
-5.337199687957764 7.753303527832031 -1.534608244895935 2070155 0 -1
-5.8559064865112305 7.105599403381348 -2.4846038818359375 2666112 0 -1
-5.192366123199463 7.394197463989258 -3.15301775932312 4664956 0 -1
-1.6662015914916992 8.90593147277832 3.0796916484832764 4664956 0 -1
-5.66713809967041 7.451932430267334 -2.1336865425109863 2006409 0 -1
-5.168088436126709 7.658732891082764 -2.731518030166626 4724328 0 -1
-2.8168773651123047 8.995476722717285 -1.993269920349121 4724328 0 -1
-2.3445727825164795 9.270073890686035 -1.181196928024292 4724328 0 -1
-5.604130744934082 7.517655372619629 -2.2147443294525146 2006409 0 -1
-5.6541619300842285 8.379059791564941 -0.5429615378379822 4456788 0 -1
-4.391957759857178 9.045992851257324 -1.1634889841079712 4456788 0 -1
-3.7154955863952637 9.624716758728027 -0.15812475979328156 4456788 0 -1
-3.236891508102417 9.781682968139648 0.5534366369247437 4456788 0 -1
-4.4191670417785645 9.302472114562988 -0.6324990391731262 4456788 0 -1
-4.933486461639404 8.767486572265625 -2.292809009552002 4724328 0 -1
-3.5549230575561523 9.208765029907227 -3.0043704509735107 4724328 0 -1
-3.5549230575561523 9.208765029907227 -3.0043704509735107 4724328 0 -1
-6.557913303375244 7.797692775726318 -1.8241711854934692 4456788 0 -1
-4.433107852935791 9.331817626953125 -0.6344943046569824 4456788 0 -1
-4.997891902923584 8.701584815979004 -2.5379772186279297 4724328 0 -1
-3.2478137016296387 9.555069923400879 -2.300041913986206 4724328 0 -1
-5.011301517486572 8.90577507019043 2.3289732933044434 4456788 0 -1
-3.198446035385132 9.66550350189209 2.4895920753479004 4456788 0 -1
-5.089602947235107 8.861258506774902 2.3289732933044434 4456788 0 -1
-3.1079838275909424 9.652299880981445 2.6502108573913574 4456788 0 -1
-4.401300430297852 9.470914840698242 -0.8834036588668823 4456788 0 -1
-5.2164740562438965 8.719752311706543 -2.569901466369629 4724328 0 -1
-3.5589041709899902 9.448995590209961 -2.8108296394348145 4724328 0 -1
-3.221449613571167 9.735018730163574 -2.1683542728424072 4724328 0 -1
-4.312799453735352 9.078564643859863 2.9714486598968506 13164576 0 -1
-2.4397878646850586 9.646539688110352 3.2926862239837646 13164576 0 -1
-3.473534345626831 9.699533462524414 2.094529628753662 4456788 0 -1
-3.1526381969451904 9.790980339050293 2.175088405609131 4456788 0 -1
-2.549363851547241 9.754473686218262 2.9806766510009766 4456788 0 -1
-4.228272914886475 9.098587036132812 3.141794443130493 2070922 0 -1
-4.318479061126709 9.090520858764648 3.1515212059020996 4456788 0 -1
-2.8086390495300293 9.786818504333496 2.7474801540374756 4456788 0 -1
-2.789734363555908 9.72094440460205 2.9899048805236816 4456788 0 -1
-2.873900890350342 9.72094440460205 2.9090964794158936 4456788 0 -1
-4.241363525390625 9.126755714416504 3.1515212059020996 2070922 0 -1
-2.3717870712280273 9.699210166931152 -3.3939459323883057 2070922 0 -1
-1.6602592468261719 10.183423042297363 -2.1818225383758545 2070922 0 -1
-4.760822772979736 9.393269538879395 0.5656576752662659 4045940 0 -1
-2.4837114810943604 10.156915664672852 1.3737400770187378 4045940 0 -1
-3.9784812927246094 9.158151626586914 3.3939459323883057 8705099 0 -1
-3.684607744216919 9.782742500305176 1.6211528778076172 4456788 0 -1
-2.8892669677734375 9.772920608520508 2.83701753616333 4456788 0 -1
-4.370811939239502 9.616682052612305 -0.5674034953117371 4456788 0 -1
-5.617621421813965 8.324908256530762 -3.3233635425567627 4724328 0 -1
-3.450634241104126 9.635586738586426 -2.6749024391174316 4724328 0 -1
-3.1668038368225098 9.83497428894043 -2.2696139812469482 4724328 0 -1
-3.341373920440674 9.830324172973633 2.0264410972595215 4729209 0 -1
-2.784733533859253 9.703518867492676 3.161248207092285 4729209 0 -1
1.1787481307983398 10.187690734863281 -2.5938446521759033 2977934 0 -1
-2.4053432941436768 9.836435317993164 -3.1709752082824707 4456788 0 -1
-3.521515130996704 9.833515167236328 1.870062232017517 4456788 0 -1
-2.715710163116455 9.755309104919434 3.1709752082824707 4456788 0 -1
-4.3859381675720215 9.649962425231934 -0.487842321395874 4456788 0 -1
-5.664455413818359 8.228705406188965 -3.577510356903076 4724328 0 -1
-5.019662857055664 9.106606483459473 -2.113983392715454 4724328 0 -1
-3.5866646766662598 9.522700309753418 -3.0083611011505127 4724328 0 -1
-3.1765477657318115 9.865235328674316 -2.276597499847412 4724328 0 -1
-2.5941765308380127 10.25696849822998 -0.81307053565979 4724328 6 -1
-3.3234477043151855 9.77758502960205 2.43921160697937 4729209 0 -1
-2.5178534984588623 10.29653549194336 0.487842321395874 2070155 6 -1
-2.524610996246338 10.324170112609863 0.570895254611969 4456788 6 -1
-4.395766735076904 9.671586990356445 -0.6524516940116882 4456788 0 -1
-5.589452266693115 8.450074195861816 -3.262258529663086 4724328 0 -1
-5.035060405731201 9.134541511535645 -2.1204681396484375 4724328 0 -1
-3.2283456325531006 9.755857467651367 -2.7729196548461914 4724328 0 -1
-2.603593587875366 10.294201850891113 -0.7340081334114075 4724328 6 -1
-3.090034246444702 10.152566909790039 -0.8155646324157715 11918891 0 -1
-2.535684108734131 10.369452476501465 -0.1636117398738861 4456788 6 -1
-2.5323314666748047 10.355742454528809 -0.5726410746574402 4456788 6 -1
-2.453887939453125 10.389113426208496 -0.1636117398738861 4456788 6 -1
-2.407585859298706 9.845605850219727 3.3540406227111816 4505456 0 -1
-2.5425186157226562 10.397401809692383 -0.3282211124897003 4456788 6 -1
-2.543414831161499 10.401066780090332 -0.16411055624485016 4456788 6 -1
-2.543414831161499 10.401066780090332 -0.16411055624485016 4456788 6 -1
