VERSION .7
FIELDS x y z rgb label object
SIZE 4 4 4 4 4 4
TYPE F F F I I I
COUNT 1 1 1 1 1 1
WIDTH 478
HEIGHT 1
POINTS 478
VIEWPOINT 0 0 0 1 0 0 0
DATA ascii
-1.6119544506072998 1.9958484172821045 -0.7362528443336487 4212104 0 -1
-1.6287800073623657 2.0576565265655518 -0.6417271494865417 4456788 0 -1
-1.4982883930206299 2.2203550338745117 -0.3519148826599121 4456788 0 -1
-1.4232776165008545 2.2849764823913574 -0.22770963609218597 4456788 0 -1
-1.9682912826538086 1.8126431703567505 -0.3726157546043396 4456788 0 -1
-1.4531996250152588 2.1969316005706787 0.6003254055976868 4456788 0 -1
-2.0788826942443848 1.617573618888855 -0.6003254055976868 4456788 0 -1
-1.6791704893112183 1.9563452005386353 -0.8073341250419617 4456788 0 -1
-1.6287800073623657 2.0576565265655518 -0.6417271494865417 4456788 0 -1
-1.4478044509887695 2.1887753009796143 0.6417271494865417 4456788 0 -1
-1.645653247833252 2.0375728607177734 -0.6624280214309692 4456788 0 -1
-1.097145676612854 2.413945198059082 -0.5175219178199768 4456788 0 -1
-1.6348495483398438 2.065324306488037 -0.6003254055976868 4456788 0 -1
-1.6520147323608398 2.0454492568969727 -0.6210262775421143 4212104 0 -1
-1.4982883930206299 2.2203550338745117 -0.3519148826599121 4212104 0 -1
-1.619905710220337 2.005693197250366 -0.8073341250419617 4017546 0 -1
-1.495063304901123 2.215575695037842 -0.3933166265487671 4017546 0 -1
-1.6404942274093628 2.072455406188965 -0.5589236617088318 3692940 0 -1
-1.625584363937378 2.053619623184204 -0.6624280214309692 3107982 0 -1
-1.4967215061187744 2.2180330753326416 -0.3726157546043396 3107982 0 -1
-1.6731795072555542 2.0716545581817627 0.45541927218437195 2588302 0 -1
-1.4805855751037598 2.2383334636688232 -0.31051313877105713 2588302 0 -1
-1.2109997272491455 2.3391830921173096 -0.6003254055976868 2588302 0 -1
-2.122976541519165 1.5670655965805054 -0.5796245336532593 2199437 0 -1
-0.9315120577812195 2.5358519554138184 0.02070087566971779 2199437 0 -1
-1.6545464992523193 2.090207815170288 -0.6075582504272461 4456788 0 -1
-1.5163400173187256 2.2471063137054443 -0.35615482926368713 4456788 0 -1
-1.7318201065063477 1.9767614603042603 -0.7542102336883545 4212104 0 -1
-1.6680315732955933 2.107243776321411 -0.5028068423271179 4212104 0 -1
-1.9498307704925537 2.3184478282928467 0.7661818265914917 4456788 7 -1
-1.9701415300369263 2.3425984382629395 0.7741628885269165 4456788 7 -1
-2.0509591102600098 2.246141195297241 0.8467406630516052 4456788 7 -1
-1.9661375284194946 2.3378374576568604 0.7983554601669312 4456788 7 -1
-1.8370622396469116 2.4156222343444824 0.8709332346916199 4456788 7 -1
-1.9577337503433228 2.3278448581695557 0.8467406630516052 4456788 7 -1
-1.8746916055679321 2.368319511413574 0.919318437576294 4017546 7 -1
-1.9232333898544312 2.3812596797943115 0.7741628885269165 3887499 7 -1
-2.029285430908203 2.2690279483795166 0.9532378911972046 4456788 7 -1
-1.9064733982086182 2.457251787185669 0.7088179588317871 4456788 7 -1
-2.0014631748199463 2.3318374156951904 0.8554699420928955 4456788 7 -1
-1.8956687450408936 2.4433255195617676 0.7821439504623413 4456788 7 -1
-2.0305655002593994 2.365743637084961 0.814816415309906 4456788 7 -1
-1.9389499425888062 2.449497938156128 0.7901250123977661 4456788 7 -1
-2.0218863487243652 2.3556318283081055 0.8641992211341858 4456788 7 -1
-1.6942317485809326 2.89015531539917 0.12844519317150116 4456788 0 -1
-2.7861785888671875 1.8345565795898438 -0.3339574933052063 4456788 0 -1
-2.80948805809021 1.7936968803405762 -0.3596465289592743 4456788 0 -1
-1.69502854347229 2.891514539718628 0.07706711441278458 4456788 0 -1
-2.8244667053222656 1.8032598495483398 -0.10275615751743317 4212104 0 -1
-2.8237195014953613 1.8027828931808472 -0.12844519317150116 3692940 0 -1
-2.8478634357452393 1.8181973695755005 -0.20750758051872253 4456788 0 -1
-1.6847611665725708 2.933255195617676 0.1296922266483307 4456788 0 -1
-2.8478634357452393 1.8181973695755005 -0.20750758051872253 4456788 0 -1
-2.8491218090057373 1.8190008401870728 -0.18156912922859192 4456788 0 -1
-1.9840242862701416 2.7150495052337646 -0.38907670974731445 4456788 0 -1
-2.8790831565856934 1.7802907228469849 0.025938447564840317 4212104 0 -1
-1.9951485395431519 2.7302725315093994 -0.1556306779384613 4212104 0 -1
-2.8788294792175293 1.780133843421936 0.051876895129680634 3692940 0 -1
-1.9951485395431519 2.7302725315093994 -0.1556306779384613 3692940 0 -1
-2.96577787399292 2.487025022506714 0.14839784801006317 4456788 0 -1
-2.997284412384033 2.4527366161346436 0.05935913696885109 4456788 0 -1
-2.993321418762207 2.449493408203125 0.20775698125362396 4212104 0 -1
-2.9919991493225098 2.448411464691162 0.23743654787540436 3692940 0 -1
-3.022737979888916 2.4735655784606934 0.02992897666990757 4456788 0 -1
-3.022826671600342 2.4736382961273193 0 4456788 0 -1
-3.021406412124634 2.472476005554199 0.11971590667963028 4212104 0 -1
-3.0206074714660645 2.4718222618103027 0.1496448814868927 3692940 0 -1
-3.0146474838256836 2.528005838394165 0.18107031285762787 4456788 0 -1
-1.5306874513626099 5.856774806976318 0.09277983009815216 3651704 4 -1
-1.5768402814865112 5.843597412109375 0.13916973769664764 4045940 4 -1
-1.632184624671936 5.863094329833984 0.09327864646911621 2468738 4 -1
-1.5856903791427612 5.876394748687744 0.046639323234558105 2666112 4 -1
-1.5390524864196777 5.888781547546387 0.046639323234558105 3257723 4 -1
-1.5386909246444702 5.8873982429504395 0.13991796970367432 3651704 4 -1
-1.5390524864196777 5.888781547546387 0.046639323234558105 4505456 4 -1
-1.5389169454574585 5.888262748718262 0.09327864646911621 4899181 4 -1
-1.6785719394683838 5.849053382873535 0.13991796970367432 5424489 4 -1
-1.4924144744873047 5.900773525238037 0.046639323234558105 5424489 4 -1
-1.5469192266464233 5.918881416320801 -0.1406661868095398 2070922 4 -1
-1.5469192266464233 5.918881416320801 -0.1406661868095398 2006409 4 -1
-1.594170093536377 5.9078192710876465 0.04688873142004013 3257723 4 -1
-1.5469192266464233 5.918881416320801 0.1406661868095398 4505456 4 -1
-1.5000429153442383 5.930934906005859 0.1406661868095398 4899181 4 -1
-1.4535080194473267 5.943990230560303 0.04688873142004013 5424489 4 -1
-1.5937955379486084 5.906431674957275 0.1406661868095398 10016830 4 -1
-1.5473281145095825 5.920445919036865 0 10672695 4 -1
-1.4515981674194336 5.936180591583252 -0.7070720791816711 3887499 4 -1
-1.4560823440551758 5.9545183181762695 -0.5185195207595825 3562893 4 -1
-1.503052830696106 5.942835807800293 -0.5185195207595825 3432845 4 -1
-1.460595726966858 5.972975254058838 -0.18855255842208862 2199437 4 -1
-1.5080218315124512 5.962482452392578 -0.14141441881656647 2070155 4 -1
-1.5077117681503296 5.961256504058838 -0.18855255842208862 2070922 4 -1
-1.5553759336471558 5.951238632202148 -0.09427627921104431 2006409 4 -1
-1.5080218315124512 5.962482452392578 -0.14141441881656647 2271109 4 -1
-1.5082433223724365 5.963357925415039 0.09427627921104431 2468738 4 -1
-1.6496411561965942 5.9258012771606445 0.09427627921104431 3257723 4 -1
-1.508420467376709 5.9640583992004395 0 4899181 4 -1
-1.508376121520996 5.963883399963379 0.047138139605522156 6933851 4 -1
-1.4550918340682983 5.950467586517334 0.5656576752662659 8705099 4 -1
-1.6026496887207031 5.939243793487549 0.047138139605522156 9360965 4 -1
-1.6010020971298218 5.933137893676758 0.28282883763313293 10016830 4 -1
-1.6019437313079834 5.9366278648376465 0.18855255842208862 10672695 4 -1
-1.602508544921875 5.938720703125 0.09427627921104431 11197490 4 -1
-1.5099775791168213 5.970215320587158 -0.5686505436897278 3887499 4 -1
-1.5110054016113281 5.974279403686523 -0.5212630033493042 3692940 4 -1
-1.5119433403015137 5.977987289428711 -0.4738754630088806 3562893 4 -1
-1.5110054016113281 5.974279403686523 -0.5212630033493042 3432845 4 -1
-1.4679354429244995 6.002990245819092 -0.2369377315044403 2070922 4 -1
-1.516223430633545 5.99491024017334 -0.09477509558200836 2072968 4 -1
-1.5164015293121338 5.995614528656006 0 2468738 4 -1
-1.562640905380249 5.979036808013916 0.2369377315044403 6933851 4 -1
-1.512791395187378 5.981340408325195 0.42648792266845703 7589974 4 -1
-1.5099775791168213 5.970215320587158 0.5686505436897278 8180304 4 -1
-1.5110054016113281 5.974279403686523 0.5212630033493042 8705099 4 -1
-1.5608482360839844 5.972177028656006 0.37910038232803345 9360965 4 -1
-1.4637864828109741 5.986023426055908 0.5212630033493042 10016830 4 -1
-1.5179247856140137 6.0016374588012695 -0.5716434717178345 3887499 4 -1
-1.5189580917358398 6.005722999572754 -0.5240064859390259 3692940 4 -1
-1.519900918006897 6.009450435638428 -0.47636955976486206 3562893 4 -1
-1.5179247856140137 6.0016374588012695 -0.5716434717178345 3432845 4 -1
-1.4756613969802856 6.034584999084473 -0.23818477988243103 3107982 4 -1
-1.4763554334640503 6.0374226570129395 -0.14291086792945862 2458766 4 -1
-1.4760518074035645 6.036181449890137 -0.19054782390594482 2070922 4 -1
-1.5242035388946533 6.026462554931641 -0.09527391195297241 2468738 4 -1
-1.5243377685546875 6.026993274688721 -0.047636955976486206 2666112 4 -1
-1.5243377685546875 6.026993274688721 -0.047636955976486206 2994813 4 -1
-1.5243825912475586 6.027170181274414 0 3257723 4 -1
-1.570357322692871 6.008561134338379 0.28582173585891724 6933851 4 -1
-1.5215158462524414 6.015835762023926 0.38109564781188965 7589974 4 -1
-1.5189580917358398 6.005722999572754 0.5240064859390259 8180304 4 -1
-1.5189580917358398 6.005722999572754 0.5240064859390259 8705099 4 -1
-1.5697566270828247 6.00626277923584 0.33345869183540344 9360965 4 -1
-1.570357322692871 6.008561134338379 0.28582173585891724 11918891 4 -1
-1.477094054222107 6.040443420410156 -0.6225227117538452 3887499 4 -1
-1.5278584957122803 6.0409135818481445 -0.4788636267185211 3692940 4 -1
-1.480112910270691 6.052789211273193 -0.4788636267185211 3562893 4 -1
-1.4759111404418945 6.0356059074401855 -0.670409083366394 3432845 4 -1
-1.4833873510360718 6.0661797523498535 -0.23943181335926056 3107982 4 -1
-1.5321836471557617 6.058014392852783 -0.09577272832393646 2523534 4 -1
-1.5321836471557617 6.058014392852783 -0.09577272832393646 2458766 4 -1
-1.7699220180511475 5.986745834350586 -0.2873181700706482 2328718 4 -1
-1.5316437482833862 6.055879592895508 -0.19154545664787292 2328718 4 -1
-1.4833873510360718 6.0661797523498535 -0.23943181335926056 2070922 4 -1
-1.5323636531829834 6.0587263107299805 0 2994813 4 -1
-1.5323636531829834 6.0587263107299805 0 3257723 4 -1
-1.483779788017273 6.067784309387207 -0.19154545664787292 5949540 4 -1
-1.5802500247955322 6.046412944793701 0 6343264 4 -1
-1.5779752731323242 6.0377092361450195 0.335204541683197 7589974 4 -1
-1.523521065711975 6.023764133453369 0.670409083366394 8180304 4 -1
-1.6242601871490479 6.0193305015563965 0.4309772551059723 8705099 4 -1
-1.4781886339187622 6.044919490814209 0.5746363401412964 8705099 4 -1
-1.57950758934021 6.043572425842285 0.19154545664787292 11918891 4 -1
-1.57950758934021 6.043572425842285 0.19154545664787292 12640037 4 -1
-1.588433861732483 6.077726364135742 -0.048135772347450256 4212104 4 -1
-1.443394660949707 6.110951900482178 -0.19254308938980103 4212104 4 -1
-1.4868988990783691 6.080539703369141 -0.529493510723114 3692940 4 -1
-1.6815836429595947 6.0405449867248535 -0.38508617877960205 3562893 4 -1
-1.4894026517868042 6.090778827667236 -0.38508617877960205 3562893 4 -1
-1.4357401132583618 6.078544616699219 -0.6739007830619812 3432845 4 -1
-1.5348634719848633 6.068610191345215 -0.529493510723114 2912910 4 -1
-1.3958964347839355 6.124814510345459 -0.048135772347450256 2912910 4 -1
-1.44407320022583 6.113824367523193 0 2782862 4 -1
-1.44403076171875 6.113645076751709 -0.048135772347450256 2718350 4 -1
-1.7328368425369263 6.03814172744751 -0.048135772347450256 2264205 4 -1
-1.4920337200164795 6.101537704467773 -0.09627154469490051 3257723 4 -1
-1.588433861732483 6.077726364135742 0.048135772347450256 6343264 4 -1
-1.587314248085022 6.073442459106445 0.24067886173725128 7589974 4 -1
-1.6307923793792725 6.043537616729736 0.529493510723114 8705099 4 -1
-1.6797988414764404 6.034133434295654 0.48135772347450256 9360965 4 -1
-1.4835981130599976 6.067041397094727 0.6739007830619812 9360965 4 -1
-1.7791403532028198 6.0179266929626465 0.28881463408470154 10016830 4 -1
-1.5854932069778442 6.066474914550781 0.38508617877960205 10016830 4 -1
-1.7784597873687744 6.015625 0.3369503915309906 11197490 4 -1
-1.5882939100265503 6.07719087600708 0.09627154469490051 11918891 4 -1
-1.6449029445648193 6.095829963684082 0.09677036106586456 4456788 4 -1
-1.4431791305541992 6.110039710998535 -0.6773925423622131 4017546 4 -1
-1.4935864210128784 6.107887268066406 -0.580622136592865 3757452 4 -1
-1.4946030378341675 6.1120452880859375 -0.5322369933128357 3692940 4 -1
-1.445406198501587 6.1194682121276855 -0.580622136592865 3432845 4 -1
-1.4027994871139526 6.1551032066345215 -0.14515553414821625 2912910 4 -1
-1.451171875 6.14387845993042 -0.14515553414821625 2782862 4 -1
-1.4992358684539795 6.130990505218506 -0.19354072213172913 2264205 4 -1
-1.4515128135681152 6.145321846008301 0.04838518053293228 2134668 4 -1
-1.5466885566711426 6.1153645515441895 -0.2903110682964325 2139270 4 -1
-1.5466885566711426 6.1153645515441895 -0.2903110682964325 2271109 4 -1
-1.5437737703323364 6.103839874267578 -0.4838517904281616 2666112 4 -1
-1.5475983619689941 6.118961811065674 -0.19354072213172913 3257723 4 -1
-1.4997644424438477 6.133152008056641 0.09677036106586456 6933851 4 -1
-1.59553861618042 6.1049113273620605 0.2419258952140808 7589974 4 -1
-1.6381269693374634 6.070718765258789 0.580622136592865 8705099 4 -1
-1.4431791305541992 6.110039710998535 0.6773925423622131 8705099 4 -1
-1.7385907173156738 6.058191299438477 0.38708144426345825 9360965 4 -1
-1.4912852048873901 6.098476886749268 0.6773925423622131 9360965 4 -1
-1.740587592124939 6.065149307250977 0.2419258952140808 10016830 4 -1
-1.7838810682296753 6.033962249755859 0.5322369933128357 11918891 4 -1
-1.7868849039077759 6.044122695922852 0.38708144426345825 12640037 4 -1
-1.7883586883544922 6.049107551574707 0.2903110682964325 13164576 4 -1
-1.6037631034851074 6.136379718780518 0.24317294359207153 4456788 4 -1
-1.7017607688903809 6.1130242347717285 -0.14590376615524292 4456788 4 -1
-1.7017607688903809 6.1130242347717285 -0.14590376615524292 4456788 4 -1
-1.6535273790359497 6.127791404724121 0.04863458871841431 4456788 4 -1
-1.702210545539856 6.114640235900879 0 4456788 4 -1
-1.409367561340332 6.183922290802002 0.24317294359207153 4456788 4 -1
-1.453845739364624 6.15519905090332 -0.5349804759025574 4017546 4 -1
-1.4528566598892212 6.151011943817139 -0.5836150646209717 3887499 4 -1
-1.4547481536865234 6.159019470214844 -0.48634588718414307 3692940 4 -1
-1.4590376615524292 6.177180290222168 0 2912910 4 -1
-1.4100303649902344 6.186830520629883 -0.14590376615524292 2072968 4 -1
-1.5055018663406372 6.156614780426025 -0.34044212102890015 3257723 4 -1
-1.5065653324127197 6.160963535308838 0.24317294359207153 3651704 4 -1
-1.5076279640197754 6.165309429168701 0.04863458871841431 4045940 4 -1
-1.749559760093689 6.0964131355285645 0.24317294359207153 6933851 4 -1
-1.5055018663406372 6.156614780426025 0.34044212102890015 6933851 4 -1
-1.6032443046569824 6.134395122528076 0.29180753231048584 7589974 4 -1
-1.456937313079834 6.168288230895996 0.34044212102890015 7589974 4 -1
-1.4022643566131592 6.152755260467529 0.6808842420578003 8180304 4 -1
-1.453845739364624 6.15519905090332 0.5349804759025574 8705099 4 -1
-1.7960957288742065 6.075278282165527 0.38907670974731445 12640037 4 -1
-1.7975770235061646 6.080288887023926 0.29180753231048584 13164576 4 -1
-1.2706480026245117 6.250163555145264 0.1466519832611084 4456788 4 -1
-1.661275029182434 6.156503200531006 -0.19553598761558533 4456788 4 -1
-1.6620070934295654 6.159215927124023 0.04888399690389633 4456788 4 -1
-1.4165951013565063 6.215634822845459 0.24441997706890106 4456788 4 -1
-1.4649691581726074 6.2022929191589355 -0.2933039665222168 3887499 4 -1
-1.4663476943969727 6.208128929138184 -0.09776799380779266 2072968 4 -1
-1.4663476943969727 6.208128929138184 -0.09776799380779266 4045940 4 -1
3.1728856563568115 5.524156093597412 0.3421879708766937 4045940 5 -1
3.2254912853240967 5.5022993087768555 0.1466519832611084 4899181 5 -1
3.0300068855285645 5.612321376800537 0.1466519832611084 7589974 5 -1
-1.6114661693572998 6.165853500366211 0.2933039665222168 8705099 4 -1
-1.7546499967575073 6.114150524139404 0.4888399541378021 12640037 4 -1
-1.3683902025222778 6.229494094848633 0.1466519832611084 12640037 4 -1
-1.4248268604278564 6.251753807067871 -0.04913340508937836 4456788 4 -1
-1.7188612222671509 6.174452304840088 -0.19653362035751343 2072968 4 -1
3.2381365299224854 5.523870944976807 0.3439338207244873 4505456 5 -1
3.2404239177703857 5.527772426605225 0.24566702544689178 4899181 5 -1
3.0459132194519043 5.641783714294434 0.09826681017875671 7589974 5 -1
3.045466184616089 5.640955448150635 0.14740021526813507 8180304 5 -1
-1.3820691108703613 6.29176664352417 0.19753125309944153 4456788 4 -1
-1.6294413805007935 6.234631061553955 0.09876562654972076 4456788 4 -1
2.9973692893981934 5.669136047363281 -0.641976535320282 4147337 5 -1
3.0487639904022217 5.647063732147217 -0.5925937294960022 4017546 5 -1
-1.6777828931808472 6.217679500579834 -0.2469140589237213 2458766 4 -1
-1.7265708446502686 6.202146530151367 -0.2962968647480011 2328718 4 -1
3.2568726539611816 5.555832386016846 0.2469140589237213 4899181 5 -1
3.206488609313965 5.582660675048828 0.2962968647480011 5424489 5 -1
3.060925245285034 5.669589996337891 0.14814843237400055 8180304 5 -1
3.0613749027252197 5.670422554016113 0.09876562654972076 8705099 5 -1
-1.569777488708496 6.2066545486450195 0.7407422065734863 10672695 4 -1
-1.5596576929092407 6.166642189025879 1.037039041519165 11197490 0 -1
-1.637815237045288 6.266671180725098 0.04963222146034241 4456788 4 -1
-1.3896613121032715 6.326329708099365 0.04963222146034241 4456788 4 -1
-1.4389539957046509 6.313739776611328 -0.14889666438102722 4456788 4 -1
2.9723329544067383 5.741397857666016 -0.39705777168273926 4147337 5 -1
3.014739751815796 5.701990127563477 -0.5955866575241089 4017546 5 -1
3.020357608795166 5.712615489959717 -0.44668999314308167 3238030 5 -1
3.0243642330169678 5.720193386077881 -0.29779332876205444 3107982 5 -1
3.0267653465270996 5.724734783172607 -0.14889666438102722 2977934 5 -1
-1.7205257415771484 6.180431365966797 -0.8933799862861633 2070922 0 -1
-4.513815402984619 4.347291469573975 -1.637863278388977 4899181 0 -1
-1.7309461832046509 6.2178635597229 -0.5459544062614441 4899181 4 -1
-4.542336463928223 4.278509140014648 -1.737127661705017 5424489 0 -1
-1.7297687530517578 6.213634014129639 -0.5955866575241089 5424489 4 -1
3.075752019882202 5.697052478790283 0.19852888584136963 8180304 5 -1
3.027209997177124 5.7255754470825195 0.09926444292068481 12640037 5 -1
2.9840986728668213 5.764124870300293 -0.49881628155708313 4147337 5 -1
3.0252208709716797 5.721813678741455 -0.6983428001403809 4017546 5 -1
3.0413498878479004 5.7523193359375 -0.19952651858329773 2977934 5 -1
3.0383992195129395 5.746738910675049 -0.34917140007019043 2782862 5 -1
3.0370571613311768 5.744200229644775 -0.39905303716659546 2328718 5 -1
-1.7440109252929688 6.26479434967041 -0.2992897629737854 4899181 4 -1
3.0426900386810303 5.754854202270508 -0.04988162964582443 4899181 5 -1
-4.860987186431885 4.175327301025391 -1.1472774744033813 6933851 0 -1
3.0922977924346924 5.727699279785156 0.09976325929164886 7589974 5 -1
2.9914915561676025 5.77840518951416 0.19952651858329773 12640037 5 -1
2.9905052185058594 5.7764997482299805 -0.701834499835968 4147337 5 -1
3.0427839756011963 5.755032062530518 -0.6517034769058228 4017546 5 -1
3.0077738761901855 5.809855937957764 0.05013103783130646 3887499 5 -1
2.903994083404541 5.60939359664917 -1.7044552564620972 3757452 0 -1
3.0450387001037598 5.759296417236328 -0.6015724539756775 3107982 5 -1
3.053591251373291 5.775472640991211 -0.350917249917984 2977934 5 -1
3.057185173034668 5.7822699546813965 -0.15039311349391937 2523534 5 -1
3.0522425174713135 5.772921562194824 -0.40104830265045166 2458766 5 -1
3.0522425174713135 5.772921562194824 -0.40104830265045166 2328718 5 -1
3.0046818256378174 5.803883075714111 -0.30078622698783875 3257723 5 -1
-4.829054355621338 4.24691915512085 -1.203144907951355 6933851 0 -1
-0.5755066871643066 6.232454776763916 1.9049793481826782 6933851 0 -1
3.2080094814300537 5.701076030731201 0.10026207566261292 7589974 5 -1
2.9970712661743164 5.789183139801025 -0.8564675450325012 4147337 0 -1
3.018475294113159 5.830527305603027 0.3526630997657776 3887499 5 -1
3.0251052379608154 5.72159481048584 -1.1587501764297485 2977934 0 -1
3.022737979888916 5.838760852813721 -0.05038044601678848 2912910 5 -1
3.0171420574188232 5.827951908111572 -0.40304356813430786 3257723 5 -1
2.957428216934204 5.7126078605651855 -1.3602720499038696 3651704 0 -1
2.9206929206848145 5.887236595153809 0.20152178406715393 8705099 5 -1
3.1234958171844482 5.785485744476318 0.05038044601678848 8705099 5 -1
2.8662848472595215 5.903607368469238 0.40304356813430786 10016830 5 -1
2.9219799041748047 5.889830589294434 -0.05038044601678848 10672695 5 -1
2.948235511779785 5.816971302032471 -1.0632269382476807 4456788 0 -1
2.936216115951538 5.793256759643555 -1.2151165008544922 4456788 0 -1
2.936216115951538 5.793256759643555 -1.2151165008544922 4456788 0 -1
3.0000271797180176 5.674162864685059 -1.5695254802703857 2977934 0 -1
2.985757827758789 5.89100456237793 -0.20251941680908203 2070155 5 -1
2.9800498485565186 5.87974214553833 -0.45566868782043457 3257723 5 -1
2.935755491256714 5.917598247528076 0.15188956260681152 8705099 5 -1
2.880474328994751 5.932833194732666 -0.40503883361816406 10672695 5 -1
2.9863719940185547 5.892216205596924 -0.15188956260681152 11918891 5 -1
2.9548909664154053 5.830102920532227 -1.1702229976654053 4456788 0 -1
2.9048080444335938 5.855217456817627 -1.1702229976654053 4456788 0 -1
3.8508877754211426 5.269769668579102 -1.221102237701416 4456788 0 -1
2.9589169025421143 5.838046073913574 -1.1193437576293945 4456788 0 -1
2.97318696975708 5.866201877593994 -0.915826678276062 2977934 0 -1
2.8854079246520996 5.693010330200195 -1.831653356552124 2070922 0 -1
2.8959431648254395 5.964693546295166 -0.35615482926368713 2666112 5 -1
2.70062255859375 5.941923141479492 -1.221102237701416 2994813 0 -1
3.3062779903411865 5.756399154663086 -0.152637779712677 2994813 0 -1
2.9454474449157715 5.937134265899658 -0.40703409910202026 8180304 5 -1
2.9000327587127686 5.973116874694824 -0.05087926238775253 8705099 5 -1
2.8462257385253906 5.9913859367370605 0.305275559425354 10016830 5 -1
2.943971633911133 5.934159278869629 -0.457913339138031 10672695 5 -1
3.0154011249542236 5.824588775634766 -1.2270880937576294 4456788 0 -1
3.41343092918396 5.705821990966797 -0.562415361404419 4456788 0 -1
-3.7293758392333984 5.417632102966309 -1.124830722808838 2994813 0 -1
2.930433750152588 5.906871318817139 -1.0225733518600464 2994813 0 -1
3.0604169368743896 5.911541938781738 0.46015802025794983 8705099 5 -1
3.2153680324554443 5.833278656005859 0.7706711292266846 4456788 5 -1
3.122910261154175 5.906580448150635 0.5651588439941406 8705099 5 -1
2.9798409938812256 6.006461143493652 -0.05137807875871658 11918891 5 -1
2.9791409969329834 6.005050182342529 0.15413422882556915 13164576 5 -1
3.2156758308410645 5.714700222015381 -1.5488245487213135 4456788 0 -1
3.133613348007202 5.92682409286499 0.6711573004722595 8705099 5 -1
2.9426803588867188 6.0609564781188965 0.05162748694419861 11918891 5 -1
3.5172576904296875 5.761656284332275 0.5187689065933228 4456788 5 -1
3.5100836753845215 5.749904632568359 0.6743996143341064 4456788 5 -1
3.1975362300872803 5.800929069519043 -1.4006761312484741 5949540 0 -1
3.272271156311035 5.936511993408203 0.5733892917633057 5424489 5 -1
3.480034351348877 5.817154884338379 0.5733892917633057 5424489 5 -1
3.191533088684082 5.671794891357422 -1.9807994365692139 5949540 0 -1
3.7088329792022705 5.281569957733154 -2.2521555423736572 4456788 0 -1
2.736377000808716 6.020589828491211 -1.7283984422683716 4456788 0 -1
3.1648707389831543 5.624412536621094 -2.2521555423736572 5949540 0 -1
3.2196261882781982 5.963542938232422 0.8903870582580566 6343264 5 -1
3.444495916366577 5.875895023345947 0.5761328339576721 6343264 5 -1
3.444495916366577 5.875895023345947 0.5761328339576721 6343264 5 -1
3.051928997039795 6.021562576293945 -1.263002872467041 4456788 0 -1
2.6019504070281982 6.1288371086120605 -1.6840038299560547 4456788 0 -1
3.0085763931274414 6.064383029937744 -1.1577526330947876 4456788 0 -1
4.274018287658691 5.29189395904541 -0.947252094745636 4456788 0 -1
3.3581056594848633 5.967817783355713 0.5262511968612671 5949540 5 -1
3.0789453983306885 6.07486629486084 -1.1103650331497192 4456788 0 -1
3.1978652477264404 6.0483479499816895 -0.8988669514656067 4456788 0 -1
3.5374937057495117 5.91320276260376 -0.37012168765068054 4456788 0 -1
3.3671391010284424 5.9838714599609375 -0.6873688101768494 4456788 0 -1
1.655379056930542 6.545109748840332 -1.4276121854782104 4456788 0 -1
3.5869081020355225 5.875751495361328 -0.4758707284927368 4456788 0 -1
3.3696341514587402 5.98830509185791 0.6344943046569824 5949540 5 -1
3.055809736251831 6.159591197967529 0.5816197991371155 13164576 5 -1
2.098292589187622 6.340908527374268 1.8593376874923706 4456788 0 -1
2.331888437271118 6.511589050292969 -0.47811540961265564 4456788 0 -1
3.5541799068450928 5.941095352172852 -0.3718675374984741 4456788 0 -1
3.3215606212615967 6.0259318351745605 -0.8499829173088074 4456788 0 -1
3.6056339740753174 5.906426906585693 -0.4249914586544037 4456788 0 -1
4.034454822540283 5.632025718688965 0.2656196653842926 4456788 0 -1
3.336968421936035 6.053884506225586 0.5312393307685852 8705099 5 -1
3.0152363777160645 6.2103986740112305 0.6374872326850891 12640037 5 -1
3.070223808288574 6.188645839691162 0.5843632817268372 13164576 5 -1
2.2853312492370605 6.548780918121338 -0.640480101108551 4456788 0 -1
3.8428807258605957 5.80962610244751 0 4456788 0 -1
3.8428807258605957 5.80962610244751 0 4456788 0 -1
3.6241626739501953 5.936779022216797 -0.3736133873462677 4456788 0 -1
4.105401992797852 5.618061065673828 0.3202400505542755 4456788 0 -1
3.407761573791504 6.056063175201416 0.48036009073257446 8705099 5 -1
3.348275899887085 6.074398517608643 0.640480101108551 9360965 5 -1
3.0271494388580322 6.234935283660889 0.6938534379005432 12640037 5 -1
3.0825397968292236 6.213470935821533 0.640480101108551 13164576 5 -1
3.193094253540039 6.167823314666748 0.8579639792442322 4456788 5 -1
3.275106430053711 5.941655158996582 1.7159279584884644 4456788 0 -1
3.1300344467163086 6.1756672859191895 -1.0188322067260742 4456788 0 -1
-4.860337257385254 4.475992202758789 -2.3057782649993896 3692940 0 -1
-4.860337257385254 4.475992202758789 -2.3057782649993896 3562893 0 -1
-5.166490077972412 4.437737941741943 -1.6086825132369995 3651704 0 -1
-5.218114852905273 4.482080459594727 -1.2869460582733154 4899181 0 -1
-5.246263027191162 4.399381160736084 -1.4478142261505127 5949540 0 -1
-5.239474773406982 4.500427722930908 -1.1260777711868286 6933851 0 -1
3.1503398418426514 6.2157301902771 0.6434730291366577 9360965 5 -1
3.3662118911743164 6.106937885284424 0.5898502469062805 9360965 5 -1
3.2037353515625 6.188377857208252 0.6434730291366577 13164576 5 -1
2.9069607257843018 6.395909309387207 0.2693607807159424 4456788 5 -1
-4.882943153381348 4.4968109130859375 -2.316502809524536 3692940 0 -1
-4.882943153381348 4.4968109130859375 -2.316502809524536 3562893 0 -1
-5.233027935028076 4.388282775878906 -1.6700369119644165 3651704 0 -1
-5.196836948394775 4.570365905761719 -1.2390596866607666 4899181 0 -1
-5.26176643371582 4.412381649017334 -1.508420467376709 5949540 0 -1
-2.0457849502563477 6.353485584259033 2.208758592605591 5949540 0 -1
-5.2638444900512695 4.521359920501709 -1.1313153505325317 6933851 0 -1
2.5824239253997803 6.2261738777160645 -2.110741138458252 4456788 0 -1
3.1357316970825195 6.320689678192139 0.32472941279411316 4456788 5 -1
-5.276845932006836 4.425027370452881 -1.5695254802703857 5949540 0 -1
-5.083262920379639 4.6812896728515625 -1.4612822532653809 5949540 0 -1
-6.020810127258301 3.7229881286621094 0.48933878540992737 4456788 0 -1
-5.301163196563721 4.4454193115234375 -1.5767582654953003 5949540 0 -1
-4.962858200073242 4.885965824127197 -1.3592743873596191 5949540 0 -1
-5.1077189445495605 4.811053276062012 -1.256268858909607 4456788 0 -1
-5.0608391761779785 4.874134063720703 -1.201648473739624 4456788 0 -1
-1.935715675354004 6.745081424713135 -1.42661452293396 4456788 0 -1
-1.935715675354004 6.745081424713135 -1.42661452293396 4456788 0 -1
-5.7912750244140625 4.974394798278809 -1.8032208681106567 2458766 0 -1
-5.756564617156982 5.062619209289551 -1.810703158378601 2070155 0 -1
-6.0308732986450195 5.057334899902344 -1.2832049131393433 2994813 0 -1
-5.8260979652404785 5.244100093841553 -1.466519832611084 2994813 0 -1
-2.8269548416137695 6.978479385375977 2.6275148391723633 2994813 0 -1
-5.8643341064453125 5.037148475646973 -2.086049795150757 2328718 0 -1
-5.61514949798584 5.289011001586914 -2.147404193878174 2328718 0 -1
-5.729261875152588 5.396495819091797 -1.4725056886672974 2006409 0 -1
6.106651306152344 7.714603424072266 -0.6801360249519348 3887499 6 -1
6.109712600708008 7.718470573425293 -0.6045653223991394 3757452 6 -1
6.106651306152344 7.714603424072266 -0.6801360249519348 3692940 6 -1
6.112412452697754 7.72188138961792 -0.5289946794509888 3302798 6 -1
6.17474365234375 7.645285606384277 -0.8312773108482361 3238030 6 -1
6.178576469421387 7.650031089782715 -0.7557066679000854 2718350 6 -1
6.12337064743042 7.735724925994873 -0.7582007646560669 4017546 6 -1
6.126805305480957 7.7400641441345215 -0.6823806762695312 3757452 6 -1
6.12337064743042 7.735724925994873 -0.7582007646560669 3692940 6 -1
6.12337064743042 7.735724925994873 -0.7582007646560669 3238030 6 -1
6.12337064743042 7.735724925994873 -0.7582007646560669 2718350 6 -1
6.119572162628174 7.730926513671875 -0.8340208530426025 2588302 6 -1
6.129876613616943 7.74394416809082 -0.6065605878829956 2199437 6 -1
6.129876613616943 7.74394416809082 -0.6065605878829956 2070155 6 -1
6.1369171142578125 7.752838611602783 -0.37910038232803345 3257723 6 -1
6.143513202667236 7.761171340942383 -0.7606948614120483 3757452 6 -1
6.139702320098877 7.756357192993164 -0.8367643356323242 3692940 6 -1
6.143513202667236 7.761171340942383 -0.7606948614120483 3238030 6 -1
6.143513202667236 7.761171340942383 -0.7606948614120483 2718350 6 -1
6.139702320098877 7.756357192993164 -0.8367643356323242 2588302 6 -1
6.150040626525879 7.769417762756348 -0.6085558533668518 2199437 6 -1
6.150040626525879 7.769417762756348 -0.6085558533668518 2070155 6 -1
6.152758598327637 7.77285099029541 -0.5324863791465759 2072968 6 -1
6.1571044921875 7.778341293334961 -0.38034743070602417 3257723 6 -1
6.1571044921875 7.778341293334961 -0.38034743070602417 7589974 6 -1
6.1702046394348145 7.794891357421875 -0.610551118850708 3757452 6 -1
6.163655757904053 7.786617755889893 -0.763188898563385 3692940 6 -1
6.15983247756958 7.781787872314453 -0.8395078182220459 3238030 6 -1
6.15983247756958 7.781787872314453 -0.8395078182220459 2718350 6 -1
6.15983247756958 7.781787872314453 -0.8395078182220459 2588302 6 -1
6.1702046394348145 7.794891357421875 -0.610551118850708 2199437 6 -1
6.163655757904053 7.786617755889893 -0.763188898563385 2070155 6 -1
6.163655757904053 7.786617755889893 -0.763188898563385 8705099 6 -1
6.177291393280029 7.803843975067139 -0.3815944492816925 10672695 6 -1
6.172931671142578 7.798336029052734 -0.5342322587966919 11918891 6 -1
5.891430377960205 8.062162399291992 -0.3828414976596832 4456788 6 -1
5.895066738128662 8.067138671875 -0.15313659608364105 3757452 6 -1
5.892989158630371 8.064295768737793 -0.3062731921672821 2718350 6 -1
6.1139445304870605 7.8802571296691895 -0.6125463843345642 2588302 6 -1
6.1757588386535645 7.801907539367676 -0.9188196063041687 8705099 6 -1
6.193104267120361 7.8238205909729 -0.5359780788421631 10672695 6 -1
6.187267303466797 7.816446304321289 -0.6891146898269653 11918891 6 -1
5.91478967666626 8.094128608703613 0.07681770622730255 4456788 6 -1
5.91478967666626 8.094128608703613 -0.07681770622730255 3757452 6 -1
5.914268970489502 8.093415260314941 -0.1536354124546051 2718350 6 -1
5.914268970489502 8.093415260314941 0.1536354124546051 10672695 6 -1
6.2156548500061035 7.852308750152588 -0.4609062373638153 10672695 6 -1
6.006821632385254 8.057844161987305 0.3853355646133423 7589974 6 -1
6.600008487701416 7.5334858894348145 -2.036168098449707 4456788 0 -1
6.984959125518799 7.027769565582275 -2.5060529708862305 4456788 0 -1
6.706689357757568 7.499026775360107 -1.8012255430221558 4456788 0 -1
7.011960029602051 7.054935932159424 -2.3494246006011963 4456788 0 -1
6.6641459465026855 7.451457500457764 -2.278343439102173 4456788 0 -1
6.665344715118408 7.76556921005249 0.6285085082054138 4456788 0 -1
5.2613725662231445 8.446779251098633 -2.600828170776367 4456788 0 -1
7.105856418609619 6.995761394500732 -2.52201509475708 4456788 0 -1
6.7993645668029785 7.761038303375244 0 4456788 0 -1
6.500219821929932 7.88741397857666 -1.8299075365066528 4456788 0 -1
5.386180877685547 8.823158264160156 -1.2769696712493896 4456788 0 -1
5.709383487701416 8.460893630981445 -2.075075626373291 4456788 0 -1
6.4819231033325195 8.02562141418457 -1.4365909099578857 4456788 0 -1
7.33561372756958 13.036398887634277 -3.909472703933716 2134668 0 -1
-14.67122745513916 2.9178764820098877 3.909472703933716 2134668 0 -1
-14.67122745513916 2.9178764820098877 3.909472703933716 2070155 0 -1
