VERSION .7
FIELDS x y z rgb label object
SIZE 4 4 4 4 4 4
TYPE F F F I I I
COUNT 1 1 1 1 1 1
WIDTH 684
HEIGHT 1
POINTS 684
VIEWPOINT 0 0 0 1 0 0 0
DATA ascii
-1.746674656867981 2.4873549938201904 0.3516654670238495 4456788 0 -1
-1.6656075716018677 2.4683098793029785 0.703330934047699 4456788 0 -1
-1.6797441244125366 2.4892592430114746 0.5861091613769531 4456788 0 -1
-1.6659979820251465 2.5186378955841064 0.49233168363571167 4456788 0 -1
-1.6503674983978271 2.5453720092773438 0.3985542058944702 4456788 0 -1
-1.9595320224761963 2.3299832344055176 0.30477675795555115 4456788 0 -1
-1.964638352394104 2.336054801940918 0.2109992951154709 4456788 0 -1
-1.8221533298492432 2.4443256855010986 0.2578880190849304 4456788 0 -1
-1.9505056142807007 2.3192503452301025 0.4219985902309418 4456788 0 -1
-1.9505056142807007 2.3192503452301025 0.4219985902309418 4456788 0 -1
-1.855566382408142 2.3916375637054443 0.44544294476509094 4456788 0 -1
-1.8487083911895752 2.382798433303833 0.5157760381698608 4523353 0 -1
-1.874247670173645 2.3677587509155273 0.49233168363571167 4590430 0 -1
-1.8692704439163208 2.361471176147461 0.53922039270401 4657508 0 -1
-1.8896512985229492 2.3396799564361572 0.5626647472381592 4724328 0 -1
-1.8787609338760376 2.373460531234741 0.44544294476509094 4725613 0 -1
-1.8765621185302734 2.370682716369629 0.4688872992992401 4726897 0 -1
-1.874247670173645 2.3677587509155273 0.49233168363571167 4728182 0 -1
-1.7636276483535767 2.5114970207214355 0.37910038232803345 4456788 0 -1
-1.766778588294983 2.515984058380127 0.33171284198760986 4456788 0 -1
-1.7681947946548462 2.518000841140747 0.3080190420150757 4456788 0 -1
-1.707106351852417 2.5298080444335938 0.4975692331790924 4456788 0 -1
-1.707106351852417 2.5298080444335938 0.4975692331790924 4456788 0 -1
-1.9164329767227173 2.4210519790649414 0.16585642099380493 4456788 0 -1
-1.720868706703186 2.4998910427093506 0.592344343662262 4456788 0 -1
-2.011841297149658 2.343928575515747 0.14216263592243195 4456788 0 -1
-1.8300459384918213 2.3587443828582764 0.8055883049964905 4456788 0 -1
-1.8606085777282715 2.3505284786224365 0.7582007646560669 4657508 0 -1
-1.984425663948059 2.3595829010009766 0.2369377315044403 4728182 0 -1
-1.8119730949401855 2.5294816493988037 0.2873181700706482 4456788 0 -1
-1.7804384231567383 2.5354363918304443 0.40703409910202026 4456788 0 -1
-1.8076225519180298 2.5234081745147705 0.35914772748947144 4456788 0 -1
-1.774526834487915 2.527017831802368 0.4788636267185211 4456788 0 -1
-1.7487070560455322 2.5403316020965576 0.5028068423271179 4456788 0 -1
-1.7139612436294556 2.5911483764648438 0.335204541683197 4456788 0 -1
-1.9357504844665527 2.445456027984619 0.19154545664787292 4456788 0 -1
-1.9297518730163574 2.437877893447876 0.3112613558769226 4456788 0 -1
-1.6944957971572876 2.511120080947876 0.7661818265914917 4456788 0 -1
-1.9870506525039673 2.411101818084717 0.04788636416196823 4664956 0 -1
-1.8210647106170654 2.542173385620117 0.43546661734580994 4456788 0 -1
-1.7951123714447021 2.55633282661438 0.459659218788147 4456788 0 -1
-1.8647319078445435 2.5014426708221436 0.4838517904281616 4456788 0 -1
-1.7646315097808838 2.563464879989624 0.5322369933128357 4456788 0 -1
-1.8169182538986206 2.5363848209381104 0.4838517904281616 4456788 0 -1
-1.9429033994674683 2.4544923305511475 0.4112740159034729 4456788 0 -1
-1.7086671590805054 2.532121181488037 0.7983554601669312 4456788 0 -1
-2.225456953048706 2.2390966415405273 -0.04838518053293228 4664956 0 -1
-2.074445962905884 2.367846727371216 0.2419258952140808 4664956 0 -1
-1.8356493711471558 2.562533140182495 0.4888399541378021 4456788 0 -1
-1.8174031972885132 2.5370616912841797 0.6599339246749878 4456788 0 -1
-1.693928837776184 2.510280132293701 1.002121925354004 4456788 0 -1
-1.8708075284957886 2.5095927715301514 0.7654336094856262 4456788 0 -1
-1.8394534587860107 2.5172107219696045 0.814816415309906 4456788 0 -1
-1.8553779125213623 2.4888947010040283 0.8641992211341858 4456788 0 -1
-1.823229193687439 2.495008707046509 0.9135820269584656 4456788 0 -1
-1.8192616701126099 2.539656400680542 0.7901250123977661 4456788 0 -1
-1.8503243923187256 2.5320870876312256 0.7407422065734863 4456788 0 -1
-1.843199372291565 2.522336959838867 0.7901250123977661 4456788 0 -1
-1.8000928163528442 2.4633474349975586 1.037039041519165 4456788 0 -1
-1.6736959218978882 2.530275583267212 1.0864218473434448 4456788 0 -1
-1.696941614151001 2.514744758605957 1.0864218473434448 4456788 0 -1
-1.8821641206741333 2.524827003479004 0.823046863079071 4456788 0 -1
-1.8782050609588623 2.5195162296295166 0.847987711429596 4456788 0 -1
-1.8782050609588623 2.5195162296295166 0.847987711429596 4456788 0 -1
-1.833903431892395 2.560096025466919 0.823046863079071 4456788 0 -1
-1.8724292516708374 2.5623366832733154 0.723283588886261 4456788 0 -1
-1.8618175983428955 2.5478150844573975 0.7981060743331909 4456788 0 -1
-1.7238197326660156 2.5545761585235596 1.0475142002105713 4456788 0 -1
-1.7758549451828003 2.528909206390381 1.0225733518600464 4456788 0 -1
-1.865061640739441 2.655944347381592 -0.24940814077854156 4456788 0 -1
-1.7521768808364868 2.545372247695923 1.0225733518600464 4456788 0 -1
-1.8969871997833252 2.5447113513946533 0.8564675450325012 4456788 0 -1
-1.9073035717010498 2.5585503578186035 0.915826678276062 4456788 0 -1
-2.825711250305176 1.8040544986724854 0.02568903937935829 4456788 0 -1
-2.8254623413085938 1.8038955926895142 0.05137807875871658 4456788 0 -1
-2.8237195014953613 1.8027828931808472 0.12844519317150116 4456788 0 -1
-1.8430290222167969 2.786271572113037 -0.2825794219970703 4456788 0 -1
-1.8461323976516724 2.7909634113311768 -0.20551231503486633 4456788 0 -1
-1.849393606185913 2.795893430709839 -0.05137807875871658 4657508 0 -1
-2.8237195014953613 1.8027828931808472 0.12844519317150116 4725613 0 -1
-2.852475166320801 1.8211417198181152 0.07781533896923065 4456788 0 -1
-2.851888656616211 1.8207671642303467 0.10375379025936127 4456788 0 -1
-2.8502120971679688 1.8196969032287598 0.1556306779384613 4456788 0 -1
-1.8609224557876587 2.8133227825164795 -0.285322904586792 4456788 0 -1
-1.8631219863891602 2.816648006439209 -0.23344601690769196 4456788 0 -1
-1.8921164274215698 2.8039796352386475 -0.1296922266483307 4523353 0 -1
-2.8502120971679688 1.8196969032287598 0.1556306779384613 4657508 0 -1
-1.866690754890442 2.8220431804656982 -0.10375379025936127 4657508 0 -1
-2.8502120971679688 1.8196969032287598 0.1556306779384613 4724328 0 -1
-2.8491218090057373 1.8190008401870728 0.18156912922859192 4725613 0 -1
-1.881036639213562 2.843731164932251 -0.23569069802761078 4456788 0 -1
-1.9262908697128296 2.854623794555664 -0.21149811148643494 4456788 0 -1
-3.0344419479370117 2.3004000186920166 -0.05836150422692299 4456788 0 -1
-2.995499849319458 2.3307909965515137 0.5886031985282898 4456788 0 -1
-3.0281262397766113 2.295612335205078 0.559173047542572 4456788 0 -1
-2.93748140335083 2.463296413421631 0.23544128239154816 4456788 0 -1
-2.8885138034820557 2.4222333431243896 -0.7357540130615234 4657508 0 -1
-2.9919991493225098 2.448411464691162 0.23743654787540436 4456788 0 -1
-2.9849376678466797 2.4426329135894775 0.35615482926368713 4456788 0 -1
-2.9849376678466797 2.4426329135894775 0.35615482926368713 4456788 0 -1
-2.982727527618408 2.440824270248413 0.38583439588546753 4456788 0 -1
-2.9689877033233643 2.4295806884765625 0.5342322587966919 4456788 0 -1
-2.982727527618408 2.440824270248413 0.38583439588546753 4456788 0 -1
-2.9849376678466797 2.4426329135894775 0.35615482926368713 4523353 0 -1
-2.990499973297119 2.4471845626831055 0.26711612939834595 4590430 0 -1
-2.982727527618408 2.440824270248413 0.38583439588546753 4657508 0 -1
-2.9803385734558105 2.4388694763183594 0.4155139625072479 4724328 0 -1
-2.9803385734558105 2.4388694763183594 0.4155139625072479 4725613 0 -1
-3.013939619064331 2.4663658142089844 0.2992897629737854 4456788 0 -1
-3.010021209716797 2.4631590843200684 0.35914772748947144 4456788 0 -1
-3.0077922344207764 2.4613354206085205 0.38907670974731445 4456788 0 -1
-3.0053834915161133 2.459364175796509 0.41900569200515747 4456788 0 -1
-2.9939370155334473 2.4499974250793457 0.5387215614318848 4456788 0 -1
-2.9970712661743164 2.452562093734741 0.5087926387786865 4456788 0 -1
-3.0053834915161133 2.459364175796509 0.41900569200515747 4523353 0 -1
-3.0171420574188232 2.4689862728118896 0.23943181335926056 4590430 0 -1
-3.010021209716797 2.4631590843200684 0.35914772748947144 4657508 0 -1
-3.0053834915161133 2.459364175796509 0.41900569200515747 4724328 0 -1
-3.0053834915161133 2.459364175796509 0.41900569200515747 4725613 0 -1
-3.005053997039795 2.51996111869812 0.36214062571525574 4456788 0 -1
-3.0328571796417236 2.481846570968628 0.392318993806839 4456788 0 -1
-3.030428409576416 2.479858875274658 0.42249739170074463 4456788 0 -1
-3.0278172492980957 2.47772216796875 0.45267578959465027 4456788 0 -1
-2.9889965057373047 2.506495714187622 0.5432109236717224 4456788 0 -1
-3.0220468044281006 2.4730000495910645 0.5130325555801392 4456788 0 -1
-3.0250236988067627 2.475435972213745 0.4828541576862335 4523353 0 -1
-3.0070996284484863 2.521676540374756 0.3319622278213501 4590430 0 -1
-3.0328571796417236 2.481846570968628 0.392318993806839 4657508 0 -1
-3.0278172492980957 2.47772216796875 0.45267578959465027 4724328 0 -1
-3.0278172492980957 2.47772216796875 0.45267578959465027 4725613 0 -1
-2.8492727279663086 2.683781623840332 0.6694114804267883 4456788 0 -1
-2.841341257095337 2.6763110160827637 0.7302670478820801 4456788 0 -1
-3.0500237941741943 2.495894193649292 0.4868446886539459 4456788 0 -1
-2.845396041870117 2.6801300048828125 0.6998392343521118 4456788 0 -1
-3.040463924407959 2.4880712032318115 0.5781280994415283 4456788 0 -1
-2.8669722080230713 2.640258312225342 0.7606948614120483 4456788 0 -1
-2.8371078968048096 2.67232346534729 0.7606948614120483 4456788 0 -1
-3.0068371295928955 2.521456241607666 0.6085558533668518 4456788 0 -1
-2.8371078968048096 2.67232346534729 0.7606948614120483 4456788 0 -1
-3.0136990547180176 2.5272104740142822 0.5477002859115601 4523353 0 -1
-2.8371078968048096 2.67232346534729 0.7606948614120483 4523353 0 -1
-2.880354166030884 2.71305775642395 0.33470574021339417 4590430 0 -1
-3.0528404712677 2.498199224472046 0.45641690492630005 4657508 0 -1
-2.866011142730713 2.6995480060577393 0.5172724723815918 4657508 0 -1
-2.8529722690582275 2.6872663497924805 0.6389836668968201 4724328 0 -1
-3.0198254585266113 2.532348155975342 0.4868446886539459 4725613 0 -1
-2.8529722690582275 2.6872663497924805 0.6389836668968201 4725613 0 -1
-2.860722064971924 2.634502410888672 0.9509932398796082 4456788 0 -1
-2.817405939102173 2.594611644744873 1.1657336950302124 4456788 0 -1
-3.209409236907959 2.305079698562622 0.6442212462425232 4456788 0 -1
-3.066349744796753 2.4474565982818604 0.7976072430610657 4456788 0 -1
-2.84930682182312 2.623990058898926 1.01234769821167 4456788 0 -1
-3.170484781265259 2.277123212814331 0.8896388411521912 4456788 0 -1
-2.872931480407715 2.585939884185791 1.0430248975753784 4456788 0 -1
-2.855109214782715 2.62933349609375 0.9816704392433167 4456788 0 -1
-3.281593084335327 2.291592836380005 -0.09203160554170609 4456788 0 -1
-2.837128162384033 2.612774133682251 1.073702096939087 4523353 0 -1
-2.9442331790924072 2.711409568786621 0.09203160554170609 4590430 0 -1
-2.932535409927368 2.700636863708496 0.36812642216682434 4657508 0 -1
-2.8014681339263916 2.521615505218506 1.3497968912124634 4725613 0 -1
-2.9712109565734863 2.6744017601013184 0.5566789507865906 4456788 0 -1
-2.4728763103485107 3.000605821609497 1.0824313163757324 4456788 0 -1
-2.4431304931640625 3.212563991546631 0.03092660941183567 4456788 0 -1
-2.312676429748535 3.2933709621429443 0.3092660903930664 4456788 0 -1
-2.2892701625823975 3.2600390911102295 0.6494588255882263 4456788 0 -1
-3.2773544788360596 2.353879928588867 -0.09277983009815216 4456788 0 -1
-2.9397459030151367 2.6460800170898438 0.8040918707847595 4456788 0 -1
-2.3139736652374268 3.2952182292938232 0.2783394753932953 4456788 0 -1
-2.989206075668335 2.6905994415283203 0.3401927053928375 4590430 0 -1
-2.318406105041504 3.301530122756958 0.12370643764734268 4657508 0 -1
-2.9397459030151367 2.6460800170898438 -0.8040918707847595 4725613 0 -1
-2.442556619644165 3.2118093967437744 0.09277983009815216 4725613 0 -1
-2.9443256855010986 2.6502022743225098 -0.773165225982666 4728182 0 -1
-2.307732105255127 3.286329746246338 0.6546963453292847 4456788 0 -1
-2.2948997020721436 3.2680556774139404 0.7794004678726196 4456788 0 -1
-3.335833787918091 2.329469919204712 0 4456788 0 -1
-2.331327199935913 3.3199303150177 0.31176018714904785 4456788 0 -1
-2.335728883743286 3.3261988162994385 0.18705610930919647 4456788 0 -1
-2.328295946121216 3.3156139850616455 0.37411221861839294 4523353 0 -1
-2.326364040374756 3.1206986904144287 1.184688687324524 4725613 0 -1
-3.0154366493225098 2.651930093765259 -0.6546963453292847 4728182 0 -1
-3.045003652572632 2.553461790084839 0.8729285001754761 4664956 0 -1
-3.1059036254882812 2.479027271270752 0.8729285001754761 4536450 0 -1
-2.976740837097168 2.6793792247772217 -0.7170484066009521 4536450 0 -1
-3.362421751022339 2.348036766052246 -0.03142542764544487 4456788 0 -1
-3.3309974670410156 2.3924076557159424 -0.03142542764544487 4456788 0 -1
-2.490388870239258 3.146137237548828 0.8484864830970764 4456788 0 -1
-2.344102382659912 3.272324323654175 0.7856356501579285 4456788 0 -1
-3.3621256351470947 2.347830057144165 -0.06285085529088974 4523353 0 -1
-2.3560807704925537 3.16056227684021 1.1313153505325317 4725613 0 -1
-2.24442458152771 3.3260748386383057 0.8484864830970764 4728182 0 -1
-3.0975699424743652 2.5975425243377686 0.6913593411445618 4664956 0 -1
-2.9736671447753906 2.738516092300415 0.6913593411445618 4664956 0 -1
-2.2673416137695312 3.2937474250793457 0.9113373756408691 4664956 0 -1
-3.1285457611083984 2.560150146484375 0.6913593411445618 4600703 0 -1
-3.004642963409424 2.704493999481201 0.6913593411445618 4600703 0 -1
-3.1552226543426514 2.5183918476104736 0.7227848172187805 4536450 0 -1
-3.035618543624878 2.6696791648864746 0.6913593411445618 4536450 0 -1
-2.705740451812744 2.8413166999816895 1.1941661834716797 4536450 0 -1
-2.236701726913452 3.3146302700042725 0.9113373756408691 4536450 0 -1
-3.3883116245269775 2.3661160469055176 -0.09502450376749039 4456788 0 -1
-3.1221539974212646 2.6181578636169434 0.6968463659286499 4664956 0 -1
-2.3202927112579346 3.3042168617248535 0.8868953585624695 4664956 0 -1
-3.1574697494506836 2.5838193893432617 0.6651715040206909 4600703 0 -1
-3.117713451385498 2.677948474884033 0.44344767928123474 4536450 0 -1
-2.945711612701416 2.837038040161133 0.6018218398094177 4536450 0 -1
-2.769144058227539 2.9078972339630127 0.9819198250770569 4536450 0 -1
-2.4596357345581055 3.234267234802246 0.7601960301399231 4536450 0 -1
-2.254453420639038 3.3409368991851807 0.9185701608657837 4536450 0 -1
-3.1110317707061768 2.6722092628479004 0.7342575788497925 4664956 0 -1
-2.981079339981079 2.8079328536987305 0.7661818265914917 4664956 0 -1
-2.4126431941986084 3.301595687866211 0.7981060743331909 4664956 0 -1
-3.246332883834839 2.854992151260376 1.0934052467346191 4523353 0 -1
-3.2764570713043213 2.8814847469329834 1.0669680833816528 4456788 0 -1
-3.353531837463379 2.949268341064453 -0.4818565249443054 4456788 0 -1
-3.270028591156006 2.875831365585327 1.101386308670044 4523353 0 -1
-3.242128372192383 2.85129451751709 1.2390596866607666 4590430 0 -1
-3.293724536895752 2.8966708183288574 1.1093673706054688 4456788 0 -1
-3.2870306968688965 2.8907840251922607 1.1440351009368896 4456788 0 -1
-3.280116558074951 2.8847033977508545 1.1787028312683105 4523353 0 -1
-3.2580385208129883 2.8652868270874023 1.2827060222625732 4590430 0 -1
-2.7817153930664062 3.6577820777893066 0.49582338333129883 4456788 0 -1
-2.7604165077209473 3.7029576301574707 0.17707978188991547 4523353 0 -1
-2.8035502433776855 3.6864936351776123 0.4636497497558594 4456788 0 -1
-2.8056278228759766 3.689225196838379 0.427984356880188 4523353 0 -1
-3.299102306365967 4.0847978591918945 -0.4848494231700897 4456788 0 -1
-4.388524055480957 2.535719394683838 -1.4545482397079468 4456788 0 -1
-3.16628360748291 3.841991424560547 -1.7373771667480469 4523353 0 -1
-3.1440184116363525 4.217540264129639 -0.3636370599269867 4523353 0 -1
-3.536752939224243 3.954590082168579 -0.0406535267829895 4456788 0 -1
-3.3599483966827393 4.076985836029053 -0.487842321395874 4456788 0 -1
-3.330064296722412 4.123133659362793 -0.243921160697937 4456788 0 -1
-3.5368568897247314 3.9547061920166016 0 4456788 0 -1
-3.536752939224243 3.954590082168579 0.0406535267829895 4456788 0 -1
-3.325652837753296 4.117671489715576 -0.3658817410469055 4456788 0 -1
-4.593308925628662 2.654045581817627 0.081307053565979 4456788 0 -1
-3.5359222888946533 3.9536612033843994 -0.1219605803489685 4523353 0 -1
-3.5351951122283936 3.952848196029663 -0.162614107131958 4590430 0 -1
-3.536752939224243 3.954590082168579 -0.0406535267829895 4657508 0 -1
-3.325652837753296 4.117671489715576 -0.3658817410469055 4657508 0 -1
-3.557615041732788 3.977916717529297 -0.12270880490541458 4456788 0 -1
-3.558450937271118 3.978851318359375 -0.04090293496847153 4456788 0 -1
-3.349212646484375 4.146842002868652 -0.2863205373287201 4456788 0 -1
-3.349212646484375 4.146842002868652 -0.2863205373287201 4456788 0 -1
-3.5585553646087646 3.9789681434631348 0 4456788 0 -1
-3.349212646484375 4.146842002868652 -0.2863205373287201 4456788 0 -1
-3.558450937271118 3.978851318359375 -0.04090293496847153 4456788 0 -1
-3.350494146347046 4.148428916931152 -0.24541760981082916 4456788 0 -1
-4.621895790100098 2.670563220977783 0.04090293496847153 4456788 0 -1
-3.557615041732788 3.977916717529297 -0.12270880490541458 4523353 0 -1
-3.34773325920105 4.145010471343994 -0.3272234797477722 4523353 0 -1
-3.557615041732788 3.977916717529297 -0.12270880490541458 4590430 0 -1
-3.5581374168395996 3.9785008430480957 -0.08180586993694305 4657508 0 -1
-3.34773325920105 4.145010471343994 -0.3272234797477722 4657508 0 -1
-3.5581374168395996 3.9785008430480957 -0.08180586993694305 4724328 0 -1
-3.346055746078491 4.142933368682861 -0.36812642216682434 4724328 0 -1
-3.5581374168395996 3.9785008430480957 -0.08180586993694305 4725613 0 -1
-3.34773325920105 4.145010471343994 -0.3272234797477722 4725613 0 -1
-3.5324459075927734 4.032060146331787 -0.3292187452316284 4456788 0 -1
-3.3214783668518066 4.196062088012695 -0.45267578959465027 4456788 0 -1
-3.52650785446167 4.025282382965088 -0.45267578959465027 4456788 0 -1
-3.5324459075927734 4.032060146331787 -0.3292187452316284 4456788 0 -1
-4.650078296661377 2.68684720993042 0.04115234315395355 4456788 0 -1
-3.5340070724487305 4.033842086791992 -0.28806641697883606 4523353 0 -1
-3.5353593826293945 4.035385608673096 -0.2469140589237213 4590430 0 -1
-3.5340070724487305 4.033842086791992 -0.28806641697883606 4657508 0 -1
-3.5340070724487305 4.033842086791992 -0.28806641697883606 4724328 0 -1
-3.5324459075927734 4.032060146331787 -0.3292187452316284 4725613 0 -1
-3.808849334716797 3.832193374633789 -0.04140175133943558 4456788 0 -1
-3.8493454456329346 3.789705276489258 -0.12420525401830673 4456788 0 -1
-3.8493454456329346 3.789705276489258 -0.12420525401830673 4456788 0 -1
-4.677161693572998 2.702496290206909 0.12420525401830673 4456788 0 -1
-3.9670937061309814 3.6533846855163574 -0.3312140107154846 4657508 0 -1
-3.8485538959503174 3.788926124572754 -0.1656070053577423 4657508 0 -1
-3.9670937061309814 3.6533846855163574 -0.3312140107154846 4724328 0 -1
-3.8493454456329346 3.789705276489258 -0.12420525401830673 4724328 0 -1
-3.8485538959503174 3.788926124572754 -0.1656070053577423 4725613 0 -1
-3.994283437728882 3.678424119949341 -0.24990695714950562 4456788 0 -1
-3.9909918308258057 3.6753928661346436 -0.3332092761993408 4456788 0 -1
-3.9909918308258057 3.6753928661346436 -0.3332092761993408 4456788 0 -1
-4.704370021820068 2.718217134475708 0.1666046380996704 4456788 0 -1
-3.9786243438720703 3.664003372192383 -0.5414651036262512 4456788 0 -1
-3.994283437728882 3.678424119949341 -0.24990695714950562 4657508 0 -1
-3.9955756664276123 3.679614305496216 -0.208255797624588 4724328 0 -1
-3.994283437728882 3.678424119949341 -0.24990695714950562 4725613 0 -1
-4.1895647048950195 3.513261318206787 -0.08380113542079926 4456788 0 -1
-3.9776315689086914 3.74660325050354 -0.20950284600257874 4456788 0 -1
-4.0182013511657715 3.7004506587982178 -0.25140342116355896 4456788 0 -1
-4.569791793823242 2.9175498485565186 -0.7123096585273743 4456788 0 -1
-4.188088417053223 3.5120232105255127 -0.1676022708415985 4523353 0 -1
-3.9786837100982666 3.7475945949554443 -0.1676022708415985 4657508 0 -1
-3.917069911956787 3.8563804626464844 0.21074987947940826 4456788 0 -1
-3.517133951187134 4.182051181793213 0.632249653339386 4456788 0 -1
-3.332166910171509 4.294826507568359 0.8429995179176331 4456788 0 -1
-3.5138888359069824 4.178192615509033 0.6743996143341064 4456788 0 -1
-4.168435096740723 3.5804622173309326 -0.2528998553752899 4456788 0 -1
-3.7930524349212646 3.9831104278564453 0.0842999517917633 4456788 0 -1
-4.508691310882568 3.058692216873169 -0.7586995959281921 4456788 0 -1
-4.3679986000061035 3.3113648891448975 -0.4636497497558594 4523353 0 -1
-4.170886993408203 3.582568407058716 -0.1685999035835266 4523353 0 -1
-3.5067598819732666 4.169715881347656 0.7586995959281921 4523353 0 -1
-3.635803699493408 4.065342426300049 0.7165495753288269 4590430 0 -1
-4.1717448234558105 3.5833051204681396 -0.12644992768764496 4657508 0 -1
-3.546473741531372 4.048072338104248 1.1380493640899658 4657508 0 -1
-3.349651336669922 4.317362308502197 0.632249653339386 4657508 0 -1
-4.614880084991455 3.038663387298584 -0.29679569602012634 4456788 0 -1
-3.5933520793914795 4.186493873596191 0.423993855714798 4456788 0 -1
4.397100448608398 3.1581101417541504 -1.1447833776474 4456788 0 -1
-3.5548505783081055 4.226897716522217 0.3391950726509094 4456788 0 -1
-3.4926016330718994 4.237947940826416 0.6783901453018188 4456788 0 -1
-4.362555027008057 3.3072381019592285 -0.8055883049964905 4456788 0 -1
-3.6035244464874268 4.198345184326172 -0.08479876816272736 4456788 0 -1
-3.53794527053833 4.206796646118164 0.6359907388687134 4523353 0 -1
-3.6675121784210205 4.01653528213501 1.017585277557373 4590430 0 -1
-3.508802652359009 4.257606506347656 0.423993855714798 4590430 0 -1
-4.833387851715088 2.693556308746338 -0.04239938408136368 4657508 0 -1
-4.6572184562683105 2.9733667373657227 -0.29679569602012634 4657508 0 -1
-3.5523719787597656 4.138749122619629 0.9327864646911621 4657508 0 -1
-3.6234443187713623 4.221552848815918 -0.1705951690673828 4456788 0 -1
-3.6234443187713623 4.221552848815918 -0.1705951690673828 4456788 0 -1
-4.787375450134277 2.7661783695220947 -0.6397318840026855 4456788 0 -1
-3.4990744590759277 4.160577297210693 1.1941661834716797 4456788 0 -1
-3.2940828800201416 4.245739936828613 1.450058937072754 4456788 0 -1
-3.752652883529663 4.109778881072998 -0.0852975845336914 4456788 0 -1
-3.5264251232147217 4.193099021911621 0.9809222221374512 4523353 0 -1
-3.683589220046997 4.03414249420166 1.0662198066711426 4590430 0 -1
-3.7282214164733887 4.083022117614746 -0.6397318840026855 4657508 0 -1
-4.527172565460205 3.341712236404419 -0.21573804318904877 4456788 0 -1
-3.434771776199341 4.427073955535889 0.824543297290802 4456788 0 -1
-3.7184641361236572 4.5120110511779785 -0.9532378911972046 4456788 0 -1
-3.4461655616760254 4.810784816741943 0.2723536789417267 4523353 0 -1
-3.4915099143981934 4.777976989746094 0.2723536789417267 4590430 0 -1
-3.7792415618896484 4.585759162902832 -0.41077521443367004 4456788 0 -1
-3.78648042678833 4.594542980194092 -0.18256676197052002 4456788 0 -1
-3.733708620071411 4.622907638549805 -0.41077521443367004 4523353 0 -1
-3.6412813663482666 4.418356895446777 1.6431008577346802 4590430 0 -1
-3.769418954849243 4.573840141296387 -0.5933419466018677 4657508 0 -1
-3.672616481781006 4.456379413604736 1.4605340957641602 4724328 0 -1
-3.7630701065063477 4.659261703491211 0 4456788 0 -1
-3.5160398483276367 4.811544895172119 -0.5965842604637146 4456788 0 -1
-3.7626280784606934 4.658714294433594 -0.09178219735622406 4456788 0 -1
-3.7626280784606934 4.658714294433594 -0.09178219735622406 4456788 0 -1
-3.7132484912872314 4.690989971160889 -0.275346577167511 4456788 0 -1
-3.5298781394958496 4.830482482910156 -0.275346577167511 4456788 0 -1
-3.7161967754364014 4.694714546203613 -0.1376732885837555 4523353 0 -1
-3.7626280784606934 4.658714294433594 -0.09178219735622406 4590430 0 -1
-3.715432643890381 4.693748950958252 -0.18356439471244812 4657508 0 -1
-3.7613019943237305 4.6570725440979 -0.18356439471244812 4724328 0 -1
-3.715432643890381 4.693748950958252 -0.18356439471244812 4725613 0 -1
-3.7132484912872314 4.690989971160889 -0.275346577167511 4726897 0 -1
-3.736393451690674 4.720229148864746 -0.13842152059078217 4456788 0 -1
-3.726393222808838 4.7075958251953125 -0.46140506863594055 4456788 0 -1
-3.721548318862915 4.701475143432617 -0.5536860823631287 4456788 0 -1
-3.5401763916015625 4.844574928283691 -0.5075455904006958 4456788 0 -1
-3.7356250286102295 4.7192583084106445 -0.18456202745437622 4456788 0 -1
-3.721548318862915 4.701475143432617 -0.5536860823631287 4456788 0 -1
-3.721548318862915 4.701475143432617 -0.5536860823631287 4456788 0 -1
-3.4892375469207764 4.870912551879883 -0.5998265743255615 4456788 0 -1
-3.7346370220184326 4.718010425567627 -0.23070253431797028 4523353 0 -1
-3.7373809814453125 4.7214765548706055 0 4590430 0 -1
-3.733429193496704 4.716484069824219 -0.27684304118156433 4657508 0 -1
-3.736393451690674 4.720229148864746 -0.13842152059078217 4724328 0 -1
-3.7320010662078857 4.714680194854736 -0.3229835331439972 4725613 0 -1
-3.7303526401519775 4.712597846984863 -0.36912405490875244 4726897 0 -1
-3.679572582244873 4.742597579956055 -0.7886285185813904 4456788 0 -1
-3.686598539352417 4.75165319442749 -0.6958487033843994 4456788 0 -1
-3.510697841644287 4.900870323181152 -0.5566789507865906 4456788 0 -1
-3.692735195159912 4.759562969207764 -0.6030688881874084 4523353 0 -1
-3.692735195159912 4.759562969207764 -0.6030688881874084 4657508 0 -1
-3.848741292953491 5.26683235168457 0.5013103485107422 4456788 0 -1
-3.6526834964752197 5.413012981414795 -0.40104830265045166 4456788 0 -1
-3.924017906188965 5.263869762420654 0.3526630997657776 4456788 0 -1
-3.9203193187713623 5.258908271789551 0.45342400670051575 4456788 0 -1
-3.9267895221710205 5.267587661743164 0.2519022226333618 4523353 0 -1
-3.9267895221710205 5.267587661743164 0.2519022226333618 4590430 0 -1
-3.9222846031188965 5.261544704437256 0.40304356813430786 4657508 0 -1
-3.9222846031188965 5.261544704437256 0.40304356813430786 4724328 0 -1
-3.941701889038086 5.287591934204102 0.40503883361816406 4456788 0 -1
-3.9375181198120117 5.281979560852051 0.5062985420227051 4456788 0 -1
-3.943443775177002 5.289928436279297 0.35440897941589355 4523353 0 -1
-3.943443775177002 5.289928436279297 0.35440897941589355 4590430 0 -1
-3.941701889038086 5.287591934204102 0.40503883361816406 4657508 0 -1
-3.941701889038086 5.287591934204102 0.40503883361816406 4724328 0 -1
-3.959134340286255 5.310976505279541 0.457913339138031 4456788 0 -1
-3.9569149017333984 5.307999134063721 0.5087926387786865 4456788 0 -1
-3.959134340286255 5.310976505279541 0.457913339138031 4523353 0 -1
-3.7579848766326904 5.459191799163818 0.40703409910202026 4523353 0 -1
-3.9611191749572754 5.313639163970947 0.40703409910202026 4590430 0 -1
-3.959134340286255 5.310976505279541 0.457913339138031 4657508 0 -1
-3.7579848766326904 5.459191799163818 0.40703409910202026 4657508 0 -1
-3.962869644165039 5.3159871101379395 0.35615482926368713 4724328 0 -1
-3.7830772399902344 5.495643138885498 0.10225734114646912 4456788 0 -1
-3.7817440032958984 5.493706703186035 -0.20451468229293823 4456788 0 -1
-4.54189395904541 4.871151447296143 0.40902936458587646 4456788 0 -1
-3.772397994995117 5.480129718780518 -0.5112866759300232 4456788 0 -1
-3.7817440032958984 5.493706703186035 -0.20451468229293823 4523353 0 -1
-3.7830772399902344 5.495643138885498 -0.10225734114646912 4590430 0 -1
-3.7825217247009277 5.494836330413818 -0.15338601171970367 4657508 0 -1
-3.7825217247009277 5.494836330413818 -0.15338601171970367 4724328 0 -1
-3.7965047359466553 5.5151495933532715 -0.3596465289592743 4456788 0 -1
-3.79292631149292 5.509951114654541 -0.46240270137786865 4456788 0 -1
-3.746633768081665 5.552240371704102 -0.3082684576511383 4456788 0 -1
-4.569291591644287 4.900535583496094 0.2568903863430023 4456788 0 -1
-3.7452006340026855 5.550116539001465 -0.3596465289592743 4523353 0 -1
-3.7965047359466553 5.5151495933532715 -0.3596465289592743 4590430 0 -1
-3.7965047359466553 5.5151495933532715 -0.3596465289592743 4657508 0 -1
-3.7965047359466553 5.5151495933532715 -0.3596465289592743 4724328 0 -1
-3.7660393714904785 5.580997943878174 -0.25813743472099304 4456788 0 -1
-4.594306468963623 4.927363872528076 0.10325497388839722 4456788 0 -1
-3.761718988418579 5.5745954513549805 -0.41301989555358887 4456788 0 -1
-3.763381242752075 5.577058792114258 -0.36139240860939026 4523353 0 -1
-3.761718988418579 5.5745954513549805 -0.41301989555358887 4590430 0 -1
-3.763381242752075 5.577058792114258 -0.36139240860939026 4657508 0 -1
-4.147271633148193 5.239295959472656 -1.0894147157669067 4456788 0 -1
-3.9887707233428955 5.458456516265869 -0.36313825845718384 4456788 0 -1
-3.786012649536133 5.610596656799316 -0.1556306779384613 4456788 0 -1
-4.14189338684082 5.232501983642578 -1.141291618347168 4523353 0 -1
-3.994051694869995 5.465683460235596 -0.10375379025936127 4523353 0 -1
-3.7842328548431396 5.607959270477295 -0.2593844532966614 4523353 0 -1
-5.351981163024902 4.271770000457764 0.5262511968612671 4456788 0 -1
-5.345022678375244 4.266216278076172 0.6315014362335205 4456788 0 -1
-5.360034942626953 4.278198719024658 0.36837583780288696 4590430 0 -1
-5.37401008605957 4.289353370666504 0.5816197991371155 4456788 0 -1
-5.37401008605957 4.289353370666504 0.5816197991371155 4456788 0 -1
-5.370354652404785 4.286435127258301 0.6344943046569824 4456788 0 -1
-5.389242172241211 4.301510810852051 0.2643726170063019 4590430 0 -1
-5.377346038818359 4.292015552520752 0.5287452340126038 4657508 0 -1
-5.402710914611816 4.31226110458374 0.5312393307685852 4456788 0 -1
-5.402710914611816 4.31226110458374 0.5312393307685852 4456788 0 -1
-5.402710914611816 4.31226110458374 0.5312393307685852 4456788 0 -1
-5.36207914352417 4.172220706939697 -1.3812222480773926 4590430 0 -1
-5.408451080322266 4.316842555999756 0.4249914586544037 4657508 0 -1
-5.481291770935059 4.264979839324951 0.5337334275245667 4456788 0 -1
-5.481291770935059 4.264979839324951 0.5337334275245667 4456788 0 -1
-4.4726362228393555 5.881237506866455 0 4456788 0 -1
-4.547067165374756 5.860710620880127 0.22746022045612335 4456788 0 -1
-4.511512756347656 5.9323577880859375 -0.11422892659902573 4456788 0 -1
-4.531612873077393 5.95878791809082 -0.05736387148499489 4456788 0 -1
-4.623802661895752 6.454744338989258 -0.18256676197052002 4456788 0 -1
-4.622851848602295 6.45341682434082 -0.24342234432697296 4523353 0 -1
-4.704946517944336 6.438511371612549 -0.061104994267225266 4456788 0 -1
-4.643434047698975 6.482150077819824 -0.12220998853445053 4523353 0 -1
-4.601445198059082 6.5526957511901855 0.06135440245270729 4456788 0 -1
-4.601445198059082 6.5526957511901855 0.06135440245270729 4523353 0 -1
-4.453300952911377 6.732452869415283 -0.06185321882367134 4456788 0 -1
-4.523135185241699 6.8380279541015625 -0.25140342116355896 4456788 0 -1
-4.478240966796875 7.485736846923828 -0.06684137880802155 4456788 0 -1
-4.4398722648620605 7.730043888092041 -0.2733513116836548 4456788 0 -1
-4.484829425811768 7.970160961151123 -0.14016737043857574 4456788 0 -1
-4.498013496398926 7.993590831756592 -0.3516654670238495 4456788 0 -1
7.8954548835754395 5.8279948234558105 0.9824186563491821 4456788 0 -1
-7.231387138366699 6.359653949737549 2.274602174758911 4456788 0 -1
-6.643901348114014 7.2761759757995605 0.9098408818244934 2070922 0 -1
0.3682501018047333 9.60478401184082 2.3504223823547363 2070922 0 -1
-2.653702735900879 9.532567024230957 0 2006409 0 -1
-2.0353291034698486 9.625105857849121 1.06148099899292 2006409 0 -1
-2.7292022705078125 9.510017395019531 0.1516401469707489 2139270 0 -1
-2.1821951866149902 9.574880599975586 1.2131211757659912 2139270 0 -1
-1.0638467073440552 9.85987377166748 -0.45641690492630005 4456788 6 -1
-0.3762950301170349 9.814613342285156 -1.4453201293945312 4456788 0 -1
-0.5922591686248779 9.643573760986328 -2.2820844650268555 4456788 0 -1
0.8186610341072083 9.678253173828125 -2.0538761615753174 4456788 0 -1
-2.120922565460205 9.655341148376465 0.9128338098526001 2523534 0 -1
0.29612958431243896 9.657203674316406 2.2820844650268555 2070922 0 -1
-2.0383822917938232 9.639545440673828 1.2171117067337036 2006409 0 -1
-1.7245597839355469 9.63236141204834 1.6735286712646484 2072968 0 -1
0 9.743745803833008 1.901737093925476 2072968 0 -1
-2.196669578552246 9.63839054107666 0.9128338098526001 3651704 0 -1
-0.15034185349941254 9.80917739868164 1.5213897228240967 3651704 0 -1
-2.1950430870056152 9.631253242492676 0.988903284072876 4045940 0 -1
-2.036376476287842 9.630059242248535 1.2931811809539795 4505456 0 -1
0 9.772210121154785 1.7495981454849243 4505456 0 -1
-2.2753753662109375 9.63333797454834 0.7606948614120483 4899181 0 -1
-1.0622988939285278 9.845528602600098 -1.0684645175933838 4456788 6 -1
-1.0653232336044312 9.873558044433594 -0.763188898563385 4456788 6 -1
-1.0517408847808838 9.747674942016602 -1.755334496498108 4456788 6 -1
-0.7413456439971924 9.646632194519043 -2.3658857345581055 4456788 0 -1
-1.0531737804412842 9.760955810546875 -1.6790156364440918 4456788 6 -1
-0.9690419435501099 9.679825782775879 -2.1369290351867676 4456788 0 -1
-0.3775287866592407 9.846793174743652 -1.450058937072754 4456788 0 -1
-1.0593608617782593 9.81829833984375 -1.2974210977554321 4456788 6 -1
-0.15083476901054382 9.841339111328125 1.52637779712677 2070922 0 -1
-0.07522670179605484 9.817319869995117 1.6790156364440918 2072968 0 -1
-2.28411602973938 9.670344352722168 0.6868700385093689 4899181 0 -1
-1.5045340061187744 9.701640129089355 1.6790156364440918 5424489 0 -1
-1.0657705068588257 9.877703666687012 -1.0719561576843262 4456788 6 -1
-1.0674151182174683 9.892946243286133 -0.9188196063041687 4456788 6 -1
-1.0674151182174683 9.892946243286133 -0.9188196063041687 4456788 6 -1
-1.0674151182174683 9.892946243286133 -0.9188196063041687 4456788 6 -1
-1.0566155910491943 9.792854309082031 -1.6845026016235352 4456788 6 -1
-1.0605350732803345 9.829181671142578 -1.4547977447509766 4456788 6 -1
-1.061711311340332 9.840083122253418 -1.3782293796539307 4456788 6 -1
-1.064852237701416 9.869193077087402 -1.148524522781372 4456788 6 -1
-1.4320272207260132 9.731491088867188 1.7610708475112915 3107982 0 -1
-1.0708919763565063 9.9251708984375 -0.9218124747276306 4456788 6 -1
-1.0708919763565063 9.9251708984375 -0.9218124747276306 4456788 6 -1
-1.0722861289978027 9.938091278076172 -0.7681770920753479 4456788 6 -1
-1.0708919763565063 9.9251708984375 -0.9218124747276306 4456788 6 -1
-1.0716209411621094 9.931926727294922 -0.8449947834014893 4456788 6 -1
-1.069242000579834 9.909878730773926 -1.075447916984558 4456788 6 -1
-1.4302787780761719 9.719609260559082 -1.9972604513168335 2006409 0 -1
-1.536173701286316 9.905661582946777 -0.1536354124546051 4899181 6 -1
-1.1495224237442017 9.935098648071289 -0.6913593411445618 4899181 6 -1
-1.445194125175476 9.820967674255371 -1.6184093952178955 3692940 0 -1
-1.1547844409942627 9.980576515197754 -0.46240270137786865 4899181 6 -1
-1.3938020467758179 9.47172737121582 3.0826845169067383 5424489 0 -1
-1.3679624795913696 9.823467254638672 -1.8555965423583984 3692940 6 -1
-1.3212361335754395 9.487920761108398 3.1699774265289307 5424489 0 -1
-1.4690139293670654 9.98283863067627 0 6343264 6 -1
-1.9840341806411743 9.759222984313965 -1.6236469745635986 13164576 0 -1
-0.30915966629981995 10.082133293151855 0.8532252311706543 4456788 0 -1
-4.420738697052002 9.105273246765137 -0.15513186156749725 4456788 0 -1
-4.420738697052002 9.105273246765137 -0.15513186156749725 4456788 0 -1
-3.0236501693725586 9.655789375305176 -0.3102637231349945 6933851 0 -1
-1.1629424095153809 10.051084518432617 -0.3102637231349945 6933851 6 -1
-2.7215373516082764 9.776241302490234 0.38907670974731445 4456788 0 -1
-0.3097132742404938 10.100187301635742 1.0115994215011597 4456788 0 -1
-2.722257375717163 9.778827667236328 0.3112613558769226 4456788 0 -1
-1.4000180959701538 10.053661346435547 -0.3112613558769226 4456788 6 -1
-0.4641978442668915 10.086165428161621 1.0894147157669067 4456788 0 -1
-3.1125221252441406 9.66639518737793 0.07781533896923065 4456788 0 -1
-0.7781534194946289 10.125587463378906 0 4456788 0 -1
-4.435474395751953 9.13562297821045 0 4456788 0 -1
-2.088890314102173 9.878398895263672 1.0894147157669067 11918891 0 -1
-2.486506462097168 9.831257820129395 0.5447073578834534 13164576 0 -1
-2.007936477661133 9.876795768737793 1.2450454235076904 13164576 0 -1
-0.9305688142776489 10.077603340148926 1.1709712743759155 4456788 0 -1
-2.8883957862854004 9.769973754882812 0 13164576 0 -1
-2.4128925800323486 9.867307662963867 0.7806474566459656 13164576 0 -1
-1.3313015699386597 10.133163452148438 -0.0783141553401947 4456788 6 -1
-0.9390799403190613 10.169774055480957 -0.3915707767009735 4456788 6 -1
-1.7820346355438232 9.953381538391113 1.487968921661377 10016830 0 -1
-2.3438313007354736 9.923163414001465 0.7048274278640747 11918891 0 -1
-2.6240758895874023 9.426142692565918 -3.063978910446167 4456788 0 -1
-2.2252886295318604 9.763962745666504 -2.199779748916626 4456788 0 -1
-1.2569801807403564 10.175447463989258 0.07856356352567673 4456788 6 -1
-1.6136935949325562 9.897806167602539 2.285576105117798 12640037 0 -1
-0.6286501288414001 10.236116409301758 0.7881297469139099 13164576 0 -1
-4.422811985015869 9.310144424438477 -0.47437429428100586 4456788 0 -1
-1.417094111442566 10.176285743713379 0.9487485885620117 8705099 0 -1
-4.436763763427734 9.339513778686523 -0.4758707284927368 4456788 0 -1
-0.8844696283340454 10.456245422363281 -1.0505070686340332 4456788 0 -1
-0.8044617176055908 10.467920303344727 -1.2969223260879517 4456788 0 -1
-0.8871994614601135 10.488517761230469 -1.053749442100525 4456788 0 -1
-0.8090266585350037 10.52731990814209 -1.056991696357727 4456788 0 -1
-0.8096261620521545 10.535120964050293 -0.975684642791748 4456788 0 -1
-4.3859381675720215 9.649962425231934 -0.487842321395874 4456788 0 -1
-2.8661141395568848 10.621504783630371 0.0842999517917633 2328718 4 -1
-2.8661983013153076 10.621816635131836 0 2264205 4 -1
-3.11873197555542 10.549083709716797 -0.1685999035835266 2072968 4 -1
-2.7818167209625244 10.64389419555664 -0.0842999517917633 2072968 4 -1
-3.11873197555542 10.549083709716797 -0.1685999035835266 2139270 4 -1
-2.779855966567993 10.636391639709473 -0.42149975895881653 2139270 4 -1
-2.874593734741211 10.652929306030273 -0.08454935997724533 2912910 4 -1
-2.9591407775878906 10.629755020141602 0.08454935997724533 2588302 4 -1
-2.874678134918213 10.653242111206055 0 2199437 4 -1
-3.043687582015991 10.605854988098145 -0.08454935997724533 2070155 4 -1
-3.0437769889831543 10.60616683959961 0 2006409 4 -1
-3.043687582015991 10.605854988098145 -0.08454935997724533 2072968 4 -1
-3.128234386444092 10.581226348876953 -0.08454935997724533 2139270 4 -1
-3.1279590129852295 10.580294609069824 -0.16909871995449066 2271109 4 -1
-2.7871785163879395 10.664409637451172 -0.5072961449623108 3651704 4 -1
-2.784881830215454 10.655621528625488 -0.6763948798179626 4045940 4 -1
-2.784881830215454 10.655621528625488 -0.6763948798179626 5949540 4 -1
-2.784881830215454 10.655621528625488 -0.6763948798179626 6343264 4 -1
-2.967956781387329 10.661423683166504 0 4017546 4 -1
-2.9676084518432617 10.660171508789062 -0.1695975363254547 3887499 4 -1
-2.8831582069396973 10.684667587280273 0 3757452 4 -1
-2.966562509536743 10.656414985656738 -0.3391950726509094 3562893 4 -1
-2.967956781387329 10.661423683166504 0 2782862 4 -1
-2.967869758605957 10.661110877990723 0.08479876816272736 2588302 4 -1
-3.052665948867798 10.637141227722168 0.08479876816272736 2328718 4 -1
-3.052665948867798 10.637141227722168 0.08479876816272736 2199437 4 -1
-3.052665948867798 10.637141227722168 0.08479876816272736 2006409 4 -1
-3.0523972511291504 10.63620376586914 0.1695975363254547 2072968 4 -1
-3.052665948867798 10.637141227722168 0.08479876816272736 2139270 4 -1
-3.05275559425354 10.637453079223633 0 2271109 4 -1
-3.05275559425354 10.637453079223633 0 2468738 4 -1
-3.1374623775482178 10.612439155578613 0.08479876816272736 2666112 4 -1
-2.8823962211608887 10.681844711303711 -0.25439631938934326 3651704 4 -1
-2.796304941177368 10.699328422546387 -0.423993855714798 4045940 4 -1
-2.7930967807769775 10.687053680419922 -0.6783901453018188 5949540 4 -1
-2.7943310737609863 10.691776275634766 -0.5935913920402527 6343264 4 -1
-2.976336717605591 10.69152545928955 -0.17009635269641876 4017546 4 -1
-2.9765987396240234 10.692466735839844 0.08504817634820938 2782862 4 -1
-2.976336717605591 10.69152545928955 0.17009635269641876 2264205 4 -1
-3.0613749027252197 10.667487144470215 0.17009635269641876 2199437 4 -1
-3.0613749027252197 10.667487144470215 0.17009635269641876 2139270 4 -1
-3.061734437942505 10.668739318847656 0 2271109 4 -1
-3.0616445541381836 10.668426513671875 0.08504817634820938 2468738 4 -1
-3.0613749027252197 10.667487144470215 0.17009635269641876 2666112 4 -1
-3.144472122192383 10.636150360107422 -0.4252408742904663 4045940 4 -1
-2.8045291900634766 10.73079776763916 -0.4252408742904663 6343264 4 -1
-2.3872103691101074 10.867596626281738 0.3411903381347656 4729209 0 -1
-2.1248514652252197 10.886895179748535 0.9382734298706055 4664956 0 -1
-2.98532772064209 10.723823547363281 0.0852975845336914 2782862 4 -1
-3.070352554321289 10.698769569396973 0.1705951690673828 2199437 4 -1
-2.98532772064209 10.723823547363281 -0.0852975845336914 2134668 4 -1
-2.9000327587127686 10.74720287322998 0.0852975845336914 2070155 4 -1
-3.0706229209899902 10.699712753295898 -0.0852975845336914 2271109 4 -1
-3.070352554321289 10.698769569396973 0.1705951690673828 2468738 4 -1
-2.8140764236450195 10.767327308654785 -0.2558927536010742 6343264 4 -1
-2.989834785461426 10.740013122558594 -0.5988289713859558 4456788 4 -1
-2.989834785461426 10.740013122558594 -0.5988289713859558 4456788 4 -1
-2.989834785461426 10.740013122558594 -0.5988289713859558 4456788 4 -1
-4.435365200042725 10.209861755371094 -0.8554699420928955 4456788 0 -1
-2.9940569400787354 10.755179405212402 -0.08554699271917343 4523353 4 -1
-4.533458232879639 10.201179504394531 0.17109398543834686 4664956 0 -1
-3.9124538898468018 10.387680053710938 1.1976579427719116 4664956 0 -1
-2.566108465194702 10.864225387573242 0.17109398543834686 4664956 0 -1
-2.0429162979125977 10.919490814208984 1.1121108531951904 4664956 0 -1
-1.429496169090271 10.880569458007812 2.0531277656555176 4664956 0 -1
-4.094183444976807 10.351396560668945 0.8554699420928955 4600703 0 -1
-2.0444302558898926 10.927581787109375 1.0265638828277588 4600703 0 -1
-2.907231330871582 10.773880004882812 0.3421879708766937 2782862 4 -1
-2.9085123538970947 10.778627395629883 -0.08554699271917343 2718350 4 -1
-3.0796916484832764 10.73131275177002 0 2134668 4 -1
-2.9085123538970947 10.778627395629883 0.08554699271917343 2070155 4 -1
-3.1644022464752197 10.703563690185547 -0.2566409707069397 2271109 4 -1
-3.1648669242858887 10.705135345458984 -0.17109398543834686 2666112 4 -1
-3.1592862606048584 10.686258316040039 -0.6843759417533875 2994813 4 -1
-2.9078292846679688 10.77609634399414 -0.2566409707069397 3651704 4 -1
-2.8217244148254395 10.796589851379395 -0.3421879708766937 5949540 4 -1
-2.9996988773345947 10.775446891784668 -0.5147783756256104 4456788 4 -1
-2.998551368713379 10.77132511138916 -0.600574791431427 4456788 4 -1
-2.998551368713379 10.77132511138916 -0.600574791431427 4456788 4 -1
-2.998551368713379 10.77132511138916 -0.600574791431427 4456788 4 -1
-2.998551368713379 10.77132511138916 -0.600574791431427 4456788 4 -1
-2.998551368713379 10.77132511138916 -0.600574791431427 4456788 4 -1
-4.439223766326904 10.218743324279785 -1.1153532266616821 4456788 0 -1
-2.9972269535064697 10.76656723022461 -0.6863712072372437 4523353 4 -1
-2.998551368713379 10.77132511138916 -0.600574791431427 4590430 4 -1
-3.0020804405212402 10.784002304077148 -0.2573891878128052 4729209 4 -1
-2.98793888092041 10.733202934265137 1.1153532266616821 4600703 0 -1
-2.911205530166626 10.457563400268555 -2.7454848289489746 3562893 0 -1
-2.831198215484619 10.832839012145996 -0.08579640090465546 2718350 4 -1
-3.08721923828125 10.757543563842773 -0.3431856036186218 2134668 4 -1
-3.172975540161133 10.732562065124512 -0.3431856036186218 2271109 4 -1
-3.1743736267089844 10.73729133605957 -0.08579640090465546 2666112 4 -1
-3.1651339530944824 10.706038475036621 -0.8579639792442322 2994813 4 -1
-3.0885796546936035 10.762283325195312 0.08579640090465546 3651704 4 -1
-3.010807514190674 10.815350532531738 -0.25813743472099304 4456788 4 -1
-3.011249542236328 10.816939353942871 -0.17209161818027496 4456788 4 -1
-3.010807514190674 10.815350532531738 -0.25813743472099304 4456788 4 -1
-3.010188341140747 10.813126564025879 -0.3441832363605499 4456788 4 -1
-3.009392261505127 10.810267448425293 -0.4302290380001068 4456788 4 -1
-3.009392261505127 10.810267448425293 -0.4302290380001068 4456788 4 -1
-3.010188341140747 10.813126564025879 -0.3441832363605499 4456788 4 -1
-3.007268190383911 10.802637100219727 -0.602320671081543 4590430 4 -1
-3.011514902114868 10.817892074584961 0.08604580909013748 4341894 4 -1
-3.0008866786956787 10.77971363067627 0.9465038776397705 3562893 0 -1
-2.8391783237457275 10.863372802734375 -0.17209161818027496 2458766 4 -1
-3.1813576221466064 10.76091480255127 -0.4302290380001068 2271109 4 -1
-3.0918238162994385 10.773587226867676 -0.6883664727210999 2468738 4 -1
-3.097285270690918 10.792618751525879 0.17209161818027496 3651704 4 -1
-3.0053107738494873 10.795605659484863 -1.121837854385376 4456788 4 -1
-2.9730582237243652 10.67974853515625 -1.9847899675369263 4456788 0 -1
-2.959787607192993 10.632078170776367 -2.243675708770752 4456788 0 -1
-3.018913507461548 10.84446907043457 -0.345180869102478 4456788 4 -1
-3.018913507461548 10.84446907043457 0.345180869102478 4456788 4 -1
-3.088701009750366 10.76270580291748 1.2081329822540283 4456788 0 -1
-4.392779350280762 10.347095489501953 -0.690361738204956 4456788 0 -1
-2.9881527423858643 10.733970642089844 -1.6396090984344482 4523353 4 -1
-2.9730582237243652 10.67974853515625 -1.9847899675369263 4726897 0 -1
-3.018913507461548 10.84446907043457 -0.345180869102478 4728182 4 -1
-2.9339511394500732 10.872901916503906 -0.0862952172756195 4147337 4 -1
-2.9336929321289062 10.871943473815918 -0.172590434551239 4017546 4 -1
-2.6750731468200684 10.939471244812012 0.0862952172756195 3432845 0 -1
-2.7585270404815674 10.906784057617188 0.517771303653717 2523534 0 -1
3.969463348388672 10.539042472839355 0.0862952172756195 2199437 5 -1
4.055756092071533 10.506135940551758 -0.0862952172756195 2134668 5 -1
-3.006211519241333 10.79884147644043 -1.3847140073776245 4456788 4 -1
-3.011582612991333 10.818135261535645 -1.2116247415542603 4456788 4 -1
-3.0162298679351807 10.834829330444336 -1.038535475730896 4456788 4 -1
-3.0139966011047363 10.82680606842041 -1.1250801086425781 4456788 4 -1
-2.9230167865753174 10.832379341125488 -1.2981693744659424 4456788 4 -1
-4.400799751281738 10.365986824035645 -0.8654462695121765 4456788 0 -1
-3.0139966011047363 10.82680606842041 -1.1250801086425781 4456788 4 -1
-3.082411527633667 10.740790367126465 -1.644347906112671 4523353 4 -1
-3.0201566219329834 10.848934173583984 -0.8654462695121765 4726897 4 -1
-2.855637311935425 10.926348686218262 -0.17308925092220306 4147337 4 -1
-2.682804584503174 10.971088409423828 0.08654462546110153 3432845 0 -1
-2.7628347873687744 10.923816680908203 0.7789016366004944 2523534 0 -1
4.067478179931641 10.536500930786133 -0.08654462546110153 2199437 5 -1
