VERSION .7
FIELDS x y z rgb label object
SIZE 4 4 4 4 4 4
TYPE F F F I I I
COUNT 1 1 1 1 1 1
WIDTH 685
HEIGHT 1
POINTS 685
VIEWPOINT 0 0 0 1 0 0 0
DATA ascii
-1.7868849039077759 2.595792055130005 0.19354072213172913 4456788 0 -1
-1.7868849039077759 2.595792055130005 0.19354072213172913 4456788 0 -1
-1.8101246356964111 2.5777111053466797 0.21773330867290497 4590430 0 -1
-1.7799209356307983 2.5856757164001465 0.33869627118110657 4657508 0 -1
-1.7472426891326904 2.589287281036377 0.459659218788147 4726897 0 -1
-1.706949234008789 2.58054780960083 0.6290073394775391 4664956 0 -1
-1.743045449256897 2.5830671787261963 0.5080443620681763 4471684 0 -1
-1.782667636871338 2.589665651321411 0.2903110682964325 3887499 0 -1
-1.757097601890564 2.552520275115967 0.6048147678375244 3757452 0 -1
-1.8727868795394897 2.5122480392456055 -0.38708144426345825 3692940 0 -1
-1.751519799232483 2.5444176197052 0.6531999111175537 3692940 0 -1
-1.7558679580688477 2.60206937789917 -0.33869627118110657 2718350 0 -1
-1.8784945011138916 2.570636749267578 0.19553598761558533 4456788 0 -1
-1.7724412679672241 2.6266298294067383 0.366629958152771 4456788 0 -1
-1.9525450468063354 2.5166335105895996 0.17109398543834686 4456788 0 -1
-2.052886724472046 2.4409866333007812 -0.04888399690389633 4456788 0 -1
-1.9553598165512085 2.520261287689209 0 4456788 0 -1
-1.9300106763839722 2.5378434658050537 0.09776799380779266 4456788 0 -1
-1.8010456562042236 2.616363286972046 0.2933039665222168 4456788 0 -1
-1.831634283065796 2.5065104961395264 0.733259916305542 4590430 0 -1
-1.7187966108322144 2.6509106159210205 0.4399559497833252 4590430 0 -1
-1.8969937562942505 2.544720411300659 0.31774598360061646 4657508 0 -1
-1.7652555704116821 2.615981101989746 0.46439796686172485 4657508 0 -1
-1.7217503786087036 2.60292387008667 0.6599339246749878 4729209 0 -1
-1.7245466709136963 2.6071512699127197 0.6354919672012329 4664956 0 -1
-1.7245466709136963 2.6071512699127197 0.6354919672012329 4600703 0 -1
-1.8203548192977905 2.541182279586792 0.6354919672012329 4471684 0 -1
-1.7245466709136963 2.6071512699127197 0.6354919672012329 4471684 0 -1
-1.7967212200164795 2.610081434249878 0.366629958152771 3692940 0 -1
-1.8287856578826904 2.60428524017334 -0.2199779748916626 3302798 0 -1
-1.7778608798980713 2.5826830863952637 0.5866079330444336 2588302 0 -1
-1.8967119455337524 2.595566511154175 0.22222265601158142 4456788 0 -1
-1.9738622903823853 2.5441091060638428 0.12345702946186066 4456788 0 -1
-1.944886326789856 2.557404041290283 -0.2469140589237213 4456788 0 -1
2.7925944328308105 1.43963623046875 -0.7160508036613464 4456788 0 -1
2.701040029525757 1.6156330108642578 -0.6913593411445618 4456788 0 -1
2.7925944328308105 1.43963623046875 -0.7160508036613464 4456788 0 -1
2.8475518226623535 1.4072083234786987 -0.5432109236717224 4657508 0 -1
-1.7663406133651733 2.617588996887207 0.641976535320282 4729209 0 -1
-1.7474616765975952 2.641793966293335 0.5925937294960022 4600703 0 -1
-1.8412829637527466 2.622082233428955 0.5736387372016907 4456788 0 -1
-1.819207787513733 2.642747163772583 0.5486978888511658 4456788 0 -1
-1.7676316499710083 2.6722867488861084 0.5736387372016907 4664956 0 -1
2.938779592514038 1.3884501457214355 -0.17458570003509521 4664956 0 -1
-1.8712106943130493 2.664700746536255 0.45342400670051575 4456788 0 -1
-1.8731695413589478 2.667490243911743 0.4282337725162506 4456788 0 -1
-1.8596957921981812 2.6483030319213867 0.5793750882148743 4456788 0 -1
-1.950553297996521 2.669245958328247 -0.305275559425354 4456788 0 -1
-1.9059548377990723 2.7141783237457275 -0.152637779712677 4456788 0 -1
-1.8447858095169067 2.7338390350341797 -0.3815944492816925 4456788 0 -1
2.934901475906372 1.3215035200119019 -0.8140681982040405 4456788 0 -1
-1.8743908405303955 2.6166155338287354 0.8140681982040405 4456788 0 -1
-1.8693416118621826 2.5581114292144775 0.9921455979347229 4456788 0 -1
-1.7858597040176392 2.699843645095825 0.7377492785453796 4456788 0 -1
-2.8230528831481934 1.745644211769104 0.0763188898563385 4523353 0 -1
-1.740047574043274 2.6836860179901123 0.8903870582580566 4726897 0 -1
-1.8417752981185913 2.7843761444091797 -0.3082684576511383 4456788 0 -1
-1.8628718852996826 2.760641574859619 -0.3853355646133423 4456788 0 -1
-1.8593217134475708 2.755380392074585 -0.43671366572380066 4456788 0 -1
-1.868626594543457 2.769169569015503 -0.2825794219970703 4456788 0 -1
-1.8417752981185913 2.7843761444091797 -0.3082684576511383 4456788 0 -1
-1.8733168840408325 2.776120185852051 -0.15413422882556915 4456788 0 -1
-2.8228063583374023 1.8021998405456543 0.15413422882556915 4456788 0 -1
-1.8495564460754395 2.796139717102051 -0.02568903937935829 4456788 0 -1
-1.8389376401901245 2.7800862789154053 -0.3596465289592743 4456788 0 -1
-1.8482528924942017 2.7941689491271973 -0.12844519317150116 4523353 0 -1
-1.87177312374115 2.7738325595855713 -0.20551231503486633 4590430 0 -1
-1.868626594543457 2.769169569015503 -0.2825794219970703 4657508 0 -1
-1.8066028356552124 2.6772546768188477 0.8991163372993469 4726897 0 -1
-1.7655049562454224 2.6163506507873535 1.1303176879882812 4341894 0 -1
-1.8792226314544678 2.784872055053711 -0.41501516103744507 4456788 0 -1
-1.8792226314544678 2.784872055053711 -0.41501516103744507 4456788 0 -1
-1.8867686986923218 2.7960546016693115 -0.285322904586792 4456788 0 -1
-1.8854851722717285 2.7941527366638184 -0.3112613558769226 4456788 0 -1
-1.9185433387756348 2.787051200866699 -0.10375379025936127 4456788 0 -1
-1.9451550245285034 2.7700014114379883 -0.051876895129680634 4456788 0 -1
-1.866690754890442 2.8220431804656982 -0.10375379025936127 4456788 0 -1
-1.8582795858383179 2.8093273639678955 -0.3371998071670532 4456788 0 -1
-1.8907809257507324 2.8020005226135254 -0.18156912922859192 4523353 0 -1
-1.8889987468719482 2.7993595600128174 -0.23344601690769196 4590430 0 -1
-1.8879398107528687 2.797790288925171 -0.2593844532966614 4657508 0 -1
-1.8879398107528687 2.797790288925171 -0.2593844532966614 4726897 0 -1
-1.7877751588821411 2.649353504180908 1.1153532266616821 4341894 0 -1
-1.8879398107528687 2.797790288925171 -0.2593844532966614 3692940 0 -1
-1.899044156074524 2.81424617767334 -0.39281782507896423 4456788 0 -1
-1.8730299472808838 2.8316266536712646 -0.39281782507896423 4456788 0 -1
-1.9060930013656616 2.8246920108795166 -0.2618785500526428 4456788 0 -1
-1.908961534500122 2.8289427757263184 -0.1833149790763855 4456788 0 -1
-1.9060930013656616 2.8246920108795166 -0.2618785500526428 4456788 0 -1
-1.9638584852218628 2.7966361045837402 -0.052375711500644684 4456788 0 -1
-1.9638584852218628 2.7966361045837402 -0.052375711500644684 4456788 0 -1
-1.8828113079071045 2.846414089202881 -0.1833149790763855 4456788 0 -1
-1.87881600856781 2.840373992919922 -0.28806641697883606 4456788 0 -1
-1.9081182479858398 2.827693223953247 -0.20950284600257874 4523353 0 -1
-1.8999032974243164 2.872253656387329 -0.21149811148643494 4456788 0 -1
-2.973135232925415 2.2539236545562744 -0.9123349785804749 4456788 0 -1
-2.9325435161590576 2.459155559539795 -0.32373178005218506 4456788 0 -1
-2.917940616607666 2.4469101428985596 -0.5003127455711365 4456788 0 -1
-2.934363603591919 2.460681915283203 -0.2943015992641449 4590430 0 -1
-2.7786810398101807 2.3301305770874023 1.2654969692230225 4724328 0 -1
-2.953195571899414 2.476473808288574 0.38583439588546753 4456788 0 -1
-2.988823413848877 2.445812702178955 -0.29679569602012634 4456788 0 -1
-2.9720957279205322 2.432124137878418 0.5045526623725891 4456788 0 -1
-2.9507174491882324 2.4146296977996826 0.6826300621032715 4590430 0 -1
-2.9482877254486084 2.472358226776123 0.4451935291290283 4657508 0 -1
-3.013939619064331 2.4663658142089844 0.2992897629737854 4456788 0 -1
-2.9970712661743164 2.452562093734741 0.5087926387786865 4456788 0 -1
-2.9906201362609863 2.4472830295562744 0.5686505436897278 4456788 0 -1
-3.000023365020752 2.4549779891967773 0.4788636267185211 4456788 0 -1
-3.0171420574188232 2.4689862728118896 0.23943181335926056 4523353 0 -1
-2.9906201362609863 2.4472830295562744 0.5686505436897278 4590430 0 -1
-3.002794027328491 2.457245111465454 0.4489346444606781 4657508 0 -1
-2.954970359802246 2.4181101322174072 -0.965708315372467 4456788 0 -1
-3.035104513168335 2.4836854934692383 0.36214062571525574 4456788 0 -1
-3.0070996284484863 2.521676540374756 0.3319622278213501 4456788 0 -1
-3.0250236988067627 2.475435972213745 0.4828541576862335 4456788 0 -1
-3.0188865661621094 2.47041392326355 0.5432109236717224 4456788 0 -1
-3.0278172492980957 2.47772216796875 0.45267578959465027 4456788 0 -1
-3.0250236988067627 2.475435972213745 0.4828541576862335 4590430 0 -1
-3.0278172492980957 2.47772216796875 0.45267578959465027 4657508 0 -1
-3.0278172492980957 2.47772216796875 0.45267578959465027 4724328 0 -1
-3.008297920227051 2.4617490768432617 0.6337460875511169 4725613 0 -1
-3.0278172492980957 2.47772216796875 0.45267578959465027 4726897 0 -1
-2.841341257095337 2.6763110160827637 0.7302670478820801 4456788 0 -1
-3.020521640777588 2.4108781814575195 -0.9128338098526001 4456788 0 -1
-2.953425168991089 2.5973939895629883 0.5477002859115601 4456788 0 -1
-2.8371078968048096 2.67232346534729 0.7606948614120483 4456788 0 -1
-2.4802422523498535 2.8896470069885254 1.1258283853530884 4456788 0 -1
-2.9923882484436035 2.570301055908203 0.45641690492630005 4456788 0 -1
-2.845396041870117 2.6801300048828125 0.6998392343521118 4456788 0 -1
-3.0438361167907715 2.490830659866333 0.5477002859115601 4456788 0 -1
-2.8371078968048096 2.67232346534729 0.7606948614120483 4456788 0 -1
-3.0438361167907715 2.490830659866333 0.5477002859115601 4456788 0 -1
-2.8326950073242188 2.6681668758392334 0.7911226153373718 4456788 0 -1
-3.0500237941741943 2.495894193649292 0.4868446886539459 4590430 0 -1
-2.8326950073242188 2.6681668758392334 0.7911226153373718 4590430 0 -1
-3.047022581100464 2.493438243865967 0.5172724723815918 4657508 0 -1
-2.828101873397827 2.6638405323028564 0.8215504288673401 4657508 0 -1
-3.077191114425659 2.4561097621917725 0.5172724723815918 4724328 0 -1
-2.8233273029327393 2.6593432426452637 0.8519781827926636 4724328 0 -1
-3.0438361167907715 2.490830659866333 0.5477002859115601 4725613 0 -1
-3.077191114425659 2.4561097621917725 0.5172724723815918 4726897 0 -1
-2.506392478942871 2.9201138019561768 1.1043792963027954 4456788 0 -1
-2.9063949584960938 2.616060733795166 0.8589616417884827 4456788 0 -1
-2.837128162384033 2.612774133682251 1.073702096939087 4456788 0 -1
-3.0991694927215576 2.4736523628234863 -0.5521896481513977 4456788 0 -1
-2.84930682182312 2.623990058898926 1.01234769821167 4456788 0 -1
-2.84930682182312 2.623990058898926 1.01234769821167 4590430 0 -1
-2.84930682182312 2.623990058898926 1.01234769821167 4657508 0 -1
-2.8661458492279053 2.6394975185394287 0.9203160405158997 4724328 0 -1
-2.837128162384033 2.612774133682251 1.073702096939087 4726897 0 -1
-3.2778356075286865 2.3542253971099854 0.06185321882367134 4456788 0 -1
-3.0107221603393555 2.6477839946746826 -0.4638991355895996 4456788 0 -1
-3.2758138179779053 2.352773427963257 0.1546330451965332 4456788 0 -1
-2.439685106277466 3.208033561706543 0.21648626029491425 4456788 0 -1
-3.2781243324279785 2.3544328212738037 -0.03092660941183567 4456788 0 -1
-3.0862877368927 2.21665096282959 -1.36077082157135 4590430 0 -1
-2.9132168292999268 2.562032699584961 1.1133579015731812 4590430 0 -1
-2.8451645374298096 2.8626022338867188 0.03092660941183567 4590430 0 -1
-3.2782206535339355 2.354501962661743 0 4657508 0 -1
-2.839897394180298 2.8573029041290283 0.24741287529468536 4724328 0 -1
-3.2778356075286865 2.3542253971099854 0.06185321882367134 4725613 0 -1
-2.686077117919922 2.9417006969451904 0.6494588255882263 4726897 0 -1
-2.401329755783081 3.1575984954833984 0.9041045308113098 4456788 0 -1
-2.2873687744140625 3.322840690612793 0.5299922823905945 4456788 0 -1
-3.0819828510284424 2.6472578048706055 -0.21823212504386902 4456788 0 -1
-2.4465832710266113 3.217104434967041 0.4676402509212494 4456788 0 -1
-2.298815965652466 3.3394696712493896 0.3429361879825592 4456788 0 -1
-3.273385763168335 2.4162349700927734 -0.031176017597317696 4456788 0 -1
-2.2380740642547607 3.3834965229034424 0.31176018714904785 4523353 0 -1
-3.0443778038024902 2.677382469177246 -0.3429361879825592 4590430 0 -1
-2.3382012844085693 3.3297195434570312 0 4590430 0 -1
-3.1251380443573 2.431662082672119 0.9352805018424988 4657508 0 -1
-2.4881436824798584 3.2069661617279053 0.2805841565132141 4725613 0 -1
-2.2972521781921387 3.33719801902771 0.37411221861839294 4725613 0 -1
-2.4940083026885986 3.214524745941162 0.031176017597317696 4726897 0 -1
-3.0157887935638428 2.714526653289795 -0.5970830917358398 4456788 0 -1
-2.468282699584961 3.2456376552581787 -0.4399559497833252 4456788 0 -1
-3.1285457611083984 2.560150146484375 0.6913593411445618 4456788 0 -1
-3.0085442066192627 2.708005666732788 0.6599339246749878 4456788 0 -1
-2.4402685165405273 3.2088005542755127 0.7542102336883545 4456788 0 -1
-2.2980122566223145 3.3383023738861084 0.6285085082054138 4456788 0 -1
-3.3295302391052246 2.3913538455963135 -0.12570171058177948 4456788 0 -1
-2.474684238433838 3.1896183490753174 0.7227848172187805 4523353 0 -1
-2.292978286743164 3.3980281352996826 0.12570171058177948 4523353 0 -1
3.5357372760772705 1.8970444202423096 -0.8484864830970764 4523353 0 -1
-3.2253007888793945 2.509598731994629 0.3456796705722809 4590430 0 -1
-2.356837749481201 3.3562588691711426 0.03142542764544487 4590430 0 -1
-3.1411385536193848 2.507150650024414 0.8170610666275024 4657508 0 -1
-2.343306303024292 3.336989402770996 0.4399559497833252 4725613 0 -1
-2.51218843460083 3.237957000732422 0.15712712705135345 4726897 0 -1
-2.2849578857421875 3.2538981437683105 1.0056136846542358 4726897 0 -1
3.5477294921875 1.828922986984253 -0.9427627921104431 4726897 0 -1
-2.466501474380493 3.243295669555664 0.6968463659286499 4456788 0 -1
-3.117905855178833 2.614595651626587 0.7285211682319641 4456788 0 -1
-3.1574697494506836 2.5838193893432617 0.6651715040206909 4456788 0 -1
-3.015559434890747 2.714319944381714 0.7918708324432373 4456788 0 -1
-2.3024673461914062 3.412090301513672 0.38009801506996155 4456788 0 -1
-2.431966543197632 3.2623589038848877 0.7285211682319641 4456788 0 -1
-2.310393810272217 3.3562891483306885 0.6968463659286499 4456788 0 -1
-3.1574697494506836 2.5838193893432617 0.6651715040206909 4456788 0 -1
-3.355954885482788 2.4103329181671143 -0.12669934332370758 4456788 0 -1
-2.3338003158569336 3.2579429149627686 1.0135947465896606 4523353 0 -1
-2.363797187805176 3.3661694526672363 0.41177284717559814 4590430 0 -1
-2.4834351539611816 3.2655622959136963 0.5067973732948303 4725613 0 -1
-2.357691764831543 3.3574748039245605 0.5067973732948303 4725613 0 -1
-2.491711378097534 3.276444911956787 0.38009801506996155 4726897 0 -1
-2.3202927112579346 3.3042168617248535 0.8868953585624695 4726897 0 -1
3.5515360832214355 1.905521035194397 -0.9185701608657837 4726897 0 -1
-3.191541910171509 2.611701250076294 0.28507351875305176 4600703 0 -1
-2.491711378097534 3.276444911956787 0.38009801506996155 4600703 0 -1
-2.3202927112579346 3.3042168617248535 0.8868953585624695 4600703 0 -1
-3.200737953186035 2.554720640182495 0.7661818265914917 4456788 0 -1
-2.443976402282715 3.2784695625305176 0.7981060743331909 4456788 0 -1
-3.1379783153533936 2.6314280033111572 0.7661818265914917 4456788 0 -1
-2.4261341094970703 3.3200573921203613 0.670409083366394 4456788 0 -1
-3.4714581966400146 2.285778284072876 0.2873181700706482 4456788 0 -1
-2.4544553756713867 3.2925267219543457 0.7023333311080933 4456788 0 -1
-3.154714345932007 2.6454622745513916 0.6384848356246948 4456788 0 -1
-2.3186442852020264 3.368274211883545 0.7981060743331909 4456788 0 -1
-2.3321077823638916 3.255579948425293 1.1492726802825928 4523353 0 -1
-2.342517375946045 3.3358659744262695 0.8619545102119446 4590430 0 -1
-3.1810641288757324 2.6675586700439453 0.35116666555404663 4726897 0 -1
-2.4662928581237793 3.308405876159668 0.5746363401412964 4726897 0 -1
-2.311283826828003 3.3575820922851562 0.8619545102119446 4726897 0 -1
-3.4913954734802246 2.3685595989227295 0.3242305815219879 4523353 0 -1
-3.294450283050537 2.8973090648651123 0.9637130498886108 4590430 0 -1
-3.312497615814209 2.9131808280944824 1.005364179611206 4590430 0 -1
-3.433302402496338 3.8389177322387695 -1.1313153505325317 4456788 0 -1
-3.100046396255493 4.242276668548584 -0.44444531202316284 4456788 0 -1
-3.421024799346924 3.8251895904541016 -1.2121235132217407 4456788 0 -1
-3.142256021499634 4.215176105499268 -0.40404120087623596 4456788 0 -1
-3.117596387863159 4.09944486618042 1.1313153505325317 4657508 0 -1
-3.3733510971069336 4.0932488441467285 0.1219605803489685 4456788 0 -1
-3.496100664138794 3.990574359893799 0.0406535267829895 4456788 0 -1
-3.121342897415161 4.187122344970703 0.9350311160087585 4456788 0 -1
-3.3733510971069336 4.0932488441467285 0.1219605803489685 4456788 0 -1
-3.5351951122283936 3.952848196029663 -0.162614107131958 4456788 0 -1
-3.5351951122283936 3.952848196029663 -0.162614107131958 4456788 0 -1
-3.333491325378418 4.127377033233643 0.0406535267829895 4456788 0 -1
-4.593848705291748 2.6543571949005127 0 4456788 0 -1
-3.3738465309143066 4.0938496589660645 -0.081307053565979 4523353 0 -1
-3.333491325378418 4.127377033233643 0.0406535267829895 4590430 0 -1
-3.331141710281372 4.124467849731445 0.2032676339149475 4212104 0 -1
-3.7089219093322754 3.812736988067627 -0.4499322772026062 4456788 0 -1
-3.3524649143218994 4.150868892669678 -0.1636117398738861 4456788 0 -1
-3.5559427738189697 3.9760468006134033 -0.20451468229293823 4456788 0 -1
-3.3540406227111816 4.152820110321045 0 4456788 0 -1
-3.558450937271118 3.978851318359375 -0.04090293496847153 4456788 0 -1
-3.3940465450286865 4.11836051940918 0.12270880490541458 4456788 0 -1
-3.557615041732788 3.977916717529297 -0.12270880490541458 4456788 0 -1
-3.353646755218506 4.152332305908203 0.08180586993694305 4456788 0 -1
-4.621895790100098 2.670563220977783 -0.04090293496847153 4456788 0 -1
-3.353646755218506 4.152332305908203 -0.08180586993694305 4523353 0 -1
-3.5585553646087646 3.9789681434631348 0 4590430 0 -1
-3.353154420852661 4.1517229080200195 -0.12270880490541458 4590430 0 -1
-3.34417986869812 4.140611171722412 -0.40902936458587646 4657508 0 -1
-3.3949437141418457 4.119449138641357 0 4728182 0 -1
-3.390056610107422 4.113519191741943 0.2863205373287201 4212104 0 -1
-3.633399248123169 3.5771050453186035 -1.6872460842132568 4456788 0 -1
-3.3743929862976074 4.1780195236206055 -0.04115234315395355 4456788 0 -1
-3.536503314971924 4.036691188812256 -0.20576171576976776 4456788 0 -1
-3.3720147609710693 4.175074577331543 -0.20576171576976776 4456788 0 -1
-3.3720147609710693 4.175074577331543 -0.20576171576976776 4456788 0 -1
-4.650078296661377 2.68684720993042 0.04115234315395355 4456788 0 -1
-3.5381662845611572 4.0385894775390625 0.12345702946186066 4456788 0 -1
-3.5340070724487305 4.033842086791992 -0.28806641697883606 4523353 0 -1
-3.5785717964172363 4.001349449157715 -0.1646093726158142 4590430 0 -1
-3.5353593826293945 4.035385608673096 -0.2469140589237213 4657508 0 -1
-3.3720147609710693 4.175074577331543 -0.20576171576976776 4724328 0 -1
-3.3720147609710693 4.175074577331543 -0.20576171576976776 4724328 0 -1
-3.8462915420532227 3.786698818206787 0.24841050803661346 4456788 0 -1
-3.5520739555358887 4.054464340209961 -0.3726157546043396 4456788 0 -1
-3.8532369136810303 3.5485315322875977 1.3248560428619385 4456788 0 -1
-3.821316957473755 3.762111186981201 0.6624280214309692 4456788 0 -1
-4.673450946807861 2.700352191925049 0.24841050803661346 4456788 0 -1
-3.5520739555358887 4.054464340209961 -0.3726157546043396 4523353 0 -1
-3.8499107360839844 3.790261745452881 0.08280350267887115 4590430 0 -1
-3.5538547039031982 4.056497097015381 -0.3312140107154846 4657508 0 -1
-3.8499107360839844 3.790261745452881 -0.08280350267887115 4724328 0 -1
-3.994283437728882 3.678424119949341 0.24990695714950562 4456788 0 -1
-3.975437879562378 3.661068916320801 -0.5831162333488464 4456788 0 -1
-3.8717379570007324 3.811750888824463 -0.1666046380996704 4523353 0 -1
-3.4566402435302734 4.194312572479248 0.0833023190498352 4523353 0 -1
-3.91106915473938 3.7667813301086426 -0.24990695714950562 4590430 0 -1
-3.8685710430145264 3.562653064727783 1.3744882345199585 4657508 0 -1
-4.022454738616943 3.7043676376342773 0 4456788 0 -1
-4.189933776855469 3.513570785522461 0.04190056771039963 4456788 0 -1
-4.010628700256348 3.693476915359497 -0.41900569200515747 4456788 0 -1
-3.64524245262146 4.075896263122559 0.04190056771039963 4523353 0 -1
-3.9786837100982666 3.7475945949554443 -0.1676022708415985 4590430 0 -1
-3.8481643199920654 3.5438599586486816 1.5922216176986694 4657508 0 -1
-3.7869482040405273 3.4874846935272217 1.8436249494552612 4728182 0 -1
-4.461465835571289 3.204339027404785 -0.29504984617233276 4456788 0 -1
-4.1650004386901855 3.577511787414551 0.3371998071670532 4456788 0 -1
4.667509078979492 2.886169672012329 -0.37934979796409607 4456788 0 -1
-4.1629133224487305 3.575719118118286 -0.37934979796409607 4456788 0 -1
-4.62545919418335 2.953090190887451 0.37934979796409607 4456788 0 -1
-4.341702938079834 3.2914302349090576 -0.7586995959281921 4456788 0 -1
-4.673700332641602 2.889998197555542 -0.2528998553752899 4456788 0 -1
-3.950853109359741 3.393570899963379 -1.770298957824707 4523353 0 -1
-3.4641196727752686 4.0359296798706055 1.52637779712677 4456788 0 -1
-4.155017852783203 3.6541364192962646 -0.04239938408136368 4456788 0 -1
-3.5860230922698975 4.177955150604248 0.5511919856071472 4456788 0 -1
-4.390868663787842 2.8033177852630615 -1.8655729293823242 4456788 0 -1
-3.5767605304718018 4.167163372039795 0.6783901453018188 4456788 0 -1
-4.472568035125732 2.855478048324585 -1.5687772035598755 4456788 0 -1
-3.561436176300049 4.065150737762451 -1.1871827840805054 4523353 0 -1
-3.5613765716552734 4.149240493774414 0.847987711429596 4590430 0 -1
-3.5613765716552734 4.149240493774414 0.847987711429596 4657508 0 -1
-4.605934143066406 3.124661684036255 -0.0426487922668457 4456788 0 -1
-3.437370538711548 4.342470169067383 0.5544342994689941 4456788 0 -1
-4.294864177703857 3.51457142829895 -0.42648792266845703 4456788 0 -1
-4.629024982452393 3.0479769706726074 -0.5117855072021484 4456788 0 -1
-3.6547443866729736 4.171656131744385 0.46913671493530273 4456788 0 -1
-4.604852676391602 3.1239278316497803 0.1279463768005371 4456788 0 -1
-3.705103635787964 4.142829895019531 -0.2985415458679199 4523353 0 -1
-3.622485876083374 4.2204365730285645 0.21324396133422852 4590430 0 -1
-3.6251473426818848 4.223537445068359 0 4657508 0 -1
-3.763154983520508 4.566239356994629 0.6846253275871277 4456788 0 -1
-3.559633731842041 4.77506685256958 -0.09128338098526001 4456788 0 -1
-3.763154983520508 4.566239356994629 0.6846253275871277 4523353 0 -1
-3.672616481781006 4.456379413604736 -1.4605340957641602 4590430 0 -1
-3.4998433589935303 4.78938102722168 -0.8260397911071777 4456788 0 -1
-3.744354009628296 4.6360883712768555 0.5965842604637146 4456788 0 -1
-3.503507137298584 4.794394493103027 -0.7801486849784851 4456788 0 -1
-3.734682559967041 4.6241135597229 0.7342575788497925 4456788 0 -1
-3.5326807498931885 4.834317684173584 0.1376732885837555 4456788 0 -1
-3.738131523132324 4.628384113311768 0.6883664727210999 4523353 0 -1
-3.617635488510132 4.5702009201049805 -1.3767329454421997 4590430 0 -1
-3.4918744564056396 4.778475761413574 -0.9178219437599182 4590430 0 -1
-3.6689884662628174 4.542774200439453 1.3308418989181519 4657508 0 -1
-3.487567663192749 4.772582530975342 -0.9637130498886108 4657508 0 -1
-3.701662302017212 4.6763529777526855 -0.8305290937423706 4456788 0 -1
-3.5292739868164062 4.829655647277832 -0.692107617855072 4456788 0 -1
-3.486443281173706 4.867011547088623 -0.6459670662879944 4456788 0 -1
-3.7158143520355225 4.6942315101623535 0.6459670662879944 4456788 0 -1
-3.7284834384918213 4.710236072540283 -0.4152645468711853 4456788 0 -1
-3.486443281173706 4.867011547088623 -0.6459670662879944 4456788 0 -1
-3.701662302017212 4.6763529777526855 -0.8305290937423706 4456788 0 -1
-3.7055373191833496 4.681248188018799 -0.7843886017799377 4456788 0 -1
-3.491823196411133 4.874521732330322 -0.5536860823631287 4456788 0 -1
-3.7055373191833496 4.681248188018799 -0.7843886017799377 4523353 0 -1
-3.7091872692108154 4.685859203338623 -0.7382481098175049 4590430 0 -1
-3.465256452560425 4.837435245513916 -0.9228101372718811 4590430 0 -1
-3.7126128673553467 4.690186977386475 -0.692107617855072 4657508 0 -1
-3.4731645584106445 4.848474979400635 -0.8305290937423706 4657508 0 -1
-3.7055373191833496 4.681248188018799 -0.7843886017799377 4724328 0 -1
-3.4693169593811035 4.843103408813477 -0.8766696453094482 4724328 0 -1
-3.683197021484375 4.747269153594971 -0.7422386407852173 4456788 0 -1
-3.5080983638763428 4.897241592407227 -0.6030688881874084 4456788 0 -1
-3.662832260131836 4.7210211753845215 -0.9741882085800171 4456788 0 -1
-3.675724744796753 4.737637996673584 -0.8350184559822083 4456788 0 -1
-3.679572582244873 4.742597579956055 -0.7886285185813904 4523353 0 -1
-3.517240047454834 4.910003185272217 -0.4175092279911041 4523353 0 -1
-3.679572582244873 4.742597579956055 -0.7886285185813904 4590430 0 -1
-3.5080983638763428 4.897241592407227 -0.6030688881874084 4590430 0 -1
-3.8035390377044678 5.309671401977539 -0.7557066679000854 4456788 0 -1
-3.87644624710083 5.304745197296143 0.2519022226333618 4456788 0 -1
-3.9570882320404053 5.203323841094971 0.7053261995315552 4456788 0 -1
-3.9570882320404053 5.203323841094971 0.7053261995315552 4456788 0 -1
-4.465209007263184 4.4925761222839355 -1.7633155584335327 4456788 0 -1
-4.407895565032959 4.827378273010254 -0.7053261995315552 4456788 0 -1
-3.828913688659668 5.345094203948975 0 4456788 0 -1
-3.91302752494812 5.249126434326172 0.6045653223991394 4523353 0 -1
-3.8569087982177734 5.278009414672852 0.7053261995315552 4657508 0 -1
-3.892612934112549 5.221741676330566 -1.1138567924499512 4456788 0 -1
-3.941701889038086 5.287591934204102 0.40503883361816406 4456788 0 -1
-3.979865074157715 5.233273983001709 0.6581881046295166 4456788 0 -1
-4.603933811187744 4.7328009605407715 0.25314927101135254 4456788 0 -1
-3.943443775177002 5.289928436279297 0.35440897941589355 4456788 0 -1
-3.932398796081543 5.275112152099609 0.6075582504272461 4523353 0 -1
-3.9350757598876953 5.278703212738037 0.5569283962249756 4590430 0 -1
-3.9294872283935547 5.271206378936768 0.6581881046295166 4657508 0 -1
-4.0076446533203125 5.269802570343018 0.5087926387786865 4456788 0 -1
-3.8154964447021484 5.433464050292969 0.10175852477550507 4456788 0 -1
-3.945681571960449 5.292930603027344 0.7123096585273743 4456788 0 -1
-3.8104515075683594 5.4262800216674805 0.35615482926368713 4456788 0 -1
-3.954460382461548 5.304706573486328 0.5596718788146973 4523353 0 -1
-3.761688709259033 5.464572429656982 -0.7158013582229614 4456788 0 -1
-3.7825217247009277 5.494836330413818 -0.15338601171970367 4456788 0 -1
-3.7780752182006836 5.488376617431641 -0.3579006791114807 4456788 0 -1
-3.7830772399902344 5.495643138885498 -0.10225734114646912 4456788 0 -1
-4.4987945556640625 4.92692756652832 0.10225734114646912 4456788 0 -1
-3.7825217247009277 5.494836330413818 -0.15338601171970367 4456788 0 -1
-3.7825217247009277 5.494836330413818 -0.15338601171970367 4523353 0 -1
-3.7830772399902344 5.495643138885498 -0.10225734114646912 4590430 0 -1
-3.7834105491638184 5.496127605438232 -0.05112867057323456 4657508 0 -1
-3.741670608520508 5.544885158538818 -0.46240270137786865 4456788 0 -1
-3.7505996227264404 5.558117389678955 0 4456788 0 -1
-3.7991864681243896 5.519044876098633 -0.2568903863430023 4456788 0 -1
-3.8015313148498535 5.522451400756836 -0.10275615751743317 4456788 0 -1
-4.571440696716309 4.9028401374816895 0.15413422882556915 4456788 0 -1
-3.8001914024353027 5.520504951477051 -0.20551231503486633 4523353 0 -1
-3.8001914024353027 5.520504951477051 -0.20551231503486633 4590430 0 -1
-3.8009731769561768 5.521640300750732 -0.15413422882556915 4657508 0 -1
-3.9695940017700195 5.43221378326416 -0.36139240860939026 4456788 0 -1
-3.761718988418579 5.5745954513549805 -0.41301989555358887 4456788 0 -1
-3.767035722732544 5.582474708557129 -0.20650994777679443 4456788 0 -1
-3.8199853897094727 5.549259185791016 -0.10325497388839722 4456788 0 -1
-4.594306468963623 4.927363872528076 0.10325497388839722 4456788 0 -1
-3.7648212909698486 5.579193115234375 -0.30976492166519165 4523353 0 -1
-3.9734487533569336 5.437489032745361 -0.20650994777679443 4590430 0 -1
-3.767035722732544 5.582474708557129 -0.20650994777679443 4590430 0 -1
-3.767035722732544 5.582474708557129 -0.20650994777679443 4657508 0 -1
-4.175146579742432 5.38134241104126 0.5761328339576721 4456788 0 -1
-5.630722522735596 3.9320297241210938 -0.05262511968612671 4456788 0 -1
-5.332189083099365 4.255972862243652 -0.7893767952919006 4456788 0 -1
-3.9693379402160645 5.541123867034912 0.8420019149780273 4456788 0 -1
-5.357460021972656 4.276143550872803 0.793117880821228 4590430 0 -1
-5.366377830505371 4.283261299133301 0.6873688101768494 4657508 0 -1
-4.524462699890137 5.831575393676758 0.33969390392303467 4456788 0 -1
-4.544394016265869 5.857265472412109 0.3411903381347656 4456788 0 -1
-4.521938800811768 6.836219310760498 -0.3142542541027069 4456788 0 -1
-4.588445663452148 6.936763286590576 -0.510787844657898 4456788 0 -1
-4.971845626831055 6.5376667976379395 -1.4046666622161865 4456788 0 -1
-4.586146354675293 6.933287620544434 -0.5746363401412964 4456788 0 -1
-4.69347620010376 6.818171501159668 -0.9577272534370422 4456788 0 -1
-4.65217399597168 6.894185543060303 -0.510787844657898 4523353 0 -1
-4.669002532958984 6.782619476318359 -1.4742515087127686 4456788 0 -1
-4.515260696411133 7.1048054695129395 -0.452176958322525 4456788 0 -1
-5.028924942016602 6.74604606628418 -1.1717194318771362 4456788 0 -1
-4.678063869476318 7.07224702835083 -0.520764172077179 4456788 0 -1
-5.048192977905273 6.77189302444458 -1.1762088537216187 4456788 0 -1
-4.756155967712402 7.048279285430908 -0.6534493565559387 4456788 0 -1
-3.2350943088531494 7.985991954803467 -2.035170555114746 4456788 0 -1
-1.0822330713272095 8.760843276977539 -0.6783901453018188 4456788 0 -1
0.7456812858581543 8.815482139587402 -0.3391950726509094 4456788 0 -1
5.179097652435303 7.087366104125977 -1.1532632112503052 4456788 0 -1
-3.3671388626098633 7.931221961975098 -2.035170555114746 4456788 0 -1
-2.8977456092834473 8.303698539733887 -1.017585277557373 4456788 0 -1
-1.5358755588531494 8.578483581542969 -1.5602973699569702 4456788 0 -1
-3.252195119857788 8.028206825256348 -1.831653356552124 4456788 0 -1
-1.4748289585113525 8.623680114746094 -1.3567802906036377 4456788 0 -1
-1.0168380737304688 8.788333892822266 -0.3391950726509094 4456788 0 -1
0.4737425744533539 8.819672584533691 -0.610551118850708 4456788 0 -1
4.951674938201904 7.051441192626953 2.035170555114746 4456788 0 -1
-3.2674200534820557 8.065790176391602 -1.628136396408081 4456788 0 -1
-2.9531140327453613 8.246306419372559 -1.2889412641525269 4456788 0 -1
-2.507389545440674 8.481223106384277 -0.40703409910202026 4456788 0 -1
-1.0165091753005981 8.785490989685059 -0.40703409910202026 4456788 0 -1
-2.7020652294158936 8.391660690307617 -0.8140681982040405 4456788 0 -1
-3.4569144248962402 7.957545280456543 -1.7638143301010132 4456788 0 -1
-1.5485268831253052 8.649147033691406 -1.0854241847991943 4456788 0 -1
-2.8350677490234375 8.340770721435547 -0.8819071650505066 4456788 0 -1
-2.5607986450195312 8.413718223571777 -1.017585277557373 8705099 0 -1
-0.6783104538917542 8.826398849487305 0.1356780230998993 8705099 0 -1
-2.697901964187622 8.378730773925781 -0.9497461915016174 9360965 0 -1
-1.8980978727340698 8.640949249267578 0.3391950726509094 9360965 0 -1
-0.7460319995880127 8.81962776184082 -0.20351704955101013 9360965 0 -1
-2.3737380504608154 8.526885032653809 -0.20351704955101013 11197490 0 -1
-3.0235800743103027 8.231081008911133 -1.221102237701416 11918891 0 -1
-2.4404115676879883 8.503714561462402 -0.3391950726509094 11918891 0 -1
-3.5120482444763184 7.902804851531982 -2.0426526069641113 4456788 0 -1
-2.9083991050720215 8.334227561950684 -1.0213263034820557 4456788 0 -1
-1.416191577911377 8.6864013671875 -1.2255916595458984 4456788 0 -1
-0.2700331509113312 8.80616283416748 1.1575031280517578 4456788 0 -1
-3.279432535171509 8.095443725585938 -1.6341221332550049 4456788 0 -1
-1.7449644804000854 8.583268165588379 -1.4979453086853027 4456788 0 -1
-1.4819855690002441 8.665526390075684 -1.2936800718307495 4456788 0 -1
-1.0202463865280151 8.817790985107422 -0.4085305333137512 4456788 0 -1
-3.2170896530151367 8.133825302124023 -1.5660337209701538 4456788 0 -1
-2.5824942588806152 8.485001564025879 -0.5447073578834534 4456788 0 -1
-1.0198560953140259 8.814417839050293 -0.4766189455986023 4456788 0 -1
-3.2745463848114014 8.083381652832031 -1.702210545539856 4456788 0 -1
-2.9083991050720215 8.334227561950684 -1.0213263034820557 4456788 0 -1
-2.9083991050720215 8.334227561950684 -1.0213263034820557 4456788 0 -1
-1.0205764770507812 8.82064437866211 -0.34044212102890015 4456788 0 -1
-0.5443074703216553 8.862791061401367 0.34044212102890015 4456788 0 -1
-4.663074016571045 7.337391376495361 -1.838387370109558 4456788 0 -1
-2.5118651390075684 8.49636173248291 -0.6808842420578003 4456788 0 -1
-2.970364809036255 8.294477462768555 -1.1575031280517578 4456788 0 -1
-2.6491267681121826 8.45977783203125 -0.6127958297729492 4456788 0 -1
-1.1558369398117065 8.797619819641113 -0.4766189455986023 4456788 0 -1
-0.6808842420578003 8.859889030456543 0 4456788 0 -1
-5.187224388122559 6.958396911621094 1.9064757823944092 2271109 0 -1
6.459277629852295 5.948492050170898 -1.3617684841156006 2271109 0 -1
-3.1139938831329346 8.267745971679688 -0.9532378911972046 4045940 0 -1
-3.031334161758423 8.252189636230469 -1.2936800718307495 5424489 0 -1
-2.7119991779327393 8.42251205444336 -0.8170610666275024 9360965 0 -1
-2.5132739543914795 8.501127243041992 -0.6127958297729492 10672695 0 -1
-1.8318456411361694 8.662829399108887 0.7489726543426514 10672695 0 -1
-0.5446434020996094 8.868261337280273 0.13617683947086334 10672695 0 -1
-2.382814884185791 8.559491157531738 -0.13617683947086334 11197490 0 -1
-0.8170610666275024 8.848369598388672 0 11197490 0 -1
-2.1106791496276855 8.63143253326416 -0.06808841973543167 11918891 0 -1
5.458077907562256 6.489932060241699 2.6554484367370605 11918891 0 -1
6.87369966506958 5.62488317489624 0.2723536789417267 11918891 0 -1
-4.618458271026611 7.26718807220459 2.323486328125 4456788 0 -1
-4.238983154296875 7.38028621673584 2.665175437927246 4456788 0 -1
-3.2092490196228027 8.114001274108887 1.8451213836669922 4456788 0 -1
-2.471855878829956 8.121489524841309 2.733513116836548 4456788 0 -1
-0.9650519490242004 8.340755462646484 3.006864547729492 4456788 0 -1
-2.4129598140716553 8.161815643310547 2.665175437927246 4456788 0 -1
-0.8477966785430908 8.468698501586914 2.665175437927246 4456788 0 -1
-2.5808768272399902 8.015292167663574 2.9385266304016113 4456788 0 -1
-2.322788953781128 8.093853950500488 2.9385266304016113 4600703 0 -1
-1.0352363586425781 8.38039779663086 2.8701889514923096 4536450 0 -1
-2.728372573852539 8.47336196899414 -0.5467026233673096 2006409 0 -1
-0.47633832693099976 8.867997169494629 0.8200539946556091 2072968 0 -1
-3.119826316833496 8.283230781555176 -1.0934052467346191 2271109 0 -1
-2.7254767417907715 8.46436882019043 -0.683378279209137 2271109 0 -1
-2.254088878631592 8.62468147277832 -0.2733513116836548 2468738 0 -1
-0.47814008593559265 8.901540756225586 0.2733513116836548 2468738 0 -1
-2.7710750102996826 8.152503967285156 2.323486328125 9360965 0 -1
-0.8363783359527588 8.354640007019043 3.006864547729492 9360965 0 -1
-2.2517879009246826 8.088818550109863 3.006864547729492 10672695 0 -1
-3.2155237197875977 8.129865646362305 1.9204427003860474 4456788 0 -1
-1.237178921699524 8.407379150390625 2.8120768070220947 4456788 0 -1
-0.9250459671020508 8.573450088500977 2.4005534648895264 4456788 0 -1
-2.7414753437042236 8.514054298400879 -0.3429361879825592 4456788 0 -1
-4.123547554016113 7.480886936187744 2.6749024391174316 4600703 0 -1
-2.195434331893921 8.136038780212402 3.017838478088379 4600703 0 -1
-2.142967700958252 8.199504852294922 2.880664110183716 4471684 0 -1
-2.606009006500244 8.562261581420898 -0.13717447221279144 2588302 0 -1
-1.4331684112548828 8.790531158447266 -0.8916341066360474 2588302 0 -1
-2.942229986190796 8.431171417236328 -0.6172851324081421 2523534 0 -1
-2.2609856128692627 8.651069641113281 -0.4115234315395355 2070155 0 -1
-2.4665298461914062 8.594724655151367 -0.4115234315395355 2271109 0 -1
-0.8913984894752502 8.904239654541016 -0.20576171576976776 2271109 0 -1
-2.733726978302002 8.489991188049316 -0.7544596195220947 2468738 0 -1
-1.2284300327301025 8.82147216796875 -0.8916341066360474 2468738 0 -1
-2.7369580268859863 8.500025749206543 -0.6172851324081421 2666112 0 -1
-1.0968801975250244 8.879414558410645 -0.2743489444255829 2994813 0 -1
-5.369258403778076 7.2025861740112305 0 4456788 0 -1
5.128534317016602 7.303297996520996 -1.0325497388839722 4456788 0 -1
-2.1447651386260986 8.206381797790527 2.9599757194519043 4600703 0 -1
-2.0797722339630127 8.22309398651123 2.9599757194519043 4471684 0 -1
-2.9530882835388184 8.246234893798828 1.996262788772583 4341894 0 -1
-2.168294906616211 8.573099136352539 1.5832428932189941 2134668 0 -1
-2.745370864868164 8.526152610778809 -0.6883664727210999 2468738 0 -1
-1.5645411014556885 8.738592147827148 -1.3767329454421997 2468738 6 -1
-1.1660587787628174 8.875423431396484 -0.7572031021118164 2468738 0 -1
-1.2346504926681519 8.866141319274902 -0.7572031021118164 2666112 0 -1
-2.571237325668335 8.211044311523438 2.6943562030792236 3887499 0 -1
-2.5838050842285156 8.251178741455078 2.5561840534210205 3238030 0 -1
-2.0988237857818604 8.298420906066895 2.8325283527374268 3107982 0 -1
-2.09314227104187 8.275957107543945 -2.9016144275665283 2666112 0 -1
-1.7325721979141235 8.877012252807617 -0.2773418426513672 4456788 6 -1
-2.117349624633789 8.371668815612793 2.70408296585083 3887499 0 -1
-0.7240752577781677 8.560054779052734 2.8427538871765137 3887499 0 -1
-2.738616704940796 8.275927543640137 2.426741123199463 3692940 0 -1
-2.3566982746124268 8.212013244628906 2.9814248085021973 3692940 0 -1
-2.117349624633789 8.371668815612793 2.70408296585083 3692940 0 -1
-2.520585775375366 8.281596183776855 2.6347475051879883 3302798 0 -1
-3.0474395751953125 8.29603385925293 1.9413930177688599 2328718 0 -1
-2.586916923522949 8.261116027832031 2.6347475051879883 2328718 0 -1
-0.9899768829345703 8.556177139282227 2.773418426513672 2328718 0 -1
-1.6660610437393188 8.905179977416992 -0.6262638568878174 4456788 6 -1
-1.7371176481246948 8.900300979614258 -0.48709410429000854 4456788 6 -1
-1.73778235912323 8.903707504272461 -0.4175092279911041 4456788 6 -1
-1.7383445501327515 8.906587600708008 -0.3479243516921997 4456788 6 -1
-1.7363502979278564 8.896369934082031 -0.5566789507865906 4456788 6 -1
-1.7345073223114014 8.886927604675293 -0.6958487033843994 4456788 6 -1
-1.7354803085327148 8.891912460327148 -0.6262638568878174 4456788 6 -1
-2.614396333694458 8.348869323730469 2.4354705810546875 3302798 0 -1
-2.227368116378784 8.25438117980957 3.061734437942505 3238030 0 -1
-3.1367392539978027 8.32813549041748 1.8092066049575806 2782862 0 -1
-2.6024606227874756 8.31075382232666 2.5746402740478516 2782862 0 -1
-2.596222400665283 8.29083251953125 2.6442251205444336 2328718 0 -1
-1.6742504835128784 8.948953628540039 -0.41900569200515747 4456788 6 -1
-1.6720325946807861 8.937098503112793 -0.6285085082054138 4456788 6 -1
-1.6747921705245972 8.951848983764648 -0.34917140007019043 4456788 6 -1
-1.7453956604003906 8.94271469116211 -0.20950284600257874 4456788 6 -1
-1.6728708744049072 8.94157886505127 -0.5586742162704468 4456788 6 -1
-1.7453956604003906 8.94271469116211 -0.20950284600257874 4456788 6 -1
-2.0042521953582764 8.485474586486816 2.653702735900879 3238030 0 -1
-1.6748830080032349 8.9523344039917 -0.8410042524337769 4456788 6 -1
-1.6748830080032349 8.9523344039917 -0.8410042524337769 4456788 6 -1
-1.7516292333602905 8.974653244018555 -0.2102510631084442 4456788 6 -1
-4.4788994789123535 7.959622859954834 -0.4905858039855957 4456788 0 -1
-2.0920536518096924 8.857202529907227 -0.9110879302024841 10672695 0 -1
-1.4821890592575073 9.091205596923828 0.07058250159025192 4456788 6 -1
-1.4820585250854492 9.090405464172363 0.14116500318050385 4456788 6 -1
-1.4820585250854492 9.090405464172363 0.14116500318050385 4456788 6 -1
-1.4822325706481934 9.091472625732422 0 4456788 6 -1
-1.4820585250854492 9.090405464172363 0.14116500318050385 4456788 6 -1
-1.4822325706481934 9.091472625732422 0 4456788 6 -1
-1.4822325706481934 9.091472625732422 0 4456788 6 -1
-1.4106136560440063 9.096015930175781 -0.3529125154018402 4456788 6 -1
-1.4106136560440063 9.096015930175781 -0.3529125154018402 4456788 6 -1
-1.4872955083847046 9.122526168823242 0.1416638195514679 4456788 6 -1
-1.4872955083847046 9.122526168823242 0.1416638195514679 4456788 6 -1
-1.4872955083847046 9.122526168823242 0.1416638195514679 4456788 6 -1
-1.4867713451385498 9.119311332702637 0.2833276391029358 4456788 6 -1
-1.4870771169662476 9.121187210083008 0.21249572932720184 4456788 6 -1
-1.4867713451385498 9.119311332702637 0.2833276391029358 4456788 6 -1
-1.487426519393921 9.123330116271973 0.07083190977573395 4456788 6 -1
-1.487426519393921 9.123330116271973 0.07083190977573395 4456788 6 -1
-1.487426519393921 9.123330116271973 0.07083190977573395 4456788 6 -1
-1.4164718389511108 9.13379192352295 -0.1416638195514679 4456788 6 -1
-1.4165966510772705 9.13459587097168 -0.07083190977573395 4456788 6 -1
-1.4164718389511108 9.13379192352295 -0.1416638195514679 4456788 6 -1
-1.4164718389511108 9.13379192352295 -0.1416638195514679 4456788 6 -1
-1.4159727096557617 9.130572319030762 -0.2833276391029358 4456788 6 -1
-1.487426519393921 9.123330116271973 0.07083190977573395 4456788 6 -1
-1.4145989418029785 9.12171459197998 -0.49582338333129883 4664956 6 -1
-1.4159727096557617 9.130572319030762 -0.2833276391029358 4600703 6 -1
-1.4162639379501343 9.132450103759766 -0.21249572932720184 4536450 6 -1
-1.4420623779296875 8.845083236694336 2.2666211128234863 3562893 0 -1
-1.487426519393921 9.123330116271973 -0.07083190977573395 3302798 6 -1
-1.492313265800476 9.153304100036621 0.21324396133422852 4456788 6 -1
-1.49253249168396 9.154647827148438 0.14216263592243195 4456788 6 -1
-1.492313265800476 9.153304100036621 0.21324396133422852 4456788 6 -1
-1.5637431144714355 9.143582344055176 0.07108131796121597 4456788 6 -1
-1.4216264486312866 9.16702938079834 0 4456788 6 -1
-1.492313265800476 9.153304100036621 -0.21324396133422852 4456788 6 -1
-1.4215847253799438 9.166760444641113 -0.07108131796121597 4456788 6 -1
-1.4201232194900513 9.157336235046387 -0.42648792266845703 4456788 6 -1
-1.49253249168396 9.154647827148438 -0.14216263592243195 4456788 6 -1
-1.4201232194900513 9.157336235046387 -0.42648792266845703 4456788 6 -1
-1.4209585189819336 9.16272258758545 -0.2843252718448639 4726897 6 -1
-1.42058265209198 9.160299301147461 -0.35540661215782166 4536450 6 -1
-1.4209585189819336 9.16272258758545 -0.2843252718448639 4471684 6 -1
-1.4212507009506226 9.164607048034668 -0.21324396133422852 4341894 6 -1
-1.4195799827575684 9.153833389282227 -0.4975692331790924 3562893 6 -1
-1.4979013204574585 9.187579154968262 -0.071330726146698 4456788 6 -1
-1.4979453086853027 9.187849044799805 0 4456788 6 -1
-1.4979013204574585 9.187579154968262 -0.071330726146698 4456788 6 -1
-1.4979013204574585 9.187579154968262 -0.071330726146698 4456788 6 -1
-1.4262375831604004 9.196763038635254 0.213992178440094 4456788 6 -1
-1.4979453086853027 9.187849044799805 0 4456788 6 -1
-1.4224203824996948 9.172148704528809 -0.71330726146698 4456788 6 -1
-1.4114148616790771 9.101181983947754 -1.3552838563919067 4726897 6 -1
-1.4957890510559082 9.174622535705566 -0.4993151128292084 4728182 6 -1
-1.42153799533844 9.166459083557129 -0.784637987613678 4536450 6 -1
-1.7881896495819092 9.16197395324707 -0.3579006791114807 4456788 6 -1
-1.7881896495819092 9.16197395324707 -0.3579006791114807 4456788 6 -1
-1.5030063390731812 9.218891143798828 -0.14316026866436005 4456788 6 -1
-1.5030063390731812 9.218891143798828 -0.14316026866436005 4456788 6 -1
-1.502476692199707 9.215641975402832 -0.2863205373287201 4456788 6 -1
-1.4265084266662598 9.19851016998291 -0.7873815298080444 4456788 6 -1
-1.3850797414779663 8.931366920471191 -2.3621444702148438 4725613 0 -1
-1.4071871042251587 9.073921203613281 -1.7179232835769653 4726897 0 -1
-1.7938398122787476 9.190923690795898 -0.4309772551059723 4456788 6 -1
-1.7948949337005615 9.196329116821289 -0.2873181700706482 4456788 6 -1
-1.795685887336731 9.200382232666016 -0.07182954251766205 4456788 6 -1
-1.7952641248703003 9.198221206665039 -0.21548862755298615 4456788 6 -1
-1.7214275598526 9.201116561889648 -0.5028068423271179 4456788 6 -1
-1.7220861911773682 9.20463752746582 -0.4309772551059723 4456788 6 -1
-1.224148154258728 8.790722846984863 -3.016840934753418 2912910 0 -1
-1.8017622232437134 9.231514930725098 -0.14415790140628815 4456788 6 -1
-1.8014976978302002 9.230158805847168 0.21623685956001282 4456788 6 -1
-1.7290821075439453 9.24203109741211 -0.2883158028125763 4456788 6 -1
-1.7280657291412354 9.236598014831543 -0.43247371912002563 4456788 6 -1
-6.243017196655273 6.281280040740967 3.171473979949951 2977934 0 -1
-1.1550774574279785 9.350529670715332 -0.5786268711090088 2666112 0 -1
-1.1560300588607788 9.35824203491211 -0.4339701533317566 2994813 0 -1
-2.2716445922851562 8.981727600097656 1.8082090616226196 8705099 0 -1
-1.0849254131317139 9.376798629760742 0 8705099 0 -1
-1.659656047821045 9.269847869873047 -1.0160887241363525 4456788 6 -1
-1.731814980506897 9.256638526916504 -1.0160887241363525 4456788 6 -1
-1.660986304283142 9.277277946472168 -0.9435110092163086 4456788 6 -1
-1.6661494970321655 9.306116104125977 -0.580622136592865 4456788 6 -1
-1.6639244556427002 9.293688774108887 -1.0924077033996582 4456788 6 -1
-1.665359377861023 9.301703453063965 -1.0195804834365845 4456788 6 -1
-1.6571786403656006 9.256011009216309 -1.383716344833374 4456788 6 -1
-1.665359377861023 9.301703453063965 -1.0195804834365845 4456788 6 -1
-1.6701005697250366 9.328185081481934 -0.7282717823982239 4456788 6 -1
-1.6690645217895508 9.32239818572998 -0.8010989427566528 4456788 6 -1
-1.6679291725158691 9.316056251525879 -0.8739261031150818 4456788 6 -1
-1.6646982431411743 9.298009872436523 -1.3153785467147827 4456788 6 -1
-1.672402024269104 9.341039657592773 -0.9499956369400024 4456788 6 -1
-1.6664408445358276 9.307744026184082 -1.2423019409179688 4456788 6 -1
-1.669622778892517 9.325516700744629 -1.0961487293243408 4456788 6 -1
-1.672402024269104 9.341039657592773 -0.9499956369400024 4456788 6 -1
-1.6758201122283936 9.360130310058594 -0.7307658791542053 4456788 6 -1
-1.315224051475525 9.444747924804688 0.14615316689014435 2328718 0 -1
-1.6051485538482666 9.385689735412598 -0.9532378911972046 4456788 6 -1
-1.6847145557403564 9.409810066223145 -0.4399559497833252 4456788 6 -1
-1.6824828386306763 9.397344589233398 -0.6599339246749878 4456788 6 -1
-5.786628246307373 7.609055042266846 0.4399559497833252 2977934 0 -1
-6.960855007171631 6.55655574798584 -0.366629958152771 2468738 0 -1
-2.345329523086548 9.273065567016602 -0.2933039665222168 2468738 0 -1
-1.973981261253357 9.334991455078125 -0.733259916305542 2468738 0 -1
-1.3197128772735596 9.476982116699219 -0.1466519832611084 2468738 0 -1
-0.9557780027389526 9.547330856323242 0.3678770065307617 2912910 0 -1
-0.8858717083930969 9.593555450439453 0.07382480800151825 2328718 0 -1
-0.888786256313324 9.625118255615234 0.14814843237400055 2328718 0 -1
-0.888786256313324 9.625118255615234 0.14814843237400055 2264205 0 -1
-0.8918573260307312 9.658376693725586 0.0743236243724823 2264205 0 -1
-4.950520038604736 8.797758102416992 -2.1346843242645264 4456788 0 -1
-4.422811985015869 9.310144424438477 -0.47437429428100586 4456788 0 -1
-5.508074760437012 8.001532554626465 -3.4787447452545166 4523353 0 -1
-5.190588474273682 8.50275707244873 -2.6881208419799805 4523353 0 -1
