VERSION .7
FIELDS x y z rgb label object
SIZE 4 4 4 4 4 4
TYPE F F F I I I
COUNT 1 1 1 1 1 1
WIDTH 680
HEIGHT 1
POINTS 680
VIEWPOINT 0 0 0 1 0 0 0
DATA ascii
-1.3825563192367554 2.3584744930267334 0.04190056771039963 4725613 0 -1
-1.5830336809158325 2.209886312484741 -0.2933039665222168 4726897 0 -1
-1.3825563192367554 2.3584744930267334 0.04190056771039963 4726897 0 -1
-1.5386258363723755 2.2351484298706055 -0.335204541683197 4728182 0 -1
-1.4032981395721436 2.345724582672119 -0.06285085529088974 4728182 0 -1
-1.8846397399902344 1.979073166847229 -0.08380113542079926 4471684 0 -1
-1.64410400390625 2.1618940830230713 0.3142542541027069 4471684 0 -1
-1.7370984554290771 2.1507959365844727 -0.1059984639286995 4456788 0 -1
-2.351438283920288 1.4540196657180786 -0.1059984639286995 4456788 0 -1
-1.734236240386963 2.147252082824707 0.19079722464084625 4456788 0 -1
-1.6254611015319824 2.2243716716766357 0.25439631938934326 4456788 0 -1
-1.8435066938400269 2.0613012313842773 -0.08479876816272736 4456788 0 -1
-1.693534016609192 2.1827943325042725 0.14839784801006317 4456788 0 -1
-2.3885223865509033 1.380104660987854 -0.211996927857399 4456788 0 -1
-1.9617655277252197 1.9313708543777466 -0.2755959928035736 4456788 0 -1
-1.759367823600769 2.1348297595977783 0.04239938408136368 4456788 0 -1
-2.000623941421509 1.8844239711761475 -0.3179953694343567 4456788 0 -1
-1.8019208908081055 2.0993576049804688 0.02119969204068184 4456788 0 -1
-1.9070758819580078 2.002633571624756 -0.08479876816272736 4456788 0 -1
-1.9070758819580078 2.002633571624756 -0.08479876816272736 4456788 0 -1
-1.7164305448532104 1.9591952562332153 -0.9327864646911621 4456788 0 -1
-1.5836983919143677 2.2108142375946045 -0.5087926387786865 4456788 0 -1
-1.8424229621887207 2.060089349746704 0.12719815969467163 4523353 0 -1
-1.7794667482376099 2.1158764362335205 0.1059984639286995 4657508 0 -1
-1.6676808595657349 2.1928961277008057 0.25439631938934326 4657508 0 -1
-1.8653538227081299 2.042872428894043 -0.04239938408136368 4726897 0 -1
-1.6254611015319824 2.2243716716766357 0.25439631938934326 4726897 0 -1
-2.268367052078247 1.584039568901062 0 4471684 0 -1
-1.884777545928955 2.021411657333374 -0.12719815969467163 4471684 0 -1
-1.0696649551391602 2.5195722579956055 0.40279415249824524 4471684 0 -1
-1.578074336051941 2.292454719543457 0.3002873957157135 4456788 0 -1
-2.2241482734680176 1.6861191987991333 0.21449099481105804 4456788 0 -1
-1.7575349807739258 2.1760995388031006 0.10724549740552902 4456788 0 -1
-1.9290016889572144 2.025658130645752 -0.10724549740552902 4456788 0 -1
-1.8188331127166748 2.119061231613159 -0.19304190576076508 4456788 0 -1
-1.8441351652145386 2.10496187210083 -0.0643472969532013 4456788 0 -1
-1.8660717010498047 2.0865321159362793 0 4523353 0 -1
-1.8008779287338257 2.1413354873657227 0.08579640090465546 4657508 0 -1
-1.5720640420913696 2.2837235927581787 0.38608381152153015 4657508 0 -1
-1.6884491443634033 2.220205307006836 0.2359400987625122 4726897 0 -1
-2.4502997398376465 1.3146698474884033 -0.32173651456832886 3302798 0 -1
-2.0304136276245117 1.9124833345413208 -0.2359400987625122 3302798 0 -1
-1.6056572198867798 2.286539077758789 -0.1715928018093109 3302798 0 -1
-1.414143681526184 2.4123587608337402 -0.1286945939064026 3302798 0 -1
-0.9008357524871826 2.650259256362915 -0.021449100226163864 3302798 0 -1
1.3931679725646973 2.4255764484405518 0.10724549740552902 3302798 0 -1
-1.716651201248169 2.1686654090881348 -0.6075582504272461 4456788 0 -1
-1.8424229621887207 2.146545171737671 -0.13019104301929474 4456788 0 -1
-1.7542738914489746 2.2161946296691895 0.17358806729316711 4456788 0 -1
-1.8658525943756104 2.129750967025757 -0.04339701682329178 4456788 0 -1
-1.6056424379348755 2.332502841949463 0.02169850841164589 4728182 0 -1
-1.4991027116775513 2.3588523864746094 -0.45566868782043457 2912910 0 -1
-1.663137674331665 2.3217101097106934 0.21947915852069855 4456788 0 -1
-1.6859662532806396 2.3071703910827637 0.19753125309944153 4456788 0 -1
-1.6640704870224 2.323012351989746 0.19753125309944153 4456788 0 -1
-1.6868114471435547 2.3083269596099854 0.17558333277702332 4456788 0 -1
-1.6412543058395386 2.337230920791626 0.21947915852069855 4456788 0 -1
-1.6172654628753662 2.3493874073028564 0.2633749842643738 4456788 0 -1
-1.5764878988265991 2.383317470550537 0.19753125309944153 4456788 0 -1
-1.6621060371398926 2.320269823074341 0.24142707884311676 4456788 0 -1
-1.5566543340682983 2.4008376598358154 0.1316874921321869 4456788 0 -1
-1.6429980993270874 2.339714288711548 0.17558333277702332 4456788 0 -1
-1.5578902959823608 2.4027438163757324 0.06584374606609344 4456788 0 -1
-1.685142159461975 2.2605321407318115 0.5048021078109741 4456788 0 -1
-1.685142159461975 2.2605321407318115 0.5048021078109741 4456788 0 -1
-1.6395937204360962 2.2888429164886475 -0.5267499685287476 4456788 0 -1
-1.6719837188720703 2.2880358695983887 0.41701042652130127 4590430 0 -1
-1.650269627571106 2.303746461868286 -0.41701042652130127 4726897 0 -1
-1.57950758934021 2.387882709503174 0.08779166638851166 4726897 0 -1
-1.585793137550354 2.258251428604126 -0.7681770920753479 4471684 0 -1
-1.6453204154968262 2.3430213928222656 0.08779166638851166 2271109 0 -1
-1.6820369958877563 2.348093032836914 0.2219732403755188 4456788 0 -1
-1.7067335844039917 2.335589647293091 0.15538127720355988 4456788 0 -1
-1.597033977508545 2.4143788814544678 0.1109866201877594 4456788 0 -1
-1.595201849937439 2.411609172821045 0.17757859826087952 4456788 0 -1
-1.5251270532608032 2.448488712310791 0.2663678824901581 4456788 0 -1
-1.5743435621261597 2.4281198978424072 0.13318394124507904 4456788 0 -1
-1.551576018333435 2.4414196014404297 0.15538127720355988 4456788 0 -1
-1.5737414360046387 2.4271910190582275 0.15538127720355988 4456788 0 -1
-1.5730462074279785 2.426118850708008 0.17757859826087952 4456788 0 -1
-1.6993273496627808 2.2795608043670654 0.5549331307411194 4456788 0 -1
-1.6156407594680786 2.3942627906799316 0.2219732403755188 4523353 0 -1
-1.6670693159103394 2.3271985054016113 0.4439464807510376 4590430 0 -1
-1.6135401725769043 2.3911497592926025 0.2663678824901581 4725613 0 -1
-1.660591721534729 2.3181560039520264 -0.5105384588241577 4726897 0 -1
-1.595201849937439 2.411609172821045 0.17757859826087952 4726897 0 -1
-1.5472303628921509 2.434581756591797 0.2663678824901581 4471684 0 -1
-1.550113558769226 2.4391183853149414 0.19977591931819916 4341894 0 -1
-1.5713766813278198 2.423543930053711 0.2219732403755188 4212104 0 -1
-1.548283576965332 2.436239004135132 0.24417057633399963 4147337 0 -1
-1.61997652053833 2.4006879329681396 -0.06659197062253952 2139270 0 -1
-1.6202144622802734 2.401040554046631 -0.04439464956521988 8705099 0 -1
-1.5476874113082886 2.484708070755005 0.11223366111516953 4456788 0 -1
-1.634710431098938 2.42252254486084 0.20202060043811798 4456788 0 -1
-1.5259745121002197 2.4997148513793945 0.0673401951789856 4456788 0 -1
-1.5914238691329956 2.454462766647339 0.15712712705135345 4456788 0 -1
-1.5675305128097534 2.466524362564087 0.20202060043811798 4456788 0 -1
-1.6368788480758667 2.4257359504699707 0.1346803903579712 4456788 0 -1
-1.592032790184021 2.455402135848999 0.1346803903579712 4456788 0 -1
-1.6157376766204834 2.442655086517334 0.0673401951789856 4456788 0 -1
-1.6154054403305054 2.442152738571167 0.08978693187236786 4456788 0 -1
-1.592032790184021 2.455402135848999 0.1346803903579712 4456788 0 -1
-1.592032790184021 2.455402135848999 0.1346803903579712 4456788 0 -1
-1.5459119081497192 2.4818575382232666 0.17957386374473572 4456788 0 -1
-1.592969298362732 2.456846237182617 0.08978693187236786 4456788 0 -1
-1.5683163404464722 2.4677608013153076 0.17957386374473572 4456788 0 -1
-1.6114132404327393 2.43611741065979 0.22446732223033905 4523353 0 -1
-1.6304616928100586 2.416226387023926 0.29180753231048584 4725613 0 -1
-1.5646148920059204 2.4619364738464355 0.2693607807159424 4471684 0 -1
-1.5675305128097534 2.466524362564087 0.20202060043811798 4341894 0 -1
-1.5869665145874023 2.4475882053375244 0.2693607807159424 4212104 0 -1
-1.563456416130066 2.460113525390625 0.29180753231048584 4147337 0 -1
-1.5480968952178955 2.485365390777588 0.08978693187236786 2328718 0 -1
-1.5465949773788452 2.482954263687134 0.15712712705135345 2264205 0 -1
-1.5935308933258057 2.457712411880493 -0.04489346593618393 2072968 0 -1
-1.6131254434585571 2.4387059211730957 -0.17957386374473572 2139270 0 -1
-1.5864428281784058 2.4962830543518066 0.15887299180030823 4456788 0 -1
-1.564377784729004 2.511503219604492 0.13617683947086334 4456788 0 -1
-1.6528738737106323 2.449439525604248 0.2042652666568756 4456788 0 -1
-1.5623054504394531 2.508176326751709 0.2042652666568756 4456788 0 -1
-1.6537024974822998 2.4506676197052 0.18156912922859192 4456788 0 -1
-1.6083955764770508 2.4806385040283203 0.18156912922859192 4456788 0 -1
-1.5840591192245483 2.4925320148468018 0.2269614040851593 4456788 0 -1
-1.6528738737106323 2.449439525604248 0.2042652666568756 4456788 0 -1
-1.6323941946029663 2.4678361415863037 0.13617683947086334 4456788 0 -1
-1.6097221374511719 2.482684373855591 0.13617683947086334 4456788 0 -1
-1.6097221374511719 2.482684373855591 0.13617683947086334 4456788 0 -1
-1.5864428281784058 2.4962830543518066 0.15887299180030823 4456788 0 -1
-1.6106688976287842 2.484144687652588 0.09078456461429596 4456788 0 -1
-1.6106688976287842 2.484144687652588 0.09078456461429596 4456788 0 -1
-1.6102429628372192 2.483487606048584 0.11348070204257965 4456788 0 -1
-1.6102429628372192 2.483487606048584 0.11348070204257965 4456788 0 -1
-1.6293178796768188 2.4631853103637695 0.2269614040851593 4523353 0 -1
-1.644319772720337 2.436763048171997 0.36313825845718384 4724328 0 -1
-1.6698228120803833 2.425736904144287 0.31774598360061646 4725613 0 -1
-1.6045994758605957 2.4747836589813232 0.2723536789417267 4471684 0 -1
-1.5840591192245483 2.4925320148468018 0.2269614040851593 4341894 0 -1
-1.6021273136138916 2.470970630645752 0.31774598360061646 4212104 0 -1
-1.5795620679855347 2.4854559898376465 0.31774598360061646 4147337 0 -1
-1.5426125526428223 2.5269696712493896 -0.09078456461429596 3302798 0 -1
-1.5195250511169434 2.5400071144104004 -0.11348070204257965 3107982 0 -1
-1.6770967245101929 2.4363038539886475 0.15887299180030823 2912910 0 -1
-1.5637794733047485 2.510542631149292 0.15887299180030823 2912910 0 -1
-1.5630886554718018 2.5094335079193115 0.18156912922859192 2328718 0 -1
-1.5604610443115234 2.5052151679992676 0.2496575564146042 2264205 0 -1
-1.6329224109649658 2.468634605407715 -0.11348070204257965 2139270 0 -1
-1.656380534172058 2.4546360969543457 -0.06808841973543167 2271109 0 -1
-1.6726138591766357 2.4786927700042725 0.1606188416481018 4456788 0 -1
-1.554745078086853 2.546844244003296 0.25240105390548706 4456788 0 -1
-1.6252554655075073 2.5066416263580322 0.20650994777679443 4456788 0 -1
-1.6497013568878174 2.4940009117126465 0.1606188416481018 4456788 0 -1
-1.6252554655075073 2.5066416263580322 0.20650994777679443 4456788 0 -1
-1.6031678915023804 2.522599935531616 0.18356439471244812 4456788 0 -1
-1.6274113655090332 2.5099666118621826 0.1376732885837555 4456788 0 -1
-1.6038763523101807 2.523714780807495 0.1606188416481018 4456788 0 -1
-1.6497013568878174 2.4940009117126465 0.1606188416481018 4456788 0 -1
-1.58525812625885 2.4944186210632324 0.4818565249443054 4664956 0 -1
-1.6639244556427002 2.465815782546997 0.3441832363605499 4471684 0 -1
-1.571299433708191 2.522615432739258 0.36712878942489624 4212104 0 -1
-1.854164719581604 2.3423876762390137 0.20650994777679443 2912910 0 -1
-1.5809638500213623 2.53813099861145 0.1606188416481018 2328718 0 -1
-1.6023645401000977 2.521336078643799 0.20650994777679443 2264205 0 -1
-1.6289427280426025 2.5123283863067627 -0.04589109867811203 2139270 0 -1
-1.6518855094909668 2.497303009033203 -0.04589109867811203 2271109 0 -1
-1.6750251054763794 2.4822659492492676 0 2468738 0 -1
-1.6344187259674072 2.5207741260528564 0.37111932039260864 4456788 0 -1
-1.752644419670105 2.446659803390503 0.32472941279411316 4456788 0 -1
-1.6365596055984497 2.4741334915161133 0.6030688881874084 4456788 0 -1
-1.739417552947998 2.477020502090454 -0.04638991504907608 4456788 0 -1
-1.7345073223114014 2.4700281620025635 -0.2319495677947998 4657508 0 -1
-1.618755578994751 2.4966166019439697 0.5566789507865906 4664956 0 -1
-1.9474610090255737 2.3156301975250244 -0.09277983009815216 3562893 0 -1
-1.9469459056854248 2.3150177001953125 0.1159747838973999 2977934 0 -1
-1.9910149574279785 2.272615671157837 0.18555966019630432 2912910 0 -1
-1.8721059560775757 2.365053176879883 0.25514453649520874 2912910 0 -1
-1.8721059560775757 2.365053176879883 0.25514453649520874 2912910 0 -1
-1.8378623723983765 2.368818998336792 0.4175092279911041 2718350 0 -1
-1.9140721559524536 2.3225491046905518 0.32472941279411316 2588302 0 -1
-1.808523416519165 2.3780953884124756 0.48709410429000854 2588302 0 -1
-1.8760870695114136 2.370082378387451 0.16236470639705658 2328718 0 -1
-1.6205936670303345 2.5500195026397705 0.18555966019630432 2328718 0 -1
-1.6024891138076782 2.5215320587158203 0.48709410429000854 2264205 0 -1
-1.5138518810272217 2.582448959350586 0.6329978704452515 4456788 0 -1
-1.7564681768417358 2.5013015270233154 0.1406661868095398 4456788 0 -1
-1.781719446182251 2.487247943878174 -0.023444365710020065 4456788 0 -1
-1.685564398765564 2.548218250274658 -0.16411055624485016 4456788 0 -1
-1.8252215385437012 2.448441505432129 -0.18755492568016052 4456788 0 -1
-1.7201013565063477 2.4987761974334717 -0.3985542058944702 4456788 0 -1
-1.7813009023666382 2.486663818359375 0.0703330934047699 4456788 0 -1
-1.781719446182251 2.487247943878174 -0.023444365710020065 4456788 0 -1
-1.7815625667572021 2.4870288372039795 -0.04688873142004013 4657508 0 -1
-1.7809346914291382 2.486152410507202 0.09377746284008026 4724328 0 -1
-1.781719446182251 2.487247943878174 -0.023444365710020065 4725613 0 -1
-1.7578628063201904 2.5032875537872314 -0.0703330934047699 3887499 0 -1
-1.9449681043624878 2.3600385189056396 -0.09377746284008026 3562893 0 -1
-1.6615737676620483 2.5119495391845703 0.53922039270401 3562893 0 -1
-1.7898352146148682 2.449310302734375 0.3985542058944702 2977934 0 -1
-1.8662209510803223 2.4053704738616943 0.30477675795555115 2912910 0 -1
-1.7729099988937378 2.474950075149536 0.30477675795555115 2912910 0 -1
-1.815346598625183 2.4842216968536377 0.3080190420150757 4456788 0 -1
-1.5531378984451294 2.596193790435791 0.6397318840026855 4456788 0 -1
-1.7532877922058105 2.5469858646392822 0.02369377389550209 4456788 0 -1
-1.7600497007369995 2.506401777267456 0.42648792266845703 4456788 0 -1
-1.823081135749817 2.4948060512542725 0.11846886575222015 4456788 0 -1
-1.812329888343811 2.480093240737915 0.35540661215782166 4456788 0 -1
-1.8415379524230957 2.4703290462493896 -0.2606315016746521 4456788 0 -1
-1.7384002208709717 2.5253589153289795 0.40279415249824524 4456788 0 -1
-1.7988227605819702 2.5111238956451416 0.14216263592243195 4456788 0 -1
-1.8007267713546753 2.513781785964966 0 4657508 0 -1
-1.8006739616394043 2.5137081146240234 0.02369377389550209 4725613 0 -1
-1.8005152940750122 2.513486623764038 0.04738754779100418 4726897 0 -1
-1.6729915142059326 2.3824262619018555 -1.0425260066986084 4728182 0 -1
-1.6768572330474854 2.535054922103882 0.5686505436897278 3562893 0 -1
-2.0130245685577393 2.3453073501586914 -0.09477509558200836 3302798 0 -1
-1.8081306219100952 2.4255149364471436 0.6397318840026855 3302798 0 -1
-1.7346584796905518 2.519923210144043 -0.4501816928386688 3302798 0 -1
-1.8620775938034058 2.497882127761841 0.23943181335926056 4456788 0 -1
-1.7709630727767944 2.572662591934204 0.09577272832393646 4456788 0 -1
-1.8609224557876587 2.4963326454162598 0.2633749842643738 4456788 0 -1
-1.7654905319213867 2.5647127628326416 0.2633749842643738 4456788 0 -1
-1.7615712881088257 2.5590193271636963 0.335204541683197 4456788 0 -1
-1.8170623779296875 2.536586046218872 0.1676022708415985 4456788 0 -1
-1.8392359018325806 2.5169129371643066 0.21548862755298615 4590430 0 -1
-1.7198050022125244 2.599982738494873 0.21548862755298615 4657508 0 -1
-1.8177577257156372 2.5375566482543945 0.1436590850353241 4726897 0 -1
-1.8427587747573853 2.5217339992523193 0.09577272832393646 4471684 0 -1
-1.757097601890564 2.552520275115967 0.6048147678375244 4456788 0 -1
-1.8169182538986206 2.5363848209381104 0.4838517904281616 4456788 0 -1
-1.7989846467971802 2.56184720993042 0.4112740159034729 4456788 0 -1
-1.92578125 2.482137441635132 0.31450366973876953 4456788 0 -1
-1.92578125 2.482137441635132 0.31450366973876953 4456788 0 -1
-1.8967969417572021 2.4941694736480713 0.38708144426345825 4456788 0 -1
-1.8429820537567139 2.5220394134521484 0.459659218788147 4523353 0 -1
-1.7585774660110474 2.6060845851898193 0.2903110682964325 4523353 0 -1
-1.8210647106170654 2.542173385620117 0.43546661734580994 4724328 0 -1
-1.8264518976211548 2.5496935844421387 0.3628888428211212 4536450 0 -1
-1.8264518976211548 2.5496935844421387 0.3628888428211212 4471684 0 -1
-1.8803070783615112 2.522336006164551 0.26611849665641785 4341894 0 -1
-1.8499362468719482 2.5315561294555664 0.5866079330444336 4456788 0 -1
-1.8499362468719482 2.5315561294555664 0.5866079330444336 4456788 0 -1
-1.6285951137542725 2.562609910964966 0.9776799082756042 4456788 0 -1
-1.5187240839004517 2.5907602310180664 1.075447916984558 4456788 0 -1
-1.6641780138015747 2.5666720867156982 0.90435391664505 4456788 0 -1
-1.8443069458007812 2.523852586746216 0.6354919672012329 4456788 0 -1
-1.7631895542144775 2.612919330596924 0.4888399541378021 4456788 0 -1
-1.8069158792495728 2.573141574859619 0.537723958492279 4456788 0 -1
-1.7724508047103882 2.5748238563537598 0.6354919672012329 4456788 0 -1
-1.8756529092788696 2.4663665294647217 0.7577019333839417 4456788 0 -1
-1.7904621362686157 2.549710750579834 0.6843759417533875 4456788 0 -1
-1.823190689086914 2.5451409816741943 0.6110499501228333 4456788 0 -1
-1.7272332906723022 2.611212968826294 0.6110499501228333 4456788 0 -1
-1.8356493711471558 2.562533140182495 0.4888399541378021 4456788 0 -1
-1.916351556777954 2.5198826789855957 0.39107197523117065 4456788 0 -1
-1.9144659042358398 2.5174031257629395 0.4155139625072479 4456788 0 -1
-1.8114961385726929 2.5796639919281006 0.4888399541378021 4456788 0 -1
-1.8619818687438965 2.5480399131774902 0.46439796686172485 4523353 0 -1
-1.8640469312667847 2.550865888595581 0.4399559497833252 4724328 0 -1
-1.8398386240005493 2.5683813095092773 0.4399559497833252 4536450 0 -1
-1.8114961385726929 2.5796639919281006 0.4888399541378021 4471684 0 -1
-1.8954745531082153 2.54268217086792 0.3421879708766937 4341894 0 -1
-1.6961194276809692 2.6159353256225586 0.814816415309906 4456788 0 -1
-1.860105276107788 2.5454719066619873 0.6666679382324219 4456788 0 -1
-1.771731972694397 2.6255786418914795 0.5925937294960022 4456788 0 -1
-2.0787112712860107 2.4218366146087646 0.44444531202316284 4456788 0 -1
-1.8150551319122314 2.6367149353027344 -0.37037110328674316 4456788 0 -1
-2.045532703399658 2.4820642471313477 0.19753125309944153 4456788 0 -1
-1.8117908239364624 2.5800838470458984 0.6666679382324219 4456788 0 -1
-1.8445428609848022 2.574948310852051 0.5925937294960022 4456788 0 -1
-1.7393192052841187 2.629484176635742 0.6666679382324219 4456788 0 -1
-1.9376940727233887 2.5479466915130615 0.37037110328674316 4456788 0 -1
-1.8520934581756592 2.585488796234131 0.5185195207595825 4456788 0 -1
-1.8341569900512695 2.6119344234466553 0.44444531202316284 3238030 0 -1
-1.839582920074463 2.619661331176758 0.37037110328674316 3107982 0 -1
-1.9288082122802734 2.587397813796997 0.423993855714798 4456788 0 -1
-2.1094253063201904 2.457620620727539 0.3242305815219879 4456788 0 -1
-2.0142667293548584 2.5446462631225586 0.24940814077854156 4456788 0 -1
-2.0597918033599854 2.499366283416748 0.3242305815219879 4456788 0 -1
-1.9176782369613647 2.624257802963257 0.17458570003509521 4664956 0 -1
-1.8581645488739014 2.646122455596924 0.37411221861839294 3238030 0 -1
-1.8626368045806885 2.6524910926818848 0.2992897629737854 3107982 0 -1
-2.847899913787842 1.7034776210784912 0.10175852477550507 4456788 0 -1
-2.721221923828125 1.8460745811462402 -0.457913339138031 4456788 0 -1
-1.91647207736969 2.622607469558716 -0.6868700385093689 4456788 0 -1
-2.6880388259887695 1.8235630989074707 -0.6868700385093689 4456788 0 -1
-2.1746139526367188 2.381563663482666 -0.7886285185813904 4456788 0 -1
-1.6277061700820923 2.8926584720611572 -0.0763188898563385 4456788 0 -1
-1.9028135538101196 2.5020811557769775 1.0684645175933838 4523353 0 -1
-1.8106633424758911 2.683272123336792 0.7377492785453796 4523353 0 -1
-2.8932135105133057 1.6123335361480713 -0.2289566695690155 4590430 0 -1
-2.7081611156463623 1.8372141122817993 0.5596718788146973 4657508 0 -1
-1.7548706531524658 2.817326784133911 -0.0763188898563385 4471684 0 -1
-1.9073035717010498 2.5585503578186035 0.915826678276062 4341894 0 -1
-1.9102619886398315 2.7203118801116943 -0.43671366572380066 4456788 0 -1
-1.7683237791061401 2.8389246463775635 -0.23120135068893433 4456788 0 -1
-1.890019178390503 2.745614528656006 -0.3596465289592743 4456788 0 -1
-1.906150221824646 2.714456558227539 -0.48809173703193665 4456788 0 -1
-1.880734920501709 2.7321271896362305 -0.48809173703193665 4456788 0 -1
-1.7450075149536133 2.8585150241851807 -0.15413422882556915 4456788 0 -1
-1.8476550579071045 2.7932651042938232 -0.15413422882556915 4456788 0 -1
-1.8726003170013428 2.7750582695007324 -0.17982326447963715 4456788 0 -1
-1.853461742401123 2.692507743835449 0.744982123374939 4523353 0 -1
-2.684255599975586 1.8209965229034424 0.8477382659912109 4590430 0 -1
-2.7098095417022705 1.8383324146270752 0.7192930579185486 4657508 0 -1
-1.7706693410873413 2.8426904678344727 -0.15413422882556915 4471684 0 -1
-2.744856357574463 1.8621081113815308 -0.48809173703193665 4341894 0 -1
-2.0505642890930176 2.642970323562622 -0.5187689065933228 4456788 0 -1
-1.9049654006958008 2.767326593399048 -0.41501516103744507 4456788 0 -1
-1.1666817665100098 3.176053524017334 -0.10375379025936127 4456788 0 -1
-1.81035315990448 2.8486080169677734 -0.2593844532966614 4456788 0 -1
-1.81035315990448 2.8486080169677734 -0.2593844532966614 4456788 0 -1
-1.9067245721817017 2.7698822021484375 -0.38907670974731445 4456788 0 -1
-1.9030908346176147 2.76460337638855 -0.4409535825252533 4456788 0 -1
-1.8989944458007812 2.758652687072754 -0.4928304851055145 4456788 0 -1
-1.9174154996871948 2.7854127883911133 -0.1556306779384613 4456788 0 -1
-1.864879846572876 2.819305419921875 -0.18156912922859192 4456788 0 -1
-1.8899457454681396 2.800762891769409 -0.20750758051872253 4456788 0 -1
-1.9083689451217651 2.772270917892456 -0.36313825845718384 4523353 0 -1
-2.9224274158477783 1.6885986328125 0.2593844532966614 4590430 0 -1
-1.8867686986923218 2.7960546016693115 -0.285322904586792 4590430 0 -1
-2.659520387649536 1.8042162656784058 -1.063476324081421 4728182 0 -1
-1.9224040508270264 2.737602710723877 -0.5187689065933228 4728182 0 -1
-2.265517473220825 2.279402494430542 1.063476324081421 4536450 0 -1
-2.890077829360962 1.7870893478393555 -0.366629958152771 4456788 0 -1
-1.8828113079071045 2.846414089202881 -0.1833149790763855 4456788 0 -1
-1.87881600856781 2.840373992919922 -0.28806641697883606 4456788 0 -1
-2.033557176589966 2.6740005016326904 -0.6285085082054138 4456788 0 -1
-1.8954250812530518 2.80888295173645 -0.4451935291290283 4456788 0 -1
-1.8514610528945923 2.8555197715759277 -0.3142542541027069 4456788 0 -1
-2.759678602218628 1.7064565420150757 -1.073702096939087 4456788 0 -1
-1.952755331993103 2.780824661254883 -0.366629958152771 4456788 0 -1
-1.805051326751709 2.897888422012329 -0.15712712705135345 4456788 0 -1
-1.854911208152771 2.8608407974243164 -0.23569069802761078 4456788 0 -1
-1.9193804264068604 2.7882673740386963 -0.47138139605522156 4456788 0 -1
-1.9071621894836426 2.8262765407562256 0.23569069802761078 4456788 0 -1
-1.9358521699905396 2.8121955394744873 -0.15712712705135345 4456788 0 -1
-1.9081182479858398 2.827693223953247 -0.20950284600257874 4456788 0 -1
-1.9431629180908203 2.767164468765259 -0.4975692331790924 4728182 0 -1
-1.9278795719146729 2.856977939605713 -0.1586235761642456 4456788 0 -1
-3.0416030883789062 2.1845571994781494 -0.8534746766090393 4456788 0 -1
-2.898214817047119 2.3132572174072266 1.000625491142273 4456788 0 -1
-2.2398126125335693 2.945213794708252 1.0300556421279907 4456788 0 -1
-3.101595401763916 2.2276451587677 0.41202226281166077 4456788 0 -1
-3.0808985233306885 2.15144419670105 0.794614315032959 4456788 0 -1
-2.258439302444458 2.9697065353393555 0.9123349785804749 4456788 0 -1
-2.8840208053588867 2.4184656143188477 -0.7651841640472412 4456788 0 -1
-2.92990779876709 2.3976008892059326 -0.6474635601043701 4523353 0 -1
-3.001523971557617 2.39571475982666 0.05886032059788704 4657508 0 -1
3.5012636184692383 1.576520562171936 0.08829048275947571 3562893 0 -1
-3.159919261932373 2.2066256999969482 0.38583439588546753 4456788 0 -1
-2.3303940296173096 3.0036425590515137 0.7419891953468323 4456788 0 -1
-3.083411455154419 2.3375236988067627 0.17807741463184357 4456788 0 -1
-2.957395553588867 2.4799959659576416 0.32647526264190674 4456788 0 -1
-2.9849376678466797 2.4426329135894775 0.35615482926368713 4456788 0 -1
-2.9666309356689453 2.3678643703460693 -0.7716687917709351 4523353 0 -1
-3.34871768951416 1.8661774396896362 0.7482244372367859 4456788 0 -1
-3.0997049808502197 2.102837085723877 1.1073721647262573 4456788 0 -1
-3.0983316898345947 2.1636180877685547 0.9876562356948853 4456788 0 -1
-3.0622551441192627 2.3827333450317383 0.4489346444606781 4456788 0 -1
-3.0782470703125 2.395176649093628 0.20950284600257874 4456788 0 -1
-2.9802188873291016 2.4991350173950195 0.35914772748947144 4456788 0 -1
-3.0077922344207764 2.4613354206085205 0.38907670974731445 4456788 0 -1
-3.0235800743103027 2.4133193492889404 0.5387215614318848 4523353 0 -1
-2.9504168033599854 2.534249782562256 0.35914772748947144 4590430 0 -1
-3.1025280952453613 2.414069652557373 0.24142707884311676 4456788 0 -1
-3.0278172492980957 2.47772216796875 0.45267578959465027 4456788 0 -1
-3.065155029296875 2.446503162384033 0.36214062571525574 4456788 0 -1
-3.0004241466522217 2.516078472137451 0.42249739170074463 4456788 0 -1
-3.005053997039795 2.51996111869812 0.36214062571525574 4456788 0 -1
-3.0328571796417236 2.481846570968628 0.392318993806839 4456788 0 -1
-3.0519680976867676 2.4359776973724365 0.5130325555801392 4523353 0 -1
-3.005053997039795 2.51996111869812 0.36214062571525574 4590430 0 -1
-2.9833593368530273 2.5625457763671875 0.21124869585037231 4657508 0 -1
-2.9877734184265137 2.3247790336608887 -1.0864218473434448 4724328 0 -1
-3.1326496601104736 2.3748512268066406 0.24142707884311676 4725613 0 -1
-2.948786973953247 2.5933148860931396 0.30178385972976685 4725613 0 -1
-3.100353240966797 2.4745969772338867 0.18256676197052002 4456788 0 -1
3.833451747894287 1.034454107284546 -0.06085558608174324 4456788 0 -1
-3.1073596477508545 2.4178287982940674 -0.5172724723815918 4456788 0 -1
-3.032214641571045 2.359358787536621 -1.0041171312332153 4456788 0 -1
-3.0331599712371826 2.4820940494537354 0.6389836668968201 4456788 0 -1
-3.060188055038452 2.504211902618408 0.36513352394104004 4456788 0 -1
-2.8371078968048096 2.67232346534729 0.7606948614120483 4456788 0 -1
-3.083066701889038 2.4607994556427 0.45641690492630005 4456788 0 -1
-3.1104202270507812 2.420210361480713 0.4868446886539459 4523353 0 -1
-3.0168540477752686 2.5298562049865723 0.5172724723815918 4590430 0 -1
-2.777379274368286 2.7343478202819824 0.7606948614120483 4590430 0 -1
-3.1532297134399414 2.3904528617858887 0.33470574021339417 4657508 0 -1
-2.796358346939087 2.753032922744751 0.6085558533668518 4657508 0 -1
-3.055213689804077 2.3161470890045166 -1.0345449447631836 4724328 0 -1
-2.9817843437194824 2.5004475116729736 0.7911226153373718 4724328 0 -1
-3.1340627670288086 2.4386065006256104 0 4726897 0 -1
-2.901709794998169 2.6722490787506104 0.45641690492630005 4726897 0 -1
-3.006277561187744 2.6438751220703125 -0.030677201226353645 4456788 0 -1
-3.220254898071289 2.37701678276062 0.09203160554170609 4456788 0 -1
-2.8464694023132324 2.6811411380767822 0.8589616417884827 4456788 0 -1
-2.871382474899292 2.644319772720337 0.8896388411521912 4456788 0 -1
-3.126086473464966 2.4324002265930176 0.5828668475151062 4523353 0 -1
-2.884850025177002 2.596668004989624 0.9816704392433167 4523353 0 -1
-2.884850025177002 2.596668004989624 0.9816704392433167 4523353 0 -1
-3.170689344406128 2.3404300212860107 0.7055756449699402 4590430 0 -1
-3.213437557220459 2.3719847202301025 0.27609482407569885 4657508 0 -1
-2.856097459793091 2.75072979927063 0.5521896481513977 4657508 0 -1
-2.95851731300354 2.6629762649536133 0.42948082089424133 4726897 0 -1
-2.334845781326294 3.259402275085449 -0.4638991355895996 4456788 0 -1
-2.8431591987609863 2.8605847358703613 0.1546330451965332 4456788 0 -1
-3.2778356075286865 2.3542253971099854 0.06185321882367134 4456788 0 -1
-3.3091471195220947 2.3108341693878174 0 4523353 0 -1
-2.942943572998047 2.5278306007385254 1.1133579015731812 4523353 0 -1
-3.339191198348999 2.2653043270111084 0.09277983009815216 4590430 0 -1
-3.215517520904541 2.4376728534698486 0.09277983009815216 4590430 0 -1
-2.9290714263916016 2.5159151554107666 1.1752111911773682 4590430 0 -1
-3.0703155994415283 2.5124993324279785 0.7422386407852173 2006409 0 -1
-2.3503174781799316 3.2163054943084717 0.6494588255882263 2006409 0 -1
-2.451545476913452 3.159794807434082 0.7482244372367859 4456788 0 -1
-3.1250243186950684 2.5572686195373535 0.49881628155708313 4456788 0 -1
-2.349189519882202 3.279425859451294 -0.5299922823905945 4456788 0 -1
-3.0569283962249756 2.625737428665161 -0.5611683130264282 4456788 0 -1
-3.273385763168335 2.4162349700927734 -0.031176017597317696 4456788 0 -1
-3.327237606048584 2.257194995880127 -0.6235203742980957 4523353 0 -1
-3.068615436553955 2.6357760429382324 -0.43646425008773804 4523353 0 -1
-3.2096211910247803 2.4973983764648438 -0.12470407038927078 4590430 0 -1
-2.908205509185791 2.5576255321502686 -1.2470407485961914 4657508 0 -1
-3.0499680042266846 2.6197588443756104 0.6235203742980957 2458766 0 -1
-2.3101398944854736 3.2249133586883545 0.9041045308113098 2458766 0 -1
-2.291330099105835 3.262972593307495 0.8105764389038086 2070155 0 -1
-2.2983238697052 3.272932291030884 0.7482244372367859 2070922 0 -1
-3.107745885848999 2.5431292057037354 0.6546963453292847 2006409 0 -1
-2.3629798889160156 3.233633518218994 0.7170484066009521 2006409 0 -1
-2.419686794281006 3.311234474182129 -0.03142542764544487 4456788 0 -1
-3.0425338745117188 2.7385997772216797 0.25140342116355896 4456788 0 -1
-2.3858070373535156 3.330543279647827 0.18855255842208862 4456788 0 -1
-2.4115536212921143 3.1710426807403564 0.9741882085800171 4456788 0 -1
-3.115767240524292 2.612802267074585 0.5342322587966919 4456788 0 -1
-3.0876479148864746 2.6521239280700684 -0.5028068423271179 4456788 0 -1
-3.3621256351470947 2.347830057144165 0.06285085529088974 4456788 0 -1
-3.35778546333313 2.277918577194214 -0.5970830917358398 4523353 0 -1
-2.955212116241455 2.660001277923584 1.0056136846542358 4523353 0 -1
-2.96895432472229 2.5501725673675537 -1.2255916595458984 4724328 0 -1
-2.2589237689971924 3.2815189361572266 0.9741882085800171 4724328 0 -1
-3.112508773803711 2.610069990158081 0.5656576752662659 2523534 0 -1
-2.3132588863372803 3.2942001819610596 0.7856356501579285 2523534 0 -1
-3.112508773803711 2.610069990158081 0.5656576752662659 2458766 0 -1
-2.340456247329712 3.2672343254089355 0.8170610666275024 2458766 0 -1
-3.115767240524292 2.612802267074585 0.5342322587966919 2070155 0 -1
-2.340456247329712 3.2672343254089355 0.8170610666275024 2070155 0 -1
-2.347599983215332 3.277207136154175 0.7542102336883545 2070922 0 -1
-3.140151262283325 2.5696473121643066 0.5970830917358398 2006409 0 -1
-2.3784894943237305 3.2548577785491943 0.7542102336883545 2006409 0 -1
-3.0702030658721924 2.763505220413208 0.15837417542934418 4456788 0 -1
-2.504054546356201 3.227473258972168 0.6334967017173767 4456788 0 -1
-2.372192859649658 3.3781251907348633 0.22172383964061737 4456788 0 -1
-3.162923812866211 2.652346611022949 0.22172383964061737 4456788 0 -1
-2.380131244659424 3.192824602127075 -1.108619213104248 4456788 0 -1
-2.9864094257354736 2.812953233718872 0.5067973732948303 4456788 0 -1
-3.356645107269287 2.4108285903930664 -0.09502450376749039 4456788 0 -1
-3.357529878616333 2.277745246887207 0.7918708324432373 4523353 0 -1
-3.1641340255737305 2.6533615589141846 0.19004900753498077 4523353 0 -1
-2.7097082138061523 3.0929579734802246 0.670409083366394 4456788 0 -1
-2.330195903778076 3.4531819820404053 0.06384848058223724 4456788 0 -1
-3.0127041339874268 2.8377206325531006 0.4788636267185211 4456788 0 -1
-2.4523143768310547 3.355884075164795 0.2873181700706482 4456788 0 -1
-2.2283780574798584 3.36883807182312 1.021575689315796 4664956 0 -1
-2.380220890045166 3.457726240158081 0.09652095288038254 4147337 0 -1
-2.693166732788086 3.3345563411712646 0.2962968647480011 4456788 0 -1
-2.53468656539917 3.46860671043396 0.06584374606609344 4456788 0 -1
-4.39841365814209 2.541433572769165 -1.4141441583633423 4456788 0 -1
-3.0680832862854004 4.034337997436523 -1.4545482397079468 4523353 0 -1
-4.50616979598999 2.603695869445801 0.8484864830970764 4657508 0 -1
-3.913377523422241 3.2023932933807373 1.4949524402618408 4657508 0 -1
-3.014967918395996 4.0444254875183105 1.5353565216064453 4657508 0 -1
-3.109576463699341 4.2553181648254395 0.6098029017448425 4456788 0 -1
-4.433786392211914 2.8307180404663086 0.6911099553108215 4456788 0 -1
-3.264878988265991 4.12455940246582 0.6911099553108215 4456788 0 -1
-3.2881956100463867 4.15401554107666 0.2845746874809265 4456788 0 -1
-4.593848705291748 2.6543571949005127 0 4456788 0 -1
-3.1968154907226562 4.120372295379639 -0.975684642791748 4523353 0 -1
-4.5188469886779785 2.702958345413208 0.650456428527832 4657508 0 -1
-3.4664146900177 3.9566898345947266 0.6911099553108215 4657508 0 -1
-4.327747821807861 2.9359402656555176 0.894377589225769 4724328 0 -1
-3.521873712539673 3.937952756881714 0.487842321395874 4724328 0 -1
-4.7397236824035645 2.4434187412261963 -0.24541760981082916 4456788 0 -1
-3.5581374168395996 3.9785008430480957 0.08180586993694305 4456788 0 -1
-3.941290855407715 3.5475757122039795 -0.6135440468788147 4456788 0 -1
-3.296659469604492 4.164708137512207 0.5317381620407104 4456788 0 -1
-3.34773325920105 4.145010471343994 0.3272234797477722 4456788 0 -1
-3.434232473373413 4.083477020263672 0.1636117398738861 4456788 0 -1
-3.5125887393951416 4.009394645690918 -0.2863205373287201 4456788 0 -1
-3.395946979522705 3.7971489429473877 -1.5952144861221313 4456788 0 -1
-4.62148904800415 2.670328140258789 0.08180586993694305 4456788 0 -1
-3.384962558746338 4.107337951660156 -0.40902936458587646 4456788 0 -1
-3.4187581539154053 4.065077304840088 -0.5317381620407104 4523353 0 -1
-3.500157117843628 3.995204448699951 0.5317381620407104 4657508 0 -1
-4.620810508728027 2.669935941696167 -0.12270880490541458 4471684 0 -1
-3.392451047897339 4.116424560546875 0.20451468229293823 4471684 0 -1
-1.8927855491638184 5.0254011154174805 0.0823046863079071 4456788 0 -1
-3.7027323246002197 3.8882646560668945 -0.12345702946186066 4456788 0 -1
-3.7421138286590576 3.846857786178589 -0.20576171576976776 4456788 0 -1
-3.3214783668518066 4.196062088012695 0.45267578959465027 4456788 0 -1
-3.4953811168670654 4.072350978851318 0.20576171576976776 4456788 0 -1
-3.4929139614105225 4.06947660446167 -0.28806641697883606 4456788 0 -1
-3.380336284637451 3.779694080352783 -1.7695508003234863 4456788 0 -1
-4.646800518035889 2.684953451156616 0.20576171576976776 4456788 0 -1
-3.4034900665283203 4.129819393157959 -0.45267578959465027 4456788 0 -1
-3.4338881969451904 4.083067417144775 -0.6172851324081421 4523353 0 -1
-3.5089473724365234 4.005238056182861 0.6995898485183716 4657508 0 -1
-4.692196846008301 2.5175247192382812 -0.6995898485183716 4726897 0 -1
-3.6517908573150635 3.9165217876434326 -0.4115234315395355 4726897 0 -1
-3.8493454456329346 3.789705276489258 -0.12420525401830673 4456788 0 -1
-4.676199913024902 2.7019405364990234 0.1656070053577423 4456788 0 -1
-3.8913075923919678 3.747749090194702 0.08280350267887115 4456788 0 -1
-3.8913075923919678 3.747749090194702 0.08280350267887115 4523353 0 -1
-3.6820507049560547 3.948975086212158 -0.20700876414775848 4523353 0 -1
-3.9558145999908447 3.726053476333618 0.12495347857475281 4456788 0 -1
-3.9150941371917725 3.770658016204834 -0.0416511595249176 4456788 0 -1
-3.9567439556121826 3.726928949356079 -0.0416511595249176 4523353 0 -1
-3.5815789699554443 4.088142395019531 0.0833023190498352 4657508 0 -1
-4.147669315338135 3.5626251697540283 -0.08380113542079926 4456788 0 -1
-4.485634803771973 2.8638203144073486 -1.2570170164108276 4456788 0 -1
-4.148034572601318 3.562938928604126 -0.04190056771039963 4456788 0 -1
-3.9776315689086914 3.74660325050354 -0.20950284600257874 4523353 0 -1
-4.130212783813477 3.632321357727051 0.0842999517917633 4456788 0 -1
-4.445044040679932 2.926835060119629 -1.3909492492675781 4456788 0 -1
-4.170886993408203 3.582568407058716 -0.1685999035835266 4456788 0 -1
-4.214873790740967 3.53448486328125 -0.04214997589588165 4523353 0 -1
-3.43273663520813 4.336616039276123 0.1695975363254547 4456788 0 -1
-3.2261881828308105 4.414896011352539 -0.847987711429596 4456788 0 -1
5.086613655090332 2.055603504180908 -0.7207895517349243 4456788 0 -1
-2.035766363143921 4.79520320892334 1.8655729293823242 4456788 0 -1
-4.607945919036865 3.03409743309021 0.423993855714798 4456788 0 -1
-3.5289154052734375 3.945826530456543 -1.611176609992981 4523353 0 -1
-3.766448736190796 4.039491653442383 0.3391950726509094 4590430 0 -1
-1.9176398515701294 4.967504024505615 1.6206541061401367 4456788 0 -1
-2.0704050064086914 4.876793384552002 1.7059516906738281 4456788 0 -1
-1.974626898765564 4.992484092712402 1.5872334241867065 4456788 0 -1
4.82656192779541 2.589616060256958 1.158251404762268 4456788 0 -1
-3.5500826835632324 4.307696342468262 0.4289819896221161 4456788 0 -1
4.772974967956543 2.5608649253845215 -1.4156405925750732 4456788 0 -1
4.917410850524902 2.535020112991333 -0.8579639792442322 4456788 0 -1
4.886144638061523 2.621584415435791 -0.7721676230430603 4456788 0 -1
-3.606372833251953 4.288160800933838 0.560918927192688 4456788 0 -1
-2.0537211894989014 5.069713592529297 1.337575912475586 4456788 0 -1
-4.772341728210449 2.950993537902832 0.4746236801147461 4456788 0 -1
-3.4963107109069824 4.328972339630127 0.8629521727561951 4456788 0 -1
4.957287788391113 2.555577516555786 -0.7766569256782532 4456788 0 -1
4.937295913696289 2.649028778076172 -0.560918927192688 4456788 0 -1
-3.6732735633850098 4.367709159851074 1.5887298583984375 4657508 0 -1
-3.2994027137756348 4.988001823425293 -0.3212376832962036 4456788 0 -1
-1.9269168376922607 5.668990612030029 -0.1376732885837555 4456788 0 -1
-3.6891376972198486 4.6605305671691895 0.7342575788497925 4456788 0 -1
-3.8493032455444336 4.577017307281494 0.3212376832962036 4456788 0 -1
-3.4122672080993652 4.763463020324707 1.2390596866607666 4456788 0 -1
-3.5186450481414795 4.815110206604004 -0.550693154335022 4456788 0 -1
-4.588974952697754 3.848196506500244 -0.04589109867811203 4456788 0 -1
-3.462780237197876 4.738661766052246 -1.1931685209274292 4456788 0 -1
-3.552722692489624 4.6716084480285645 -1.1931685209274292 4523353 0 -1
-3.5206525325775146 4.5377655029296875 -1.6979706287384033 4657508 0 -1
-2.906083822250366 5.27217960357666 0.13842152059078217 4456788 0 -1
-3.6597900390625 4.717099666595459 0.7843886017799377 4456788 0 -1
-3.8134384155273438 4.627254009246826 0.5536860823631287 4456788 0 -1
-3.6424238681793213 4.789559841156006 0.23070253431797028 4456788 0 -1
-3.804025650024414 4.52318000793457 -1.1535125970840454 4456788 0 -1
-3.5401763916015625 4.844574928283691 -0.5075455904006958 4456788 0 -1
-3.5401763916015625 4.844574928283691 -0.5075455904006958 4456788 0 -1
-3.542628526687622 4.752255439758301 -1.0612316131591797 4523353 0 -1
-3.4579973220825195 4.9243669509887695 -0.23070253431797028 4726897 0 -1
-3.617602586746216 4.756921291351318 -0.7382481098175049 4728182 0 -1
-3.617602586746216 4.756921291351318 -0.7382481098175049 4728182 0 -1
-3.030468702316284 4.865213871002197 1.8456202745437622 4728182 0 -1
-3.7752768993377686 4.674375534057617 0.7422386407852173 4456788 0 -1
-3.6716525554656982 4.732389450073242 -0.8814083933830261 4456788 0 -1
-3.5080983638763428 4.897241592407227 -0.6030688881874084 4456788 0 -1
-3.4206128120422363 5.17124605178833 -1.0108511447906494 3107982 0 -1
-3.599569082260132 5.125972270965576 -0.48135772347450256 2912910 0 -1
-3.4689748287200928 5.244359016418457 -0.580622136592865 3432845 0 -1
-3.5788211822509766 5.198922157287598 -0.19354072213172913 2912910 0 -1
-3.5015876293182373 5.2936625480651855 0.04863458871841431 3432845 0 -1
-4.012648582458496 5.069225788116455 1.0026206970214844 4523353 0 -1
-4.032612323760986 5.094445705413818 1.0076088905334473 4523353 0 -1
-3.7235071659088135 5.51796817779541 -0.46015802025794983 4456788 0 -1
-3.7795207500457764 5.490477085113525 -0.30677202343940735 4456788 0 -1
-4.147881507873535 5.135717868804932 -0.9714447259902954 4523353 0 -1
-3.823376417160034 5.444685935974121 -0.5112866759300232 4523353 0 -1
-3.748837471008301 5.555506229400635 -0.20551231503486633 4456788 0 -1
-3.7979576587677 5.51725959777832 -0.3082684576511383 4456788 0 -1
-3.7965047359466553 5.5151495933532715 -0.3596465289592743 4523353 0 -1
-4.092421531677246 5.067049980163574 1.59272038936615 4590430 0 -1
-3.893254041671753 5.434912204742432 -0.5137807726860046 4590430 0 -1
-4.02114725112915 5.394163608551025 -0.36139240860939026 4456788 0 -1
-3.817629098892212 5.545836448669434 -0.25813743472099304 4456788 0 -1
-2.3922526836395264 6.680151462554932 -0.05437097325921059 2994813 4 -1
-2.283581018447876 6.718296527862549 0 3257723 4 -1
-2.2833127975463867 6.717507362365723 0.10874194651842117 5424489 4 -1
-2.2835140228271484 6.718099117279053 0.05437097325921059 10016830 4 -1
-2.3486075401306152 6.730103969573975 -0.05462038144469261 2139270 4 -1
-2.2937867641448975 6.748322010040283 0.10924076288938522 2271109 4 -1
-2.403014659881592 6.710203170776367 0.10924076288938522 2994813 4 -1
-2.3486075401306152 6.730103969573975 0.05462038144469261 3257723 4 -1
-2.403296947479248 6.710991382598877 0 5424489 4 -1
-2.293449878692627 6.747331142425537 0.16386115550994873 9360965 4 -1
-2.293449878692627 6.747331142425537 0.16386115550994873 10016830 4 -1
-2.292978286743164 6.745943546295166 0.21848152577877045 10672695 4 -1
-2.291630268096924 6.741978168487549 0.32772231101989746 13164576 4 -1
-2.523714065551758 6.700535297393799 0.10973957926034927 2134668 4 -1
-2.303922176361084 6.778140544891357 -0.1646093726158142 2134668 4 -1
-2.359400987625122 6.761033535003662 0 2139270 4 -1
-2.304260492324829 6.7791361808776855 -0.10973957926034927 2468738 4 -1
-2.3593318462371826 6.760834693908691 0.05486978963017464 4505456 4 -1
-2.467327833175659 6.716797828674316 0.2743489444255829 5424489 4 -1
-2.358292579650879 6.757856845855713 0.21947915852069855 6933851 4 -1
-2.357668876647949 6.756069660186768 0.2743489444255829 10016830 4 -1
-2.3028392791748047 6.774954795837402 0.2743489444255829 10672695 4 -1
-2.2472827434539795 6.791147232055664 0.3292187452316284 13164576 4 -1
-2.31439471244812 6.808950424194336 -0.16535760462284088 2264205 4 -1
-2.31439471244812 6.808950424194336 -0.16535760462284088 2199437 4 -1
-2.5354087352752686 6.7315850257873535 0.05511919781565666 2134668 4 -1
-2.31473445892334 6.809950351715088 -0.11023839563131332 2134668 4 -1
-2.4800727367401123 6.751492977142334 -0.11023839563131332 2070155 4 -1
-2.42517352104187 6.772079944610596 0.05511919781565666 2271109 4 -1
-2.369847297668457 6.79096794128418 0.11023839563131332 2468738 4 -1
-2.3683855533599854 6.786778926849365 0.2755959928035736 4505456 4 -1
-2.422680377960205 6.765117645263672 0.33071520924568176 4899181 4 -1
-2.4767935276031494 6.742566108703613 0.38583439588546753 5424489 4 -1
-2.366713762283325 6.781988620758057 0.38583439588546753 5949540 4 -1
-2.367619514465332 6.784584045410156 0.33071520924568176 6933851 4 -1
-2.31255841255188 6.803548336029053 0.33071520924568176 10672695 4 -1
-2.258228063583374 6.824223518371582 0.2755959928035736 12640037 4 -1
-2.257497549057007 6.82201623916626 0.33071520924568176 13164576 4 -1
-2.380850076675415 6.822497367858887 0 2328718 4 -1
-2.325413227081299 6.841367244720459 -0.05536860600113869 2264205 4 -1
-2.325413227081299 6.841367244720459 -0.05536860600113869 2199437 4 -1
-2.3807802200317383 6.822297096252441 0.05536860600113869 2271109 4 -1
-2.4344301223754883 6.7979278564453125 0.27684304118156433 3257723 4 -1
-2.3783326148986816 6.815283298492432 0.3322116434574127 4505456 4 -1
-2.4327118396759033 6.793129920959473 0.3875802457332611 4899181 4 -1
-2.5442628860473633 6.755092620849609 0.3322116434574127 5424489 4 -1
-2.325413227081299 6.841367244720459 0.05536860600113869 5424489 4 -1
-2.5394680500030518 6.7423624992370605 0.5536860823631287 5949540 4 -1
-2.324867010116577 6.8397603034973145 0.16610582172870636 5949540 4 -1
-2.324867010116577 6.8397603034973145 0.16610582172870636 6343264 4 -1
-2.2137038707733154 6.8749823570251465 0.22147442400455475 6933851 4 -1
-2.2677125930786133 6.852884769439697 0.3322116434574127 10672695 4 -1
-2.2677125930786133 6.852884769439697 0.3322116434574127 12640037 4 -1
-2.2677125930786133 6.852884769439697 0.3322116434574127 13164576 4 -1
-2.5016348361968994 6.810191631317139 -0.22247205674648285 4471684 4 -1
-2.1547276973724365 6.880953788757324 -0.8342702388763428 4471684 0 -1
-2.332594156265259 6.86249303817749 -0.3893260955810547 4341894 4 -1
-2.272224187850952 6.866518974304199 -0.6117981672286987 3887499 4 -1
-2.3898189067840576 6.848197937011719 -0.27809008955955505 3757452 4 -1
-2.4436700344085693 6.823729515075684 -0.3893260955810547 2458766 4 -1
-2.39129376411438 6.852424621582031 0.11123602837324142 2328718 4 -1
-2.5565502643585205 6.787716865539551 0.27809008955955505 2264205 4 -1
-2.335956573486328 6.8723859786987305 0 2264205 4 -1
-2.335956573486328 6.8723859786987305 0 2199437 4 -1
-2.4471209049224854 6.8333659172058105 0.05561801418662071 2072968 4 -1
-2.446043014526367 6.830355644226074 0.22247205674648285 3257723 4 -1
-2.333486557006836 6.865118980407715 0.33370810747146606 4505456 4 -1
-2.4425904750823975 6.820715427398682 0.4449441134929657 4899181 4 -1
-2.3348591327667236 6.869157314300537 0.22247205674648285 5424489 4 -1
-2.3356823921203613 6.871578693389893 0.11123602837324142 5949540 4 -1
-2.2223682403564453 6.901891231536865 0.33370810747146606 10672695 4 -1
-2.332594156265259 6.86249303817749 0.3893260955810547 13164576 4 -1
-2.3903510570526123 6.8497233390808105 -0.7262765169143677 4725613 4 -1
-2.450939655303955 6.844029426574707 -0.5586742162704468 4726897 4 -1
-2.1556153297424316 6.883788585662842 -1.06148099899292 4726897 0 -1
-2.4494192600250244 6.839784145355225 -0.6145416498184204 4728182 4 -1
-2.158006191253662 6.891423225402832 -1.0056136846542358 4728182 0 -1
-2.2267448902130127 6.915483474731445 -0.6145416498184204 4471684 4 -1
-2.4570116996765137 6.860985279083252 -0.22346968948841095 4341894 4 -1
-2.172423839569092 6.937465190887451 -0.5586742162704468 4341894 4 -1
-2.512852907180786 6.840730667114258 0.22346968948841095 2458766 4 -1
-2.5671842098236084 6.815949440002441 0.335204541683197 2328718 4 -1
-2.62083101272583 6.789068698883057 0.4469393789768219 2264205 4 -1
-2.62083101272583 6.789068698883057 0.4469393789768219 2264205 4 -1
-2.4578778743743896 6.863404273986816 0.11173484474420547 2072968 4 -1
-2.624535322189331 6.798664569854736 0.22346968948841095 3257723 4 -1
-2.401170492172241 6.880727291107178 0.22346968948841095 3257723 4 -1
-2.3430540561676025 6.893266677856445 0.39107197523117065 4505456 4 -1
-2.4535439014434814 6.851301670074463 0.4469393789768219 4899181 4 -1
-2.3447091579437256 6.898135662078857 0.2793371081352234 5424489 4 -1
-2.6752521991729736 6.763887405395508 0.5028068423271179 5949540 4 -1
