VERSION .7
FIELDS x y z rgb label object
SIZE 4 4 4 4 4 4
TYPE F F F I I I
COUNT 1 1 1 1 1 1
WIDTH 654
HEIGHT 1
POINTS 654
VIEWPOINT 0 0 0 1 0 0 0
DATA ascii
0.3344460725784302 0.5705246925354004 0.17283983528614044 4456788 0 -1
0.47492292523384094 0.4882163107395172 -0.05761327967047691 4456788 0 -1
0.5127392411231995 0.4509292542934418 -0.03142542764544487 4456788 0 -1
0.6064156889915466 0.3126189708709717 -0.04190056771039963 4456788 0 -1
0.6440510153770447 0.2284243255853653 0.015712713822722435 4456788 0 -1
0.5046774744987488 0.45426273345947266 -0.07856356352567673 4147337 0 -1
0.6248816847801208 0.26715612411499023 -0.0733259916305542 4147337 0 -1
-0.6493825316429138 0.21311697363853455 0.010475141927599907 3887499 0 -1
0.5169950723648071 0.44407105445861816 -0.052375711500644684 3887499 0 -1
0.6253825426101685 0.2673702538013458 -0.06808841973543167 3887499 0 -1
-0.5941171646118164 0.3911958634853363 0.0823046863079071 4456788 0 -1
0.6144694685935974 0.36754629015922546 -0.010973958298563957 4456788 0 -1
0.641957700252533 0.3172438442707062 -0.005486979149281979 4456788 0 -1
-0.21765539050102234 0.6577409505844116 0.18107031285762787 4212104 0 -1
0.14733165502548218 0.6707163453102112 -0.20301823318004608 4212104 0 -1
0.43082916736602783 0.5552952885627747 -0.13717447221279144 4212104 0 -1
0.641505241394043 0.3170202374458313 -0.02743489481508732 4212104 0 -1
-0.6182057857513428 0.35720354318618774 -0.05486978963017464 4147337 0 -1
-0.570495069026947 0.43249034881591797 0.01646093651652336 4147337 0 -1
0.6546379923820496 0.27987784147262573 -0.07681770622730255 4147337 0 -1
0.696662187576294 0.16484616696834564 -0.01646093651652336 4147337 0 -1
-2.013136148452759 1.6881641149520874 -0.47038376331329346 3757452 7 -1
-1.8362500667572021 1.9282588958740234 -0.18406321108341217 3757452 7 -1
-1.3496383428573608 2.3023204803466797 -0.04090293496847153 3757452 7 -1
-1.9466125965118408 1.7926788330078125 -0.3476749360561371 3107982 7 -1
-1.7588262557983398 2.007587194442749 0 2912910 7 -1
-1.2670600414276123 2.3469083309173584 0.10225734114646912 2912910 7 -1
-1.9741140604019165 1.8180054426193237 -0.31051313877105713 4456788 7 -1
-1.4061710834503174 2.3034634590148926 -0.12420525401830673 4456788 7 -1
-1.9887943267822266 1.790123701095581 -0.3726157546043396 4456788 7 -1
-1.591560959815979 2.134997844696045 -0.45541927218437195 4456788 7 -1
-1.4830501079559326 2.2420592308044434 -0.26911139488220215 4456788 7 -1
-1.3453989028930664 2.3424081802368164 -0.04140175133943558 4456788 7 -1
-1.4830501079559326 2.2420592308044434 -0.26911139488220215 4456788 7 -1
-1.611965537071228 2.1196341514587402 -0.45541927218437195 4456788 7 -1
-1.4860811233520508 2.2466416358947754 -0.20700876414775848 4456788 7 -1
-1.898881435394287 1.9105195999145508 -0.20700876414775848 4456788 7 -1
-1.3849622011184692 2.3150746822357178 -0.14490613341331482 4456788 7 -1
-1.241140604019165 2.3974039554595947 0.10350438207387924 4456788 7 -1
-1.75626540184021 2.046165943145752 -0.1656070053577423 4456788 7 -1
-1.3828810453414917 2.311595916748047 -0.20700876414775848 4456788 7 -1
-2.0990660190582275 1.5912948846817017 -0.6003254055976868 3757452 7 -1
-1.9183307886123657 1.8886089324951172 -0.22770963609218597 3757452 7 -1
-1.4050123691558838 2.301565408706665 -0.1656070053577423 3757452 7 -1
-1.9535503387451172 1.8400845527648926 -0.31051313877105713 3107982 7 -1
-2.0275516510009766 1.7415580749511719 -0.3933166265487671 2912910 7 -1
-1.4860811233520508 2.2466416358947754 -0.20700876414775848 2912910 7 -1
-1.4860811233520508 2.2466416358947754 -0.20700876414775848 2912910 7 -1
-2.0092973709106445 1.767079472541809 -0.3726157546043396 2264205 7 -1
-1.4263043403625488 2.2898354530334473 -0.14490613341331482 2264205 7 -1
-1.1963783502578735 2.4115381240844727 0.22770963609218597 2264205 7 -1
-1.78022301197052 2.032010316848755 -0.02070087566971779 2666112 7 -1
-1.3854920864105225 2.31596040725708 -0.12420525401830673 2666112 7 -1
-2.1485626697540283 1.5431528091430664 -0.6913593411445618 3757452 7 -1
-2.0263733863830566 1.7820969820022583 -0.4399559497833252 3757452 7 -1
-1.5338032245635986 2.228142499923706 -0.39805540442466736 3757452 7 -1
-1.4219402074813843 2.3292951583862305 -0.1676022708415985 3757452 7 -1
-1.23166823387146 2.430124521255493 0.23045311868190765 3757452 7 -1
-1.4846729040145874 2.2898201942443848 -0.1676022708415985 2912910 7 -1
-1.4026384353637695 2.3446221351623535 -0.10475142300128937 2912910 7 -1
-2.2895667552948 1.5532400608062744 0 4212104 0 -1
-1.73832368850708 2.152312994003296 0.02119969204068184 4212104 7 -1
-1.1625550985336304 2.501638174057007 0.211996927857399 4212104 7 -1
-1.843885898590088 2.06172513961792 -0.06359907984733582 3562893 7 -1
-1.6242574453353882 2.222724676132202 0.2755959928035736 3562893 7 -1
-1.1625550985336304 2.501638174057007 0.211996927857399 3562893 7 -1
-1.7920035123825073 2.403881072998047 0.6095535159111023 3692940 0 -1
-1.8220272064208984 2.301788091659546 0.9714447259902954 3757452 7 -1
-1.8220272064208984 2.301788091659546 0.9714447259902954 3692940 7 -1
-2.054211378097534 2.34475040435791 -0.21548862755298615 4456788 0 -1
-1.846057653427124 2.332145929336548 0.9577272534370422 3757452 7 -1
-1.841206431388855 2.326017379760742 0.9816704392433167 3692940 7 -1
-1.891418695449829 2.3418684005737305 0.8380113840103149 2782862 7 -1
-1.914254903793335 2.370143175125122 0.6943522691726685 2718350 7 -1
-2.0558266639709473 2.395174741744995 -0.07257776707410812 4456788 0 -1
-1.842259168624878 2.374485969543457 0.9677035808563232 3757452 7 -1
-1.883353352546692 2.3318822383880615 0.9918961524963379 3432845 7 -1
-1.9113438129425049 2.3192384243011475 0.9677035808563232 2782862 7 -1
-2.0458219051361084 2.432586193084717 0.2688619792461395 4456788 0 -1
-1.8983994722366333 2.5466058254241943 0.2933039665222168 4456788 0 -1
-1.9174013137817383 2.3740386962890625 0.9287959337234497 3432845 7 -1
-1.8516910076141357 2.4348580837249756 0.90435391664505 3432845 7 -1
-1.9174013137817383 2.3740386962890625 0.9287959337234497 2782862 7 -1
-2.0323572158813477 2.567500352859497 -0.7192930579185486 4456788 0 -1
-1.8389376401901245 2.7800862789154053 -0.3596465289592743 4456788 0 -1
-1.4140515327453613 2.976618528366089 -0.6165369153022766 4456788 0 -1
-1.2780635356903076 3.0813865661621094 -0.3339574933052063 4456788 0 -1
-1.8417752981185913 2.7843761444091797 -0.3082684576511383 4456788 0 -1
-1.8389376401901245 2.7800862789154053 -0.3596465289592743 4456788 0 -1
-1.6942317485809326 2.89015531539917 0.12844519317150116 4456788 0 -1
-2.048243284225464 2.58756947517395 -0.590847909450531 3107982 0 -1
-1.746393084526062 2.8607845306396484 -0.07706711441278458 3107982 0 -1
-2.036646842956543 2.6250321865081787 -0.6484611630439758 4456788 0 -1
-1.8582795858383179 2.8093273639678955 -0.3371998071670532 4456788 0 -1
-1.2904719114303589 3.1113028526306152 -0.3371998071670532 4456788 0 -1
-2.0425965785980225 2.6327006816864014 -0.5965842604637146 4456788 0 -1
-2.0198123455047607 2.6559271812438965 -0.570645809173584 4456788 0 -1
-1.856791377067566 2.807077407836914 -0.36313825845718384 4456788 0 -1
-1.8792226314544678 2.784872055053711 -0.41501516103744507 4456788 0 -1
-1.8402776718139648 2.8382716178894043 -0.1296922266483307 3757452 0 -1
-2.698557138442993 1.9381729364395142 -0.6484611630439758 3107982 0 -1
-2.0736358165740967 2.619647979736328 -0.5447073578834534 3107982 0 -1
-1.86405611038208 2.8180601596832275 -0.20750758051872253 3107982 0 -1
-2.022434949874878 2.6593754291534424 -0.5447073578834534 2912910 0 -1
-2.035557270050049 2.676630735397339 -0.38907670974731445 2264205 0 -1
-1.7633483409881592 2.888559341430664 -0.07781533896923065 2264205 0 -1
-2.0530316829681396 2.646150588989258 -0.6808842420578003 4456788 0 -1
-1.876147747039795 2.8363401889801025 -0.34044212102890015 4456788 0 -1
-1.3007152080535889 3.1359992027282715 -0.39281782507896423 4456788 0 -1
-2.5494017601013184 2.242075204849243 -0.39281782507896423 4456788 0 -1
-2.065046548843384 2.6616365909576416 -0.5761328339576721 4456788 0 -1
-1.9453181028366089 2.770233392715454 -0.47138139605522156 4456788 0 -1
-1.8287856578826904 2.8776116371154785 -0.23569069802761078 4456788 0 -1
-2.8805794715881348 1.8390846252441406 -0.026187855750322342 4456788 0 -1
-2.0750060081481934 2.6744730472564697 -0.47138139605522156 3107982 0 -1
-3.1446621417999268 2.0076863765716553 -0.9123349785804749 4456788 0 -1
-3.5548505783081055 1.5198078155517578 0.23743654787540436 4456788 0 -1
-2.736682176589966 2.6942811012268066 0.5045526623725891 4456788 0 -1
-3.7675344944000244 0.8914845585823059 -0.11871827393770218 4456788 0 -1
-3.026960611343384 2.416017532348633 -0.05935913696885109 4456788 0 -1
-2.7688333988189697 2.6666853427886963 0.4748730957508087 4456788 0 -1
-3.6792941093444824 1.207485556602478 0.08903870731592178 4456788 0 -1
-3.1155312061309814 2.299715518951416 -0.08903870731592178 4456788 0 -1
-2.8371684551239014 2.612811326980591 0.35615482926368713 4456788 0 -1
-2.5634334087371826 2.8073856830596924 0.7419891953468323 4456788 0 -1
-2.250277280807495 3.1413462162017822 0.26711612939834595 4456788 0 -1
3.6694467067718506 1.2042537927627563 -0.29679569602012634 4456788 0 -1
-2.988823413848877 2.445812702178955 0.29679569602012634 4212104 0 -1
-3.650158166885376 1.2945945262908936 0.05935913696885109 4147337 0 -1
-3.4229631423950195 1.7646034955978394 0.4155139625072479 4147337 0 -1
-2.903127908706665 2.5531599521636963 0.23743654787540436 4147337 0 -1
-2.5709221363067627 2.815587043762207 0.6826300621032715 4147337 0 -1
-2.994466781616211 2.4504308700561523 0.17807741463184357 3887499 0 -1
-3.6170787811279297 1.3741121292114258 0.17807741463184357 3107982 0 -1
-3.101762533187866 2.1660139560699463 0.8310279250144958 2523534 0 -1
-2.263718843460083 2.9766488075256348 1.0091053247451782 2523534 0 -1
-3.1887762546539307 2.09964656829834 0.6529505252838135 2328718 0 -1
-2.141444206237793 2.989417314529419 1.2168623208999634 2328718 0 -1
-3.70896577835083 1.1130133867263794 -0.08903870731592178 2468738 0 -1
-3.4524714946746826 1.706148624420166 0.4155139625072479 2468738 0 -1
-2.839099645614624 2.6145899295806885 0.32647526264190674 2468738 0 -1
-3.5530693531036377 1.5998470783233643 0.2693607807159424 4456788 0 -1
-2.7596795558929443 2.7169222831726074 0.5087926387786865 4456788 0 -1
-2.5516252517700195 2.8530778884887695 0.7781534194946289 4456788 0 -1
3.734086751937866 1.1205519437789917 -0.23943181335926056 4456788 0 -1
-3.6426424980163574 1.3838237524032593 0.2693607807159424 4456788 0 -1
-3.171633243560791 2.2779481410980225 -0.08978693187236786 4456788 0 -1
-2.9921069145202637 2.509103775024414 0.08978693187236786 4456788 0 -1
-2.655060052871704 2.7880969047546387 0.6584374904632568 4456788 0 -1
-3.7410123348236084 1.12263023853302 0.02992897666990757 4456788 0 -1
-3.7410123348236084 1.12263023853302 0.02992897666990757 4456788 0 -1
-2.862957715988159 2.636561393737793 0.3292187452316284 4456788 0 -1
-2.6219871044158936 2.8120639324188232 0.6883664727210999 4456788 0 -1
3.734086751937866 1.1205519437789917 -0.23943181335926056 4456788 0 -1
-3.0171420574188232 2.4689862728118896 0.23943181335926056 4212104 0 -1
-3.6808319091796875 1.3054734468460083 0.05985795333981514 4147337 0 -1
-3.419022798538208 1.8344230651855469 0.4489346444606781 4147337 0 -1
-2.8961992263793945 2.6068835258483887 0.2693607807159424 4147337 0 -1
-2.732694625854492 2.7494430541992188 0.4788636267185211 4147337 0 -1
-3.0206074714660645 2.4718222618103027 0.1496448814868927 3887499 0 -1
-3.0077922344207764 2.4613354206085205 0.38907670974731445 3107982 0 -1
-3.087514877319336 2.2175323963165283 0.8978692889213562 2523534 0 -1
-3.4570538997650146 1.7821779251098633 0.35914772748947144 2468738 0 -1
-3.515913248062134 1.7375004291534424 0.36214062571525574 4456788 0 -1
-2.914902448654175 2.62371826171875 0.36214062571525574 4456788 0 -1
-2.746830463409424 2.7636654376983643 0.5733892917633057 4456788 0 -1
3.7311179637908936 1.224493384361267 -0.30178385972976685 4456788 0 -1
-3.636115312576294 1.4694279432296753 0.36214062571525574 4456788 0 -1
-3.1687304973602295 2.338984251022339 0 4456788 0 -1
-2.9845011234283447 2.563526153564453 0.18107031285762787 4456788 0 -1
-2.746830463409424 2.7636654376983643 0.5733892917633057 4456788 0 -1
-3.58066987991333 1.6122748851776123 0.30178385972976685 4456788 0 -1
-3.1384599208831787 2.379255771636963 0.030178384855389595 4456788 0 -1
-2.6871166229248047 2.8217597007751465 0.5733892917633057 4456788 0 -1
-3.0121631622314453 2.5259225368499756 0.24142707884311676 4212104 0 -1
-3.58066987991333 1.6122748851776123 0.30178385972976685 4147337 0 -1
-3.4504876136779785 1.8513050079345703 0.42249739170074463 4147337 0 -1
-3.0759353637695312 2.4551074504852295 0.15089192986488342 4147337 0 -1
-2.5728888511657715 2.8768534660339355 0.784637987613678 4147337 0 -1
-3.045779228210449 2.4924206733703613 0.15089192986488342 3887499 0 -1
-3.4143831729888916 1.9027715921401978 0.4828541576862335 2468738 0 -1
-2.635735273361206 2.886568069458008 0.6998392343521118 4147337 0 -1
-4.211022853851318 3.2765867710113525 0.1636117398738861 4456788 0 -1
-3.181049108505249 4.267215251922607 0.40902936458587646 4456788 0 -1
-2.220345973968506 4.777839660644531 0.8589616417884827 4456788 0 -1
1.9468802213668823 4.805971145629883 -1.2679909467697144 4456788 0 -1
4.320282936096191 3.102937698364258 -0.4499322772026062 4456788 0 -1
-1.5516352653503418 5.750189781188965 0.09128338098526001 3238030 4 -1
-1.5972715616226196 5.737680912017822 0.09128338098526001 3107982 4 -1
-1.5516352653503418 5.750189781188965 0.09128338098526001 2977934 4 -1
-1.551771879196167 5.750696659088135 -0.045641690492630005 2912910 4 -1
-1.559885025024414 5.780762672424316 0.1376732885837555 3302798 4 -1
-1.559885025024414 5.780762672424316 0.1376732885837555 3238030 4 -1
-1.6054338216781616 5.767001152038574 0.18356439471244812 3107982 4 -1
-1.5601141452789307 5.781611919403076 0.09178219735622406 2782862 4 -1
-1.6059998273849487 5.769034385681152 0.09178219735622406 2718350 4 -1
-1.6059998273849487 5.769034385681152 0.09178219735622406 2588302 4 -1
-1.5140060186386108 5.792947769165039 0.1376732885837555 2134668 4 -1
-1.5140060186386108 5.792947769165039 0.1376732885837555 2070155 4 -1
-1.5683627128601074 5.812180042266846 0.13842152059078217 3238030 4 -1
-1.6141589879989624 5.798343658447266 0.18456202745437622 3107982 4 -1
-1.5685930252075195 5.813033580780029 0.09228101372718811 2782862 4 -1
-1.6147280931472778 5.800387859344482 0.09228101372718811 2718350 4 -1
-1.4763227701187134 5.837149620056152 0.09228101372718811 2134668 4 -1
-1.4764528274536133 5.837663650512695 0.046140506863594055 2468738 4 -1
-1.5685930252075195 5.813033580780029 0.09228101372718811 4505456 4 -1
-1.613732099533081 5.796809673309326 0.23070253431797028 6933851 4 -1
-1.5687311887741089 5.8135457038879395 0.046140506863594055 7589974 4 -1
-1.6147280931472778 5.800387859344482 0.09228101372718811 8180304 4 -1
-1.5297431945800781 5.8531622886657715 0.2319495677947998 2199437 4 -1
-1.4843028783798218 5.868701457977295 0.09277983009815216 2134668 4 -1
-1.483779788017273 5.866633415222168 0.18555966019630432 2139270 4 -1
-1.484433650970459 5.869218826293945 0.04638991504907608 2468738 4 -1
-1.5770719051361084 5.844455242156982 0.09277983009815216 4505456 4 -1
-1.576516032218933 5.842395782470703 0.18555966019630432 6933851 4 -1
-1.5768402814865112 5.843597412109375 0.13916973769664764 7589974 4 -1
-1.6219301223754883 5.826258659362793 0.2783394753932953 8180304 4 -1
-1.436566710472107 5.874710559844971 0.2783394753932953 8180304 4 -1
-1.6228841543197632 5.829685688018799 0.18555966019630432 8705099 4 -1
-1.6700369119644165 5.819312572479248 0 10672695 4 -1
-1.4913625717163086 5.8966145515441895 0.23319661617279053 2199437 4 -1
-1.4908802509307861 5.894707202911377 0.27983593940734863 2070155 4 -1
-1.4922831058502197 5.900253772735596 0.09327864646911621 2006409 4 -1
-1.4924144744873047 5.900773525238037 -0.046639323234558105 2468738 4 -1
-1.4838460683822632 5.8668951988220215 0.6529505252838135 5949540 4 -1
-1.441568374633789 5.895164489746094 0.46639323234558105 6343264 4 -1
-1.5845727920532227 5.872252941131592 0.23319661617279053 6933851 4 -1
-1.5354335308074951 5.874934673309326 0.41975390911102295 7589974 4 -1
-1.5840601921081543 5.870353698730469 0.27983593940734863 8180304 4 -1
2.9778103828430176 5.291980266571045 0.41975390911102295 8180304 5 -1
3.0258548259735107 5.268167972564697 0.37311458587646484 8705099 5 -1
-1.4871474504470825 5.879948616027832 0.5130325555801392 9360965 4 -1
3.0258548259735107 5.268167972564697 0.37311458587646484 9360965 5 -1
-1.2555595636367798 5.937562942504883 0.46639323234558105 13164576 4 -1
-1.7798877954483032 5.847970485687256 0.2813323736190796 2718350 4 -1
-1.7330485582351685 5.8620219230651855 0.2813323736190796 2588302 4 -1
-1.7323856353759766 5.859779357910156 0.3282211124897003 2458766 4 -1
-1.5004394054412842 5.932502746582031 0 2070155 4 -1
-1.6862094402313232 5.875666618347168 0.2813323736190796 2006409 4 -1
-1.5003952980041504 5.932328701019287 0.04688873142004013 2006409 4 -1
-1.496867299079895 5.918379306793213 0.4219985902309418 5949540 4 -1
-1.4951001405715942 5.9113922119140625 0.5157760381698608 6343264 4 -1
-1.5436444282531738 5.906351089477539 0.4219985902309418 7589974 4 -1
-1.3594138622283936 5.9647393226623535 0.1406661868095398 7589974 4 -1
-1.5919219255447388 5.89948844909668 0.3282211124897003 8180304 4 -1
-1.5912188291549683 5.8968825340271 0.37510985136032104 8705099 4 -1
2.9952354431152344 5.322947025299072 0.37510985136032104 8705099 5 -1
-1.6867550611495972 5.877567291259766 0.23444364964962006 9360965 4 -1
-1.496028184890747 5.9150614738464355 0.4688872992992401 9360965 4 -1
-1.3063546419143677 5.94708251953125 0.6095535159111023 12640037 4 -1
-1.3097589015960693 5.962579727172852 0.4219985902309418 13164576 4 -1
-1.7439063787460327 5.89874792098999 0.09427627921104431 4017546 4 -1
-1.4569861888885498 5.958214282989502 -0.47138139605522156 4017546 4 -1
-1.7422668933868408 5.893202781677246 0.28282883763313293 2718350 4 -1
-1.7859830856323242 5.867997169494629 0.47138139605522156 2458766 4 -1
-1.7422668933868408 5.893202781677246 0.28282883763313293 2070155 4 -1
-1.7436503171920776 5.897881984710693 0.14141441881656647 2139270 4 -1
-1.5082433223724365 5.963357925415039 0.09427627921104431 2139270 4 -1
-1.647459864616394 5.917966365814209 0.3299669623374939 3257723 4 -1
-1.7399588823318481 5.8853960037231445 0.4242432415485382 3651704 4 -1
-1.4137704372406006 5.985530853271484 0.14141441881656647 4899181 4 -1
-1.4585342407226562 5.964544773101807 0.37710511684417725 5424489 4 -1
-1.5062490701675415 5.95547342300415 0.3299669623374939 5949540 4 -1
-1.502030372619629 5.938793182373047 0.5656576752662659 6343264 4 -1
-1.5068254470825195 5.957752227783203 0.28282883763313293 6933851 4 -1
-1.411484718322754 5.97585391998291 0.37710511684417725 7589974 4 -1
-1.5988811254501343 5.925278186798096 0.4242432415485382 8180304 4 -1
-1.315171241760254 5.987218856811523 0.5185195207595825 12640037 4 -1
-1.3637516498565674 5.983771800994873 0.4242432415485382 13164576 4 -1
-1.5147980451583862 5.989274501800537 -0.2843252718448639 4017546 4 -1
-1.4679354429244995 6.002990245819092 -0.2369377315044403 3432845 4 -1
-1.4617077112197876 5.977522373199463 -0.6160380840301514 3107982 4 -1
-1.4201232194900513 6.012426853179932 -0.2843252718448639 2977934 4 -1
-1.7491650581359863 5.9165358543396 0.42648792266845703 2199437 4 -1
-1.704699158668518 5.940094947814941 0.2369377315044403 2070155 4 -1
-1.468323826789856 6.004578590393066 0.18955019116401672 2072968 4 -1
-1.7528759241104126 5.9290876388549805 0.14216263592243195 2139270 4 -1
-1.5156891345977783 5.992797374725342 0.18955019116401672 2139270 4 -1
-1.6998811960220337 5.923305988311768 0.5212630033493042 3257723 4 -1
-1.562640905380249 5.979036808013916 0.2369377315044403 5949540 4 -1
-1.5142186880111694 5.986983776092529 0.33171284198760986 6933851 4 -1
-1.5600661039352417 5.969184875488281 0.42648792266845703 8180304 4 -1
-1.5135498046875 5.984339237213135 0.37910038232803345 8705099 4 -1
-1.3243560791015625 6.029032230377197 0.37910038232803345 8705099 4 -1
-1.3229504823684692 6.022633075714111 0.4738754630088806 12640037 4 -1
-1.370967149734497 6.015431880950928 0.42648792266845703 13164576 4 -1
-1.5232633352279663 6.022745132446289 -0.23818477988243103 4017546 4 -1
-1.8025357723236084 5.922382354736328 0.5716434717178345 2977934 4 -1
-1.8082902431488037 5.941288948059082 0.28582173585891724 2199437 4 -1
-1.7612732648849487 5.957491874694824 0.23818477988243103 2070155 4 -1
-1.5243377685546875 6.026993274688721 -0.047636955976486206 2070155 4 -1
-1.7562953233718872 5.9406538009643555 0.5240064859390259 2006409 4 -1
-1.6623916625976562 5.9716033935546875 0.47636955976486206 3257723 4 -1
-1.5697566270828247 6.00626277923584 0.33345869183540344 6343264 4 -1
-1.5664255619049072 5.9935173988342285 0.5240064859390259 8180304 4 -1
-1.5236663818359375 6.024338722229004 0.19054782390594482 8705099 4 -1
-1.771327257156372 5.991498947143555 0.1436590850353241 4017546 4 -1
-1.5319586992263794 6.057125091552734 -0.1436590850353241 4017546 4 -1
-1.4823403358459473 6.0618977546691895 -0.335204541683197 3107982 4 -1
-1.8119730949401855 5.953389644622803 0.5746363401412964 2977934 4 -1
-1.3872361183166504 6.08681583404541 -0.2873181700706482 2977934 4 -1
-1.4833873510360718 6.0661797523498535 -0.23943181335926056 2070155 4 -1
-1.6736100912094116 6.011902332305908 0.335204541683197 3257723 4 -1
-1.4294458627700806 6.051896572113037 0.6225227117538452 4899181 4 -1
-1.6242601871490479 6.0193305015563965 0.4309772551059723 5424489 4 -1
-1.573555588722229 6.020798683166504 0.5746363401412964 8180304 4 -1
-1.5387159585952759 6.0838422775268555 -0.28881463408470154 4017546 4 -1
-1.4886564016342163 6.087726593017578 -0.4332219362258911 3757452 4 -1
-1.7324298620224 6.036723613739014 0.14440731704235077 2718350 4 -1
-1.491113305091858 6.097774028778076 -0.24067886173725128 2070155 4 -1
-4.497285842895508 4.141650199890137 -1.44407320022583 2271109 0 -1
3.1754684448242188 5.416966438293457 0.19254308938980103 5424489 5 -1
-1.3452669382095337 6.124227523803711 0.38508617877960205 12640037 4 -1
-1.4463900327682495 6.123633861541748 -0.5322369933128357 3432845 4 -1
-1.447287917137146 6.127434730529785 -0.4838517904281616 3302798 4 -1
-1.4406052827835083 6.099142551422119 -0.7741628885269165 3107982 4 -1
-4.7000346183776855 3.9413280487060547 -1.4999405145645142 2271109 0 -1
-4.520587921142578 4.16310977935791 -1.4515553712844849 2271109 0 -1
3.1874163150787354 5.437348365783691 0.38708144426345825 4045940 5 -1
3.0481767654418945 5.529962539672852 -0.04838518053293228 5424489 5 -1
2.9990885257720947 5.555052757263184 0.14515553414821625 7589974 5 -1
-1.4201440811157227 5.807551860809326 -2.032177448272705 11918891 0 -1
-1.4500205516815186 6.139004230499268 0.2903110682964325 12640037 4 -1
-1.4562938213348389 6.165563583374023 -0.38907670974731445 3302798 4 -1
-1.451780915260315 6.146457195281982 -0.632249653339386 3107982 4 -1
-1.4880256652832031 6.085147380828857 -1.0213263034820557 2977934 4 -1
-4.470139980316162 4.210505962371826 -1.6049413681030273 2070155 0 -1
-4.507692337036133 4.151233673095703 -1.6535760164260864 2070922 0 -1
-4.526392936706543 4.168455600738525 -1.5563068389892578 2006409 0 -1
-4.647028923034668 4.086836338043213 -1.4104030132293701 3257723 0 -1
-0.5815382599830627 6.297773838043213 0.5349804759025574 3257723 0 -1
3.2550718784332275 5.441112041473389 0.29180753231048584 3257723 5 -1
3.2022409439086914 5.462637424468994 0.43771129846572876 4045940 5 -1
3.0153443813323975 5.58516263961792 0 5424489 5 -1
3.0149903297424316 5.584506988525391 0.09726917743682861 7589974 5 -1
2.965925931930542 5.6096649169921875 0.14590376615524292 12640037 5 -1
-1.3991625308990479 6.139145374298096 1.0265638828277588 4456788 0 -1
-1.0614336729049683 6.20645809173584 -1.0265638828277588 4456788 0 -1
-1.05861496925354 6.189976692199707 -1.1243319511413574 4456788 0 -1
-4.596996784210205 4.137779712677002 -1.5642879009246826 2977934 0 -1
-1.6154028177261353 5.802811145782471 2.1020119190216064 2977934 0 -1
-1.5132224559783936 6.188187599182129 -0.3421879708766937 2977934 4 -1
-1.5132224559783936 6.188187599182129 -0.3421879708766937 2977934 4 -1
-4.502213478088379 4.240716457366943 -1.5642879009246826 2070155 0 -1
-4.549604892730713 4.1898322105407715 -1.5642879009246826 2070922 0 -1
-4.530808448791504 4.172522068023682 -1.6620558500289917 2006409 0 -1
-0.5827203989028931 6.310575485229492 0.733259916305542 2006409 0 -1
-1.6907297372817993 6.073398590087891 0.9776799082756042 4045940 0 -1
3.026444911956787 5.6057233810424805 0.3421879708766937 4045940 5 -1
3.2216994762420654 5.49583101272583 0.3421879708766937 4045940 5 -1
2.9818363189697266 5.63975715637207 0.04888399690389633 5949540 5 -1
3.0796916484832764 5.587136745452881 0 6343264 5 -1
3.0788779258728027 5.585660457611084 0.1466519832611084 6933851 5 -1
-1.5314973592758179 5.8598737716674805 2.004243850708008 12640037 0 -1
2.899484872817993 5.3705620765686035 -1.8575918674468994 12640037 0 -1
-1.2807914018630981 6.056884765625 1.670535683631897 4456788 0 -1
-1.0519882440567017 6.151227951049805 -1.4740021228790283 4456788 0 -1
3.035430908203125 5.622367858886719 -0.5404674410820007 3887499 5 -1
2.9864723682403564 5.648526191711426 -0.5404674410820007 3692940 5 -1
-4.3481340408325195 4.187722206115723 -2.161869764328003 2977934 0 -1
-4.606968879699707 4.242659568786621 -1.3757352828979492 2070155 0 -1
-4.581806659698486 4.21948766708374 -1.5231355428695679 2070922 0 -1
-4.646785736083984 4.182595252990723 -1.4248687028884888 5949540 0 -1
2.9939684867858887 5.662703990936279 0.29480043053627014 5949540 5 -1
3.0430500507354736 5.636480331420898 0.29480043053627014 10016830 5 -1
2.995729446411133 5.666034698486328 0.19653362035751343 10672695 5 -1
2.9539597034454346 5.359035015106201 -1.9162027835845947 12640037 0 -1
-2.942943572998047 5.451058387756348 1.7777812480926514 4456788 0 -1
-1.889723539352417 5.868813991546631 1.876546859741211 4456788 0 -1
2.9896273612976074 5.6544928550720215 -0.7901250123977661 4147337 5 -1
3.0051801204681396 5.683908939361572 -0.44444531202316284 4017546 5 -1
3.0016322135925293 5.677198886871338 -0.5432109236717224 3887499 5 -1
3.0016322135925293 5.677198886871338 -0.5432109236717224 3692940 5 -1
3.003495454788208 5.680722713470459 -0.4938281178474426 3562893 5 -1
3.0091662406921387 5.69144868850708 -0.2962968647480011 2912910 5 -1
3.0051801204681396 5.683908939361572 -0.44444531202316284 2782862 5 -1
3.0066866874694824 5.686758518218994 -0.39506250619888306 2718350 5 -1
3.1096556186676025 5.641496658325195 0.19753125309944153 4045940 5 -1
-1.924515724182129 6.145789623260498 -0.2469140589237213 4505456 0 -1
-1.7222479581832886 6.186618328094482 -0.5432109236717224 4505456 0 -1
-0.7050914764404297 6.093967914581299 1.9753124713897705 4505456 0 -1
3.092296600341797 5.383846282958984 1.7283984422683716 4899181 0 -1
-1.5651472806930542 6.188347816467285 -0.8888906240463257 5424489 0 -1
3.060925245285034 5.669589996337891 0.14814843237400055 5424489 5 -1
3.0101399421691895 5.6932902336120605 0.2469140589237213 10672695 5 -1
-3.2301833629608154 5.399508953094482 1.5385987758636475 4456788 0 -1
-2.121314525604248 5.923580646514893 1.5385987758636475 4456788 0 -1
-1.7905353307724 5.882954120635986 2.0349209308624268 4456788 0 -1
3.014739751815796 5.701990127563477 -0.5955866575241089 3692940 5 -1
3.02187180519104 5.715479373931885 -0.39705777168273926 3107982 5 -1
3.023207187652588 5.718005180358887 -0.34742555022239685 2977934 5 -1
3.0253427028656006 5.722043991088867 -0.24816110730171204 2912910 5 -1
3.018664598464966 5.709413051605225 -0.4963222146034241 2782862 5 -1
3.02187180519104 5.715479373931885 -0.39705777168273926 2718350 5 -1
3.0267653465270996 5.724734783172607 -0.14889666438102722 2588302 5 -1
2.7568552494049072 5.439371109008789 2.1838176250457764 5424489 0 -1
3.1014585494995117 5.290714740753174 -2.0845532417297363 5424489 0 -1
2.878330707550049 5.801846981048584 0.09926444292068481 6933851 5 -1
2.927957057952881 5.776961326599121 0.09926444292068481 7589974 5 -1
2.9283010959625244 5.777639865875244 0 8705099 5 -1
3.1157031059265137 5.652468204498291 0.5459544062614441 8705099 5 -1
3.018664598464966 5.709413051605225 0.4963222146034241 10672695 5 -1
2.971923589706421 5.621008396148682 -1.3966856002807617 4147337 0 -1
3.0252208709716797 5.721813678741455 -0.6983428001403809 4017546 5 -1
3.0370571613311768 5.744200229644775 -0.39905303716659546 2977934 5 -1
3.041975259780884 5.753502368927002 -0.1496448814868927 2912910 5 -1
2.94989275932312 5.57934045791626 -1.5962121486663818 2718350 0 -1
2.9422383308410645 5.805139064788818 -0.1496448814868927 2468738 5 -1
2.9426705837249756 5.805991172790527 -0.09976325929164886 2666112 5 -1
2.9426705837249756 5.805991172790527 -0.09976325929164886 2994813 5 -1
2.9426705837249756 5.805991172790527 -0.09976325929164886 5949540 5 -1
3.1923305988311768 5.673212051391602 -0.04988162964582443 5949540 5 -1
2.842501401901245 5.854621410369873 0.1496448814868927 6343264 5 -1
2.8923699855804443 5.830145835876465 0.1496448814868927 6933851 5 -1
2.9422383308410645 5.805139064788818 0.1496448814868927 7589974 5 -1
2.9422383308410645 5.805139064788818 0.1496448814868927 9360965 5 -1
2.8923699855804443 5.830145835876465 0.1496448814868927 10672695 5 -1
2.9730632305145264 5.742808818817139 0.7482244372367859 11197490 5 -1
2.903994083404541 5.60939359664917 1.7044552564620972 4017546 0 -1
3.1549158096313477 5.723607063293457 -0.30078622698783875 3107982 5 -1
3.0046818256378174 5.803883075714111 0.30078622698783875 2912910 5 -1
2.9586172103881836 5.595841407775879 -1.6543241739273071 2718350 0 -1
2.957383871078491 5.835021495819092 -0.10026207566261292 2666112 5 -1
2.957383871078491 5.835021495819092 -0.10026207566261292 2994813 5 -1
2.907600164413452 5.86084508895874 0 6343264 5 -1
2.906831741333008 5.859296798706055 0.15039311349391937 6933851 5 -1
2.9569497108459473 5.834164619445801 0.15039311349391937 7589974 5 -1
2.95764422416687 5.835535526275635 0.05013103783130646 9360965 5 -1
2.9054653644561768 5.856542110443115 0.2506551742553711 10016830 5 -1
2.94903564453125 5.818550109863281 0.5013103485107422 11197490 5 -1
2.955559730529785 5.831422328948975 0.2506551742553711 11918891 5 -1
2.972097158432007 5.864051342010498 0.10076089203357697 2912910 5 -1
2.972097158432007 5.864051342010498 0.10076089203357697 2912910 5 -1
2.9710497856140137 5.861984729766846 -0.20152178406715393 2994813 5 -1
2.971660852432251 5.863190174102783 0.15114133059978485 3257723 5 -1
2.9220657348632812 5.890003681182861 0 6343264 5 -1
2.921722650527954 5.889311790466309 0.10076089203357697 6933851 5 -1
2.9206929206848145 5.887236595153809 0.20152178406715393 7589974 5 -1
2.915109157562256 5.875981330871582 0.45342400670051575 11197490 5 -1
2.968167304992676 5.856297492980957 0.3526630997657776 11918891 5 -1
2.918976068496704 5.88377571105957 0.3022826611995697 12640037 5 -1
2.970263957977295 5.860434055328369 0.2519022226333618 13164576 5 -1
2.9084665775299072 5.862591743469238 -0.9113373756408691 2977934 0 -1
2.9840028285980225 5.8875412940979 0.30377912521362305 3257723 5 -1
2.809293508529663 5.662688732147217 1.9239344596862793 3651704 0 -1
2.831190347671509 5.959735870361328 0.35440897941589355 6933851 5 -1
2.935755491256714 5.917598247528076 0.15188956260681152 7589974 5 -1
2.985757827758789 5.89100456237793 0.20251941680908203 11197490 5 -1
2.9849681854248047 5.889446258544922 0.25314927101135254 12640037 5 -1
2.934375524520874 5.914816379547119 0.25314927101135254 13164576 5 -1
3.195969820022583 5.798086643218994 0.5087926387786865 7589974 5 -1
2.942321300506592 5.930832862854004 0.5087926387786865 10672695 5 -1
2.847899913787842 5.99491024017334 0.20351704955101013 11197490 5 -1
3.001523971557617 5.9221110343933105 0.10175852477550507 12640037 5 -1
2.9454474449157715 5.937134265899658 0.40703409910202026 13164576 5 -1
3.277190923690796 5.478085994720459 1.9428894519805908 4456788 0 -1
3.116429328918457 5.653785705566406 1.6872460842132568 4456788 0 -1
3.1514179706573486 5.717261791229248 1.3804740905761719 4456788 5 -1
3.052462577819824 5.896177291870117 0.6646726727485657 10016830 5 -1
2.911252498626709 5.996225833892822 0.30677202343940735 11197490 5 -1
2.9879257678985596 5.895281791687012 1.1303176879882812 4456788 5 -1
3.2738559246063232 5.584803581237793 1.7468546628952026 4456788 0 -1
2.8044772148132324 6.034800052642822 0.8220492601394653 4456788 5 -1
3.111262798309326 5.762827396392822 1.4385861158370972 4456788 5 -1
3.1558942794799805 5.725382328033447 1.489964246749878 4456788 5 -1
3.1558942794799805 5.725382328033447 1.489964246749878 4456788 5 -1
3.2692224979400635 5.809859752655029 0.7192930579185486 8180304 5 -1
3.059429883956909 5.909635543823242 0.8220492601394653 10016830 5 -1
1.9283857345581055 6.335873126983643 1.2390596866607666 4456788 0 -1
3.0024304389953613 5.9238996505737305 1.1358046531677246 4456788 5 -1
3.296682834625244 5.623743534088135 1.703706979751587 4456788 0 -1
2.8206937313079834 6.069694995880127 0.7744122743606567 4456788 5 -1
3.126366138458252 5.790802478790283 1.445569634437561 4456788 5 -1
3.3819382190704346 5.429473876953125 2.116726875305176 4456788 0 -1
1.9791327714920044 6.320205211639404 1.2390596866607666 4456788 0 -1
3.126366138458252 5.790802478790283 1.445569634437561 4456788 5 -1
3.3280670642852783 5.677281379699707 1.445569634437561 4456788 5 -1
3.5779926776885986 5.302326202392578 2.116726875305176 4456788 0 -1
3.233762741088867 5.866650581359863 0.7227848172187805 8180304 5 -1
3.176757574081421 5.884139537811279 0.8260397911071777 8705099 5 -1
3.030871868133545 5.980015754699707 0.6711573004722595 11197490 5 -1
3.348426103591919 5.597161293029785 1.8156912326812744 4456788 0 -1
3.15189266204834 5.838083744049072 1.348799228668213 4456788 5 -1
3.432636260986328 5.510866165161133 1.9194450378417969 4456788 0 -1
1.5497138500213623 6.561079025268555 0.6225227117538452 4147337 0 -1
2.5359160900115967 6.260035991668701 0.4668920338153839 4147337 0 -1
2.8635313510894775 6.027814865112305 1.141291618347168 4147337 5 -1
4.124209880828857 5.210162162780762 1.2969223260879517 4147337 0 -1
2.8468706607818604 5.992743492126465 1.348799228668213 2139270 0 -1
3.195052146911621 5.918025493621826 0.7781534194946289 8705099 5 -1
3.045513868331909 6.008904933929443 0.6743996143341064 11197490 5 -1
3.040452718734741 5.998919486999512 0.7781534194946289 11918891 5 -1
-1.7469311952590942 6.473935127258301 1.1467785835266113 5424489 0 -1
2.9540538787841797 6.0843825340271 0.7297682166099548 11918891 5 -1
3.0105178356170654 6.068296432495117 0.6255156397819519 12640037 5 -1
3.1143288612365723 6.015678882598877 0.6255156397819519 13164576 5 -1
-5.183905124664307 4.242091178894043 -1.3617684841156006 5424489 0 -1
-4.99379825592041 4.494942665100098 -1.2570170164108276 5424489 0 -1
3.0249221324920654 6.0973310470581055 0.6285085082054138 12640037 5 -1
3.126912832260132 6.039986610412598 0.6808842420578003 13164576 5 -1
-5.024738788604736 4.522792339324951 -1.2103776931762695 4045940 0 -1
-5.102313995361328 4.487237453460693 -0.9998772144317627 4505456 0 -1
-5.10545015335083 4.385307788848877 -1.3682531118392944 4899181 0 -1
-5.216704845428467 4.2689313888549805 -1.315627932548523 5424489 0 -1
-4.846770286560059 4.565260887145996 -1.6840038299560547 5424489 0 -1
3.0393266677856445 6.126366138458252 0.6315014362335205 12640037 5 -1
3.0393266677856445 6.126366138458252 0.6315014362335205 13164576 5 -1
-5.166366100311279 4.437631130218506 -1.1103650331497192 4505456 0 -1
-4.862675666809082 4.683281421661377 -1.4276121854782104 4505456 0 -1
-5.137637615203857 4.412955284118652 -1.3218631744384766 4899181 0 -1
-5.249249458312988 4.295563697814941 -1.2689886093139648 5424489 0 -1
-4.930675029754639 4.540768146514893 -1.6391103267669678 5424489 0 -1
-5.256740093231201 4.301693439483643 -1.2161140441894531 6343264 0 -1
3.057706356048584 6.163414478302002 0.5287452340126038 12640037 5 -1
3.0228350162506104 6.093123912811279 1.163239598274231 13164576 5 -1
3.274400234222412 5.940374374389648 1.4343461990356445 4456788 5 -1
3.498053789138794 5.615890026092529 2.071833372116089 4456788 0 -1
-5.3100199699401855 4.238278388977051 -1.3812222480773926 4505456 0 -1
-5.190735340118408 4.458563327789307 -1.1156026124954224 4505456 0 -1
-5.093511581420898 4.479496002197266 -1.4343461990356445 4899181 0 -1
3.0681352615356445 6.184435844421387 0.6374872326850891 8705099 5 -1
3.383836269378662 5.89143180847168 1.3812222480773926 8705099 5 -1
3.0191619396209717 6.2184834480285645 0.5312393307685852 12640037 5 -1
2.0421836376190186 6.521553039550781 1.1687265634536743 13164576 0 -1
3.2465484142303467 6.013409614562988 1.1687265634536743 13164576 5 -1
1.9439038038253784 6.57523775100708 1.2275868654251099 4456788 0 -1
3.2784533500671387 5.947727203369141 1.547826886177063 4456788 5 -1
3.5316545963287354 5.669833660125732 1.97481369972229 4456788 0 -1
3.147784471511841 6.080302715301514 1.280960202217102 4456788 5 -1
3.5144765377044678 5.6422553062438965 2.0815603733062744 4456788 0 -1
-4.848133087158203 4.773017883300781 -1.4944535493850708 2666112 0 -1
-5.17803955078125 4.447658061981201 -1.3877068758010864 4505456 0 -1
-5.125736236572266 4.507835865020752 -1.3877068758010864 4899181 0 -1
-5.186106204986572 4.454586982727051 -1.3343335390090942 5424489 0 -1
3.072301149368286 6.192832946777344 0.8539734482765198 8705099 5 -1
3.375544309616089 5.99880838394165 1.0674668550491333 8705099 5 -1
2.2767369747161865 6.357583999633789 1.7079468965530396 13164576 0 -1
3.2951159477233887 5.977956771850586 1.3877068758010864 13164576 5 -1
3.6163454055786133 5.577511787414551 2.0815603733062744 13164576 0 -1
4.850767612457275 4.569025993347168 2.0281870365142822 13164576 0 -1
1.999928593635559 6.570932865142822 1.3405687808990479 4456788 0 -1
2.9674031734466553 6.246467590332031 1.0724550485610962 4456788 5 -1
3.590951919555664 5.650396823883057 2.0376644134521484 4456788 0 -1
4.734429359436035 4.661076068878174 2.198532819747925 4456788 0 -1
-4.514339447021484 4.9439520835876465 -2.0376644134521484 4456788 0 -1
3.1577818393707275 6.099613666534424 1.3405687808990479 4456788 5 -1
3.3921401500701904 5.90588903427124 1.6086825132369995 4456788 5 -1
-5.218114852905273 4.482080459594727 -1.2869460582733154 3651704 0 -1
-4.931487083435059 4.74955415725708 -1.4478142261505127 3651704 0 -1
-5.218114852905273 4.482080459594727 -1.2869460582733154 4505456 0 -1
-5.2103400230407715 4.47540283203125 -1.3405687808990479 4899181 0 -1
3.283155918121338 5.834621429443359 2.0376644134521484 7589974 0 -1
-4.810210704803467 4.632751941680908 -2.09128737449646 13164576 0 -1
3.655442237854004 5.526258945465088 2.2521555423736572 13164576 0 -1
-1.825850009918213 6.362249851226807 2.370374917984009 4456788 0 -1
-5.249866008758545 4.509353160858154 -1.2390596866607666 4505456 0 -1
-5.875092506408691 4.807703495025635 -1.5433375835418701 2782862 0 -1
-2.157911539077759 7.089999198913574 2.2556471824645996 2782862 0 -1
-1.8912080526351929 7.236212730407715 2.0182106494903564 2782862 0 -1
-5.773573398590088 4.9591898918151855 -1.6094307899475098 3432845 0 -1
-2.1047348976135254 7.119247913360596 2.324733257293701 3432845 0 -1
-5.99306058883667 4.783458232879639 -1.3113880157470703 2718350 0 -1
-5.8248724937438965 5.003252983093262 -1.4365909099578857 3432845 0 -1
-2.0226824283599854 7.265831470489502 2.035170555114746 2070155 0 -1
-5.763081073760986 5.068349838256836 -1.622898817062378 2199437 0 -1
-5.790060520172119 5.092076778411865 -1.4425766468048096 2070155 0 -1
-2.022135019302368 7.263864994049072 2.163865089416504 2070155 0 -1
-2.097809076309204 7.309902191162109 1.9234355688095093 2072968 0 -1
-5.831343650817871 5.0088114738464355 -1.5627914667129517 2271109 0 -1
-5.805422782897949 5.105587482452393 -1.5089192390441895 2199437 0 -1
-5.805422782897949 5.105587482452393 -1.5089192390441895 2006409 0 -1
-1.9933960437774658 7.387307167053223 1.8710598945617676 2006409 0 -1
-6.00879430770874 4.917113780975342 -1.3278489112854004 2072968 0 -1
-2.1022324562072754 7.325315952301025 1.9917733669281006 2072968 0 -1
-5.796392917633057 5.097646236419678 -1.569275975227356 2271109 0 -1
-5.846441745758057 5.141661643981934 -1.39394211769104 2199437 0 -1
6.079311847686768 7.680065155029297 -0.8285338282585144 4212104 6 -1
6.164728164672852 7.632884979248047 -0.6025700569152832 3887499 6 -1
6.094570636749268 7.699341773986816 -0.4519275426864624 3238030 6 -1
6.0864973068237305 7.68914270401001 -0.6778913140296936 3107982 6 -1
6.1032280921936035 7.710278511047363 -0.7557066679000854 4212104 6 -1
6.1032280921936035 7.710278511047363 -0.7557066679000854 3887499 6 -1
6.099442005157471 7.705495834350586 -0.8312773108482361 3757452 6 -1
6.1878743171691895 7.661543846130371 -0.5289946794509888 3692940 6 -1
6.112412452697754 7.72188138961792 -0.5289946794509888 3238030 6 -1
6.1032280921936035 7.710278511047363 -0.7557066679000854 3107982 6 -1
6.170543193817139 7.640085220336914 -0.9068480134010315 2977934 6 -1
6.178576469421387 7.650031089782715 -0.7557066679000854 2912910 6 -1
5.818257808685303 7.962028980255127 -0.15114133059978485 11197490 0 -1
6.118348121643066 7.729380130767822 -0.3022826611995697 11197490 6 -1
6.119572162628174 7.730926513671875 -0.8340208530426025 4212104 6 -1
6.1369171142578125 7.752838611602783 -0.37910038232803345 3692940 6 -1
6.186324119567871 7.659624099731445 -0.985660970211029 2977934 6 -1
6.140705108642578 7.757623672485352 -0.1516401469707489 5424489 6 -1
6.110881328582764 7.71994686126709 -0.985660970211029 5949540 6 -1
6.064002990722656 7.815887928009033 -0.22746022045612335 12640037 6 -1
6.06489372253418 7.817035675048828 -0.1516401469707489 13164576 6 -1
6.190642356872559 7.664970874786377 -1.2171117067337036 4212104 6 -1
6.1571044921875 7.778341293334961 -0.38034743070602417 3692940 6 -1
6.190642356872559 7.664970874786377 -1.2171117067337036 2977934 6 -1
6.126072406768799 7.739138126373291 -1.0649727582931519 2468738 6 -1
6.152758598327637 7.77285099029541 -0.5324863791465759 5424489 6 -1
6.130982875823975 7.7453413009643555 -0.988903284072876 5949540 6 -1
6.159999847412109 7.781999111175537 -0.22820845246315002 12640037 6 -1
6.082699775695801 7.839985370635986 -0.3042779266834259 13164576 6 -1
6.708961009979248 7.3474273681640625 -0.457913339138031 4456788 0 -1
6.387974262237549 7.595626354217529 0.8395078182220459 4456788 0 -1
6.175293445587158 7.8013200759887695 -0.457913339138031 3692940 6 -1
6.10551118850708 7.869387626647949 0 3302798 6 -1
6.096722602844238 7.858059406280518 -0.5342322587966919 13164576 6 -1
6.419641971588135 7.633280277252197 0.6125463843345642 4456788 0 -1
6.129792213439941 7.9006829261779785 -1.07893967628479 4456788 6 -1
5.933993816375732 8.120408058166504 -0.07706711441278458 4456788 0 -1
6.211389064788818 7.846919536590576 -1.0018725395202637 4456788 6 -1
5.550423622131348 8.391071319580078 0.773165225982666 4456788 0 -1
6.800657749176025 7.447850227355957 0.3092660903930664 4456788 0 -1
5.099143981933594 8.698525428771973 0.386582612991333 4456788 0 -1
6.250861167907715 7.896785259246826 -0.6185321807861328 4456788 6 -1
4.479765892028809 9.02985668182373 -0.9307911992073059 4456788 0 -1
4.96407413482666 8.821845054626465 -0.07756593078374863 4456788 0 -1
7.249123573303223 6.981688022613525 1.0859230756759644 4456788 0 -1
4.5715508460998535 9.019829750061035 -0.46539559960365295 4456788 0 -1
6.900124549865723 7.400338649749756 0.3102637231349945 4456788 0 -1
4.883066177368164 8.858795166015625 -0.38782966136932373 4456788 0 -1
6.410699367523193 7.778789043426514 -0.9307911992073059 4456788 6 -1
4.408259868621826 9.079569816589355 -0.7756593227386475 4456788 0 -1
4.962907791137695 8.819772720336914 0.23269779980182648 4456788 0 -1
6.5929107666015625 7.681178569793701 -0.07756593078374863 4456788 0 -1
7.110672473907471 7.154253005981445 0.8532252311706543 4456788 0 -1
7.520472049713135 6.613890171051025 1.473752737045288 4456788 0 -1
4.964219570159912 8.822103500366211 0 4456788 0 -1
6.348445415496826 7.860354900360107 -0.620527446269989 4456788 6 -1
7.041695594787598 7.238797187805176 0.6980934143066406 4456788 0 -1
4.886079788208008 8.864262580871582 -0.15513186156749725 4456788 0 -1
6.357418060302734 7.87146520614624 -0.3102637231349945 4456788 6 -1
4.886079788208008 8.864262580871582 -0.15513186156749725 4456788 0 -1
4.587734222412109 9.051759719848633 -0.38907670974731445 4456788 0 -1
7.5609283447265625 6.649469375610352 1.322860836982727 4456788 0 -1
4.504802227020264 9.080323219299316 -0.6225227117538452 4456788 0 -1
6.685042858123779 7.630547523498535 0.4668920338153839 4456788 0 -1
4.504802227020264 9.080323219299316 -0.6225227117538452 4456788 0 -1
6.534761428833008 7.770163536071777 -0.23344601690769196 4456788 0 -1
7.382031440734863 6.798276424407959 1.5563068389892578 4456788 0 -1
4.901071071624756 8.891459465026855 -0.23344601690769196 4456788 0 -1
7.5045318603515625 6.754866600036621 1.0894147157669067 4456788 0 -1
4.980181694030762 8.850470542907715 0 4456788 0 -1
6.288036823272705 7.943749904632568 -0.7003380656242371 4456788 6 -1
4.334378242492676 9.12398910522461 -1.3271007537841797 4456788 0 -1
4.839446067810059 8.963849067687988 -0.15612949430942535 4456788 0 -1
7.499911308288574 6.750707626342773 1.405165433883667 4456788 0 -1
6.304654598236084 7.964743137359619 -0.7806474566459656 4456788 6 -1
6.198068141937256 7.988684177398682 -1.2490359544754028 4456788 6 -1
-14.577763557434082 2.8992879390716553 4.137681007385254 2264205 0 -1
-14.57567310333252 2.898872137069702 4.26487922668457 2264205 0 -1
