VERSION .7
FIELDS x y z rgb label object
SIZE 4 4 4 4 4 4
TYPE F F F I I I
COUNT 1 1 1 1 1 1
WIDTH 680
HEIGHT 1
POINTS 680
VIEWPOINT 0 0 0 1 0 0 0
DATA ascii
-0.23429885506629944 1.5922024250030518 -0.40703409910202026 4590430 0 -1
-0.07613719999790192 1.654321312904358 -0.11447833478450775 4590430 0 -1
0.21516138315200806 1.6376947164535522 -0.16535760462284088 4590430 0 -1
-0.1007860004901886 1.6410675048828125 -0.2289566695690155 4657508 0 -1
0.27963048219680786 1.6350667476654053 -0.06359907984733582 4657508 0 -1
0.3178839385509491 1.5636324882507324 -0.457913339138031 4729209 0 -1
0.6491811871528625 1.4943641424179077 -0.3179953694343567 4729209 0 -1
-1.3884108066558838 0.8864206075668335 -0.38907670974731445 4456788 0 -1
0.1281602680683136 1.6676634550094604 0.2593844532966614 4456788 0 -1
-0.245951846241951 1.671391487121582 0.10375379025936127 4590430 0 -1
0.012955510057508945 1.690734624862671 0.07781533896923065 4590430 0 -1
0.12858721613883972 1.673219084739685 0.22047679126262665 4590430 0 -1
-1.4980701208114624 0.5691102147102356 0.5447073578834534 4657508 0 -1
-0.522357702255249 1.5367766618728638 -0.4798612594604492 4657508 0 -1
0.2844840884208679 1.6634469032287598 -0.1296922266483307 4657508 0 -1
-0.335801362991333 1.588010549545288 -0.4798612594604492 4729209 0 -1
0.2611788511276245 1.6019755601882935 -0.4798612594604492 4729209 0 -1
0.6993799209594727 1.5049569606781006 0.579125702381134 4456788 0 -1
0.32706424593925476 1.6757473945617676 0.4175092279911041 4456788 0 -1
0.35107988119125366 1.6602628231048584 0.457913339138031 4456788 0 -1
-0.013218621723353863 1.725071668624878 -0.33670100569725037 4456788 0 -1
0.4202022850513458 1.6614141464233398 0.3905731439590454 4456788 0 -1
1.654076099395752 0.542841374874115 -0.24242471158504486 4456788 0 -1
-1.6426666975021362 0.6240417957305908 -0.04040411859750748 4456788 0 -1
0.6846937537193298 1.5064665079116821 0.5925937294960022 4456788 0 -1
0.32828304171562195 1.6819920539855957 0.3905731439590454 4657508 0 -1
0.4091569781303406 1.6177427768707275 0.5521896481513977 4657508 0 -1
0.3879847526550293 1.7023718357086182 -0.20202060043811798 4729209 0 -1
1.1716850996017456 1.3101096153259277 0.013468039222061634 4729209 0 -1
-0.20945005118846893 1.6955304145812988 -0.5349804759025574 4456788 0 -1
-0.13521139323711395 1.7594149112701416 0.30178385972976685 4456788 0 -1
0.16225366294384003 1.7571274042129517 0.30178385972976685 4456788 0 -1
1.642062783241272 0.5823872089385986 -0.4115234315395355 4456788 0 -1
-1.6711208820343018 0.5926932096481323 -0.2469140589237213 4456788 0 -1
-1.7005140781402588 0.5580815672874451 0.04115234315395355 4523353 0 -1
-1.740873098373413 0.34623226523399353 0.23319661617279053 4523353 0 -1
0.39400410652160645 1.7287830114364624 -0.2469140589237213 4729209 0 -1
-0.2254151850938797 1.7157412767410278 -0.5726410746574402 4456788 0 -1
-0.14952115714550018 1.7676469087600708 -0.41900569200515747 4456788 0 -1
-0.08237192779779434 1.7897906303405762 -0.335204541683197 4456788 0 -1
-1.778865933418274 0.35378846526145935 0.18156912922859192 4523353 0 -1
0.013940590433776379 1.8192907571792603 -0.11173484474420547 4657508 0 -1
0.7115229964256287 1.6010677814483643 0.5028068423271179 4657508 0 -1
-1.7621731758117676 0.3504685163497925 -0.3072708249092102 4657508 0 -1
0.5191473960876465 1.7560116052627563 0.2985415458679199 4456788 0 -1
-1.7759872674942017 0.4792488217353821 0.24167649447917938 4523353 0 -1
-0.5803493857383728 1.6630330085754395 0.5828668475151062 4590430 0 -1
0.028429189696907997 1.8548858165740967 0.02843252755701542 4590430 0 -1
0.8092734217643738 1.6312512159347534 0.35540661215782166 4590430 0 -1
0.7522895336151123 1.6551910638809204 0.3696228563785553 4657508 0 -1
1.1278506517410278 1.3964531421661377 -0.46913671493530273 4657508 0 -1
-1.2317466735839844 2.3296892642974854 0.08080823719501495 4456788 0 -1
-0.9275470972061157 2.46266508102417 -0.1616164743900299 4456788 0 -1
-0.26169222593307495 2.6140613555908203 0.22222265601158142 4456788 0 -1
-1.4875171184539795 2.160903215408325 -0.2626267671585083 4456788 0 -1
-1.3535380363464355 2.2625465393066406 0 4456788 0 -1
-0.7035554051399231 2.527294874191284 0.2626267671585083 4456788 0 -1
-1.6207293272018433 2.0067129135131836 -0.5454556345939636 4456788 0 -1
-1.3127869367599487 2.2856290340423584 -0.060606177896261215 4456788 0 -1
-1.538985013961792 2.1060330867767334 -0.38383913040161133 4456788 0 -1
-0.9655909538269043 2.4413206577301025 -0.24242471158504486 4456788 0 -1
-1.4098838567733765 2.1744725704193115 -0.4848494231700897 4456788 0 -1
-0.28215551376342773 2.6150550842285156 0.18181852996349335 4456788 0 -1
-1.3095518350601196 2.1890203952789307 -0.6666679382324219 4590430 0 -1
-1.173015832901001 2.2186074256896973 -0.8080824017524719 4726897 0 -1
0.3697781264781952 2.5128660202026367 0.7070720791816711 4726897 0 -1
-2.0660769939422607 1.5662859678268433 -0.6339954733848572 4456788 0 -1
-1.9668898582458496 1.7704074382781982 -0.3476749360561371 4456788 0 -1
-1.8392807245254517 1.9314414262771606 -0.10225734114646912 4456788 0 -1
-1.4786887168884277 2.191309690475464 -0.36812642216682434 4456788 0 -1
-1.2257905006408691 2.367753267288208 0.12270880490541458 4456788 0 -1
-1.5359514951705933 2.144160509109497 -0.40902936458587646 4456788 0 -1
-1.6757891178131104 2.074885606765747 0.10225734114646912 4456788 0 -1
-1.0776729583740234 2.4249777793884277 0.2863205373287201 4456788 0 -1
-1.6151525974273682 2.0404410362243652 -0.5930925607681274 4456788 0 -1
-1.4640085697174072 2.2132725715637207 -0.2863205373287201 4456788 0 -1
-1.5394567251205444 2.1490535736083984 -0.36812642216682434 4456788 0 -1
-1.5522267818450928 2.1241536140441895 -0.4499322772026062 4456788 0 -1
-1.5455995798110962 2.1150848865509033 -0.5112866759300232 4456788 0 -1
-1.5522267818450928 2.1241536140441895 -0.4499322772026062 4523353 0 -1
-1.5325919389724731 2.0972843170166016 -0.6135440468788147 4725613 0 -1
-1.6549913883209229 1.9678689241409302 -0.7158013582229614 3432845 0 -1
-1.245898962020874 2.214134454727173 -0.8180587291717529 3432845 0 -1
-1.0723791122436523 2.4130656719207764 -0.3885778784751892 3432845 0 -1
-1.5582306385040283 2.1752617359161377 -0.3726157546043396 4456788 0 -1
-2.0825388431549072 1.6204184293746948 -0.5796245336532593 4456788 0 -1
-1.9887943267822266 1.790123701095581 -0.3726157546043396 4456788 0 -1
-1.4792194366455078 2.2362682819366455 -0.3312140107154846 4456788 0 -1
-1.4792194366455078 2.2362682819366455 -0.3312140107154846 4456788 0 -1
-1.5546826124191284 2.170308828353882 -0.41401752829551697 4456788 0 -1
-1.5546826124191284 2.170308828353882 -0.41401752829551697 4456788 0 -1
-1.990876317024231 1.7919976711273193 -0.3519148826599121 4456788 0 -1
-1.8817877769470215 1.934460163116455 -0.12420525401830673 4456788 0 -1
-1.495063304901123 2.215575695037842 -0.3933166265487671 4456788 0 -1
-1.3652547597885132 2.3289599418640137 -0.10350438207387924 4456788 0 -1
-1.6228727102279663 2.091719150543213 -0.5382227897644043 4456788 0 -1
-1.4830501079559326 2.2420592308044434 -0.26911139488220215 4456788 0 -1
-1.3658968210220337 2.3300552368164062 -0.062102627009153366 4456788 0 -1
-1.5751389265060425 2.155508041381836 -0.41401752829551697 4456788 0 -1
-1.57115638256073 2.1500580310821533 -0.45541927218437195 4456788 0 -1
-1.5819430351257324 2.1648192405700684 0.3312140107154846 4456788 0 -1
-1.566782832145691 2.144073009490967 -0.49682101607322693 4456788 0 -1
-1.57115638256073 2.1500580310821533 -0.45541927218437195 4523353 0 -1
-1.6588404178619385 2.0128488540649414 -0.7038297653198242 3432845 0 -1
-1.5486418008804321 2.1618757247924805 -0.47612014412879944 4505456 0 -1
-2.0288755893707275 1.7842975854873657 -0.41900569200515747 4456788 0 -1
-1.920567512512207 1.9323384761810303 -0.23045311868190765 4456788 0 -1
-1.419549822807312 2.3253793716430664 -0.23045311868190765 4456788 0 -1
-1.571473240852356 2.1937479972839355 -0.4399559497833252 4456788 0 -1
-1.569435477256775 2.190903425216675 -0.4609062373638153 4456788 0 -1
-1.647438645362854 2.123382091522217 -0.5028068423271179 4456788 0 -1
-1.9996215105056763 1.8414957523345947 -0.2933039665222168 4456788 0 -1
-1.9044599533081055 1.9577668905258179 -0.12570171058177948 4456788 0 -1
-1.6291671991348267 2.1422531604766846 -0.4818565249443054 4456788 0 -1
-1.5734137296676636 2.1964569091796875 -0.41900569200515747 4456788 0 -1
-1.5832971334457397 2.1666722297668457 -0.5237571001052856 4456788 0 -1
-1.58792245388031 2.173001766204834 -0.4818565249443054 4456788 0 -1
-1.5900859832763672 2.175962448120117 -0.4609062373638153 4523353 0 -1
-1.5466777086257935 2.2025489807128906 -0.4818565249443054 4017546 0 -1
-1.1136080026626587 2.4501655101776123 -0.4818565249443054 4017546 0 -1
-1.7277984619140625 1.9721710681915283 -0.7751604914665222 3432845 0 -1
-1.657456398010254 2.093883752822876 -0.5866079330444336 3432845 0 -1
-2.144782543182373 1.5831615924835205 -0.6075582504272461 6933851 0 -1
-1.9690717458724976 1.8547043800354004 -0.39805540442466736 6933851 0 -1
-1.5786553621292114 2.2037742137908936 -0.35615482926368713 6933851 0 -1
0.7424052953720093 2.586941957473755 0.4818565249443054 6933851 0 -1
-1.801973819732666 2.099419116973877 0 4456788 0 -1
-1.5343917608261108 2.273857593536377 0.36039477586746216 4456788 0 -1
1.8162230253219604 1.8670601844787598 0.9327864646911621 4456788 0 -1
-1.8642032146453857 2.041612386703491 -0.1059984639286995 4456788 0 -1
-1.6476918458938599 2.210294485092163 0.23319661617279053 4456788 0 -1
-1.6698518991470337 2.1957509517669678 0.211996927857399 4456788 0 -1
-1.1731593608856201 2.469533681869507 0.423993855714798 4456788 0 -1
-0.880900502204895 2.5916099548339844 0.40279415249824524 4456788 0 -1
-1.8006508350372314 2.0978777408599854 -0.1059984639286995 4456788 0 -1
-1.7365366220474243 2.1501004695892334 0.12719815969467163 4456788 0 -1
-1.78072190284729 2.117368698120117 -0.02119969204068184 4456788 0 -1
-1.671626091003418 2.1980838775634766 0.1695975363254547 4456788 0 -1
-1.8229594230651855 2.0807912349700928 -0.04239938408136368 4456788 0 -1
-1.6215583086013794 2.2190308570861816 0.3179953694343567 4456788 0 -1
-1.8231199979782104 2.0809743404388428 -0.02119969204068184 4456788 0 -1
-1.8229594230651855 2.0807912349700928 0.04239938408136368 4456788 0 -1
-1.726181149482727 1.9703248739242554 -0.8903870582580566 4456788 0 -1
-1.5836983919143677 2.2108142375946045 -0.5087926387786865 4456788 0 -1
-1.7805650234222412 2.1171822547912598 -0.04239938408136368 4657508 0 -1
-1.668816089630127 2.1943888664245605 0.23319661617279053 4657508 0 -1
-2.0764083862304688 1.7835233211517334 -0.40279415249824524 4725613 0 -1
-1.8019208908081055 2.0993576049804688 -0.02119969204068184 4664956 0 -1
-1.6636767387390137 2.1876308917999268 0.3179953694343567 4664956 0 -1
-2.543306827545166 1.027801752090454 -0.36039477586746216 3562893 0 -1
-1.8017622232437134 2.099172592163086 -0.04239938408136368 3562893 0 -1
1.3919066190719604 2.3266830444335938 0.5511919856071472 2912910 0 -1
2.062732458114624 1.6879743337631226 0.7419891953468323 2912910 0 -1
2.221112012863159 1.462489128112793 0.763188898563385 2912910 0 -1
-1.817813515663147 2.117873430252075 -0.21449099481105804 4456788 0 -1
-1.7802753448486328 2.160198926925659 0 4456788 0 -1
-1.8008779287338257 2.1413354873657227 -0.08579640090465546 4456788 0 -1
-1.947221279144287 2.001725196838379 -0.19304190576076508 4456788 0 -1
-1.78022301197052 2.160135507583618 -0.021449100226163864 4456788 0 -1
-1.645703673362732 2.252072811126709 0.2359400987625122 4456788 0 -1
-1.8445684909820557 2.1054563522338867 -0.021449100226163864 4456788 0 -1
-1.844406008720398 2.105271100997925 -0.04289820045232773 4456788 0 -1
-1.844406008720398 2.105271100997925 -0.04289820045232773 4456788 0 -1
-1.8446226119995117 2.105518341064453 0 4456788 0 -1
-1.844406008720398 2.105271100997925 -0.04289820045232773 4456788 0 -1
-1.8432682752609253 2.1039724349975586 -0.10724549740552902 4523353 0 -1
-1.8223170042037964 2.1231203079223633 -0.08579640090465546 4657508 0 -1
-1.8651950359344482 2.0855517387390137 0.08579640090465546 4725613 0 -1
-1.8229594230651855 2.123868703842163 -0.04289820045232773 4664956 0 -1
-1.8229594230651855 2.123868703842163 -0.04289820045232773 3562893 0 -1
-1.863385558128357 2.1269350051879883 -0.15188956260681152 4456788 0 -1
-1.8658525943756104 2.129750967025757 -0.04339701682329178 4456788 0 -1
-1.8660169839859009 2.1299386024475098 -0.02169850841164589 4456788 0 -1
-1.8441566228866577 2.1485648155212402 -0.04339701682329178 4456788 0 -1
-1.8655786514282227 2.1294381618499756 -0.06509552150964737 4523353 0 -1
-1.9094126224517822 2.0911242961883545 -0.02169850841164589 4590430 0 -1
-1.8218183517456055 2.1662347316741943 -0.08679403364658356 4590430 0 -1
-1.9724763631820679 2.0276870727539062 -0.13019104301929474 4657508 0 -1
-1.8441566228866577 2.1485648155212402 -0.04339701682329178 4657508 0 -1
-1.8037351369857788 2.233302354812622 -0.5836150646209717 4456788 0 -1
-1.8008086681365967 2.274982452392578 0.40404120087623596 4456788 0 -1
-1.8379825353622437 2.2757060527801514 0.15712712705135345 4456788 0 -1
-1.8551862239837646 2.251096487045288 -0.2693607807159424 4456788 0 -1
-1.8292440176010132 2.3109052181243896 -0.29504984617233276 4456788 0 -1
-1.7045315504074097 2.379495143890381 -0.4539228081703186 4456788 0 -1
-1.829343318939209 2.2650094032287598 -0.5447073578834534 4456788 0 -1
-1.845226526260376 2.284675359725952 0.38583439588546753 4456788 0 -1
-1.8432968854904175 2.2822861671447754 0.4085305333137512 4456788 0 -1
-1.7637242078781128 2.2732625007629395 0.703580379486084 4456788 0 -1
-1.7529914379119873 2.2594289779663086 0.7716687917709351 4456788 0 -1
-1.8002210855484009 2.320303201675415 -0.38583439588546753 4456788 0 -1
-1.7891566753387451 2.2602622509002686 0.6808842420578003 4456788 0 -1
-1.8096129894256592 2.286104917526245 0.5220112204551697 4456788 0 -1
-1.7512425184249878 2.302774429321289 0.6354919672012329 4456788 0 -1
-1.8408266305923462 2.32553768157959 0.41301989555358887 4456788 0 -1
-1.8053946495056152 2.280776023864746 -0.7113119959831238 4456788 0 -1
-1.838787317276001 2.3229613304138184 0.4359654188156128 4456788 0 -1
-1.8438180685043335 2.282931327819824 0.5965842604637146 4456788 0 -1
-1.756608009338379 2.3564000129699707 0.5736387372016907 4456788 0 -1
-1.7573623657226562 2.310821771621704 0.7342575788497925 4456788 0 -1
-1.7759907245635986 2.2890727519989014 0.7572031021118164 4456788 0 -1
-1.827683448791504 2.2629542350769043 0.7113119959831238 4456788 0 -1
-1.7831058502197266 2.298243284225464 0.7113119959831238 4456788 0 -1
-1.8053946495056152 2.280776023864746 0.7113119959831238 4456788 0 -1
-1.7279486656188965 2.3179550170898438 0.7801486849784851 4456788 0 -1
-1.7641555070877075 2.3197543621063232 0.6883664727210999 4456788 0 -1
-1.8466904163360596 2.2864878177642822 0.5736387372016907 4456788 0 -1
-1.7734808921813965 2.332016706466675 0.6195298433303833 4456788 0 -1
-1.7905045747756958 2.261965274810791 0.803094208240509 4729209 0 -1
-1.8397862911224365 2.3712987899780273 0.3943142592906952 4456788 0 -1
-1.7623509168624878 2.460209846496582 0.06958486884832382 4456788 0 -1
-1.7395707368850708 2.477238655090332 0.02319495752453804 4456788 0 -1
-1.784123182296753 2.4414937496185303 0.13916973769664764 4456788 0 -1
-1.8318194150924683 2.3141586780548096 0.6726537346839905 4456788 0 -1
-1.7390121221542358 2.3327958583831787 0.8350184559822083 4456788 0 -1
-1.7123404741287231 2.487502098083496 -0.20875461399555206 4590430 0 -1
-1.6667293310165405 2.4699723720550537 -0.5334840416908264 4725613 0 -1
-1.7775299549102783 2.4813995361328125 0.2109992951154709 4456788 0 -1
-1.7570364475250244 2.502110719680786 0.11722182482481003 4456788 0 -1
-1.7804635763168335 2.48549485206604 0.11722182482481003 4456788 0 -1
-1.7578628063201904 2.5032875537872314 0.0703330934047699 4456788 0 -1
-1.7775299549102783 2.4813995361328125 0.2109992951154709 4456788 0 -1
-1.7550207376480103 2.4992401599884033 0.18755492568016052 4456788 0 -1
-1.7557963132858276 2.500344753265381 0.16411055624485016 4456788 0 -1
-1.7792068719863892 2.4837405681610107 0.16411055624485016 4456788 0 -1
-1.804368019104004 2.469197988510132 0.09377746284008026 4523353 0 -1
-1.7336093187332153 2.518399238586426 0.11722182482481003 4523353 0 -1
-1.7495821714401245 2.4914956092834473 0.30477675795555115 4728182 0 -1
-1.7714900970458984 2.4729678630828857 0.3282211124897003 4729209 0 -1
-1.7297825813293457 2.5128400325775146 0.23444364964962006 4664956 0 -1
-1.79643976688385 2.5077972412109375 0.21324396133422852 4456788 0 -1
-1.7994047403335571 2.5119364261627197 0.11846886575222015 4456788 0 -1
-1.798134684562683 2.5101633071899414 0.16585642099380493 4456788 0 -1
-1.7751539945602417 2.5279111862182617 0.14216263592243195 4456788 0 -1
-1.7988227605819702 2.5111238956451416 0.14216263592243195 4456788 0 -1
-1.7757283449172974 2.52872896194458 0.11846886575222015 4456788 0 -1
-1.773691177368164 2.5258278846740723 0.18955019116401672 4456788 0 -1
-1.773691177368164 2.5258278846740723 0.18955019116401672 4456788 0 -1
-1.7718086242675781 2.5231471061706543 0.2369377315044403 4456788 0 -1
-1.8239384889602661 2.4959793090820312 0.07108131796121597 4523353 0 -1
-1.7500419616699219 2.5422706604003906 0.18955019116401672 4523353 0 -1
-1.77070951461792 2.5215818881988525 0.2606315016746521 4728182 0 -1
-1.7943190336227417 2.5048367977142334 0.2606315016746521 4729209 0 -1
-1.7459115982055664 2.5362706184387207 0.2843252718448639 4664956 0 -1
-1.703495979309082 2.575327157974243 -0.16585642099380493 3887499 0 -1
-1.7304913997650146 2.5138697624206543 0.4975692331790924 3757452 0 -1
-1.7757283449172974 2.52872896194458 0.11846886575222015 3107982 0 -1
-1.8153496980667114 2.5341951847076416 0.21548862755298615 4456788 0 -1
-1.7642896175384521 2.5629680156707764 0.2873181700706482 4456788 0 -1
-1.8106313943862915 2.527608633041382 0.3112613558769226 4456788 0 -1
-1.7584295272827148 2.554455280303955 0.38309091329574585 4456788 0 -1
-1.7904592752456665 2.54970645904541 0.23943181335926056 4728182 0 -1
-1.8170623779296875 2.536586046218872 0.1676022708415985 4729209 0 -1
-1.7487070560455322 2.5403316020965576 0.5028068423271179 3887499 0 -1
-1.750866413116455 2.543468475341797 0.4788636267185211 3757452 0 -1
-1.7180430889129639 2.546015739440918 0.5746363401412964 3107982 0 -1
-1.738983154296875 2.5262057781219482 0.5985795259475708 2977934 0 -1
-1.6919835805892944 2.557922840118408 0.5985795259475708 2912910 0 -1
-1.7177079916000366 2.4952995777130127 0.7661818265914917 2782862 0 -1
-1.6863071918487549 2.6534204483032227 0.2903110682964325 4456788 0 -1
-1.7971032857894897 2.5591681003570557 0.43546661734580994 4456788 0 -1
-1.7971032857894897 2.5591681003570557 0.43546661734580994 4456788 0 -1
-1.7454930543899536 2.5356626510620117 0.7015851140022278 4456788 0 -1
-1.7384166717529297 2.5762078762054443 0.5564295649528503 4600703 0 -1
-1.788477897644043 2.5468850135803223 0.5322369933128357 4341894 0 -1
-1.7908000946044922 2.550191879272461 0.5080443620681763 4147337 0 -1
-1.7646315097808838 2.563464879989624 0.5322369933128357 3887499 0 -1
-1.7669227123260498 2.566793203353882 0.5080443620681763 3757452 0 -1
-1.7096084356307983 2.5845677852630615 0.6048147678375244 3238030 0 -1
-1.7333530187606812 2.5687038898468018 0.6048147678375244 3107982 0 -1
-1.7333530187606812 2.5687038898468018 0.6048147678375244 2977934 0 -1
-1.7333530187606812 2.5687038898468018 0.6048147678375244 2912910 0 -1
-1.743045449256897 2.5830671787261963 0.5080443620681763 2782862 0 -1
-1.6930924654006958 2.611266851425171 0.5322369933128357 2134668 0 -1
-1.829492211341858 2.5539379119873047 0.31450366973876953 2070155 0 -1
-1.8882553577423096 2.5329980850219727 0.4399559497833252 4456788 0 -1
-1.9484018087387085 2.5112931728363037 0.2688619792461395 4456788 0 -1
-1.8203548192977905 2.541182279586792 0.6354919672012329 4456788 0 -1
-1.8203548192977905 2.541182279586792 0.6354919672012329 4456788 0 -1
-1.918121337890625 2.522209882736206 0.366629958152771 4456788 0 -1
-1.8861634731292725 2.5301918983459473 0.46439796686172485 4456788 0 -1
-1.5861080884933472 2.598220109939575 0.9532378911972046 4456788 0 -1
-1.706101894378662 2.5792667865753174 0.7821439504623413 4456788 0 -1
-1.8551002740859985 2.5386228561401367 0.537723958492279 4725613 0 -1
-1.7217503786087036 2.60292387008667 0.6599339246749878 4600703 0 -1
-1.7563384771347046 2.602766513824463 0.5621659755706787 4471684 0 -1
-1.7724508047103882 2.5748238563537598 0.6354919672012329 4341894 0 -1
-1.780397891998291 2.5863685607910156 0.5621659755706787 4147337 0 -1
-1.753835678100586 2.599057674407959 0.5866079330444336 3887499 0 -1
-1.7245466709136963 2.6071512699127197 0.6354919672012329 3302798 0 -1
-1.7272332906723022 2.611212968826294 0.6110499501228333 3238030 0 -1
-1.7512226104736328 2.5951852798461914 0.6110499501228333 3107982 0 -1
-1.7512226104736328 2.5951852798461914 0.6110499501228333 2977934 0 -1
-1.7512226104736328 2.5951852798461914 0.6110499501228333 2912910 0 -1
-1.7587313652038574 2.6063127517700195 0.537723958492279 2782862 0 -1
-1.7168923616409302 2.6479737758636475 0.46439796686172485 2070155 0 -1
-1.907523274421692 2.558845043182373 0.44444531202316284 4456788 0 -1
-1.9622217416763306 2.5291056632995605 0.37037110328674316 4456788 0 -1
-1.6729822158813477 2.5802507400512695 0.9629648327827454 4456788 0 -1
-1.6729822158813477 2.5802507400512695 0.9629648327827454 4456788 0 -1
-1.5982072353363037 2.618040084838867 0.9876562356948853 4456788 0 -1
-1.7876336574554443 2.596879720687866 0.6666679382324219 4471684 0 -1
-1.7363828420639038 2.62504506111145 0.6913593411445618 4341894 0 -1
-1.7421441078186035 2.6337549686431885 0.641976535320282 3302798 0 -1
-1.7690922021865845 2.621666669845581 0.6172851324081421 3238030 0 -1
-1.771731972694397 2.6255786418914795 0.5925937294960022 3107982 0 -1
-1.771731972694397 2.6255786418914795 0.5925937294960022 2977934 0 -1
-1.7690922021865845 2.621666669845581 0.6172851324081421 2912910 0 -1
-1.7905369997024536 2.601097583770752 0.641976535320282 2782862 0 -1
-1.657464623451233 2.608036518096924 1.0225733518600464 4456788 0 -1
2.9125876426696777 1.4393478631973267 -0.19952651858329773 3238030 0 -1
2.909496307373047 1.4378201961517334 -0.24940814077854156 3107982 0 -1
-1.9333256483078003 2.6456706523895264 0.5342322587966919 4456788 0 -1
-2.8124849796295166 1.6250731945037842 -0.6868700385093689 4456788 0 -1
-1.7942436933517456 2.767273187637329 -0.3815944492816925 4456788 0 -1
-2.8303563594818115 1.692983865737915 0.3815944492816925 4456788 0 -1
-1.9518810510635376 2.67106294631958 -0.27983593940734863 4456788 0 -1
2.871807098388672 1.3568084239959717 -0.9667059779167175 4456788 0 -1
-1.9551677703857422 2.675560712814331 -0.20351704955101013 4456788 0 -1
-2.8371684551239014 1.6970585584640503 -0.305275559425354 4523353 0 -1
-2.6930387020111084 1.880595088005066 0.48335298895835876 4523353 0 -1
-1.6788184642791748 2.8638620376586914 0.05087926238775253 4523353 0 -1
-2.800645589828491 1.6752123832702637 0.610551118850708 4657508 0 -1
-2.7155601978302 1.8963221311569214 0.2289566695690155 4657508 0 -1
-1.1956275701522827 3.097184658050537 -0.025439631193876266 4657508 0 -1
-1.8666468858718872 2.6058051586151123 0.8649474382400513 4725613 0 -1
-1.9346814155578613 2.595276355743408 0.7377492785453796 4729209 0 -1
-1.9346814155578613 2.595276355743408 0.7377492785453796 4729209 0 -1
-2.7123541831970215 1.8940833806991577 -0.27983593940734863 4341894 0 -1
-2.2307212352752686 2.4430105686187744 -0.27983593940734863 4341894 0 -1
-2.0082552433013916 2.640730381011963 -0.12719815969467163 4341894 0 -1
-2.6847188472747803 1.87478506565094 -0.7192930579185486 4456788 0 -1
-1.8441729545593262 2.78800106048584 -0.2568903863430023 4456788 0 -1
-1.9414238929748535 2.656752824783325 0.642225980758667 4456788 0 -1
-1.6790791749954224 2.7505171298980713 0.9248054027557373 4456788 0 -1
-1.6946799755096436 2.8909199237823486 -0.10275615751743317 4456788 0 -1
-1.2051142454147339 3.1217594146728516 -0.20551231503486633 4456788 0 -1
-1.8441729545593262 2.78800106048584 -0.2568903863430023 4456788 0 -1
-1.9357322454452515 2.702246904373169 -0.43671366572380066 4456788 0 -1
-1.8461323976516724 2.7909634113311768 -0.20551231503486633 4456788 0 -1
-1.8417752981185913 2.7843761444091797 -0.3082684576511383 4456788 0 -1
-1.864478349685669 2.7630221843719482 -0.3596465289592743 4456788 0 -1
-2.788243055343628 1.8359159231185913 0.3082684576511383 4456788 0 -1
-1.87507963180542 2.7787322998046875 -0.05137807875871658 4456788 0 -1
-1.868626594543457 2.769169569015503 -0.2825794219970703 4456788 0 -1
-2.7731127738952637 1.8812772035598755 -0.10275615751743317 4590430 0 -1
-2.6480343341827393 1.8491677045822144 -0.8991163372993469 4657508 0 -1
-1.8389376401901245 2.7800862789154053 -0.3596465289592743 4657508 0 -1
-2.6897218227386475 1.824704885482788 0.8220492601394653 4725613 0 -1
-1.9352610111236572 2.6483192443847656 0.693604052066803 4729209 0 -1
-1.9497482776641846 2.6681442260742188 -0.5651588439941406 3432845 0 -1
-1.7850446701049805 2.6453070640563965 1.0275615453720093 3238030 0 -1
-2.7153682708740234 1.8961881399154663 -0.7003380656242371 4456788 0 -1
-1.856791377067566 2.807077407836914 -0.36313825845718384 4456788 0 -1
-2.637338876724243 1.789168357849121 -1.141291618347168 4456788 0 -1
-2.0660769939422607 2.558122158050537 -0.8040918707847595 4456788 0 -1
-1.9631977081298828 2.686549425125122 -0.6225227117538452 4456788 0 -1
-1.8408416509628296 2.7829647064208984 -0.570645809173584 4456788 0 -1
-1.9564509391784668 2.7311699390411377 -0.41501516103744507 4456788 0 -1
-1.7612754106521606 2.8851635456085205 -0.18156912922859192 4456788 0 -1
-1.9545257091522217 2.728482484817505 -0.4409535825252533 4456788 0 -1
-1.7604973316192627 2.8838891983032227 -0.20750758051872253 4456788 0 -1
-1.8867686986923218 2.7960546016693115 -0.285322904586792 4456788 0 -1
-2.673344135284424 1.8135943412780762 -1.0115994215011597 4456788 0 -1
-1.849719524383545 2.796386241912842 -0.4668920338153839 4456788 0 -1
-1.9599463939666748 2.7360496520996094 -0.36313825845718384 4456788 0 -1
-1.8889987468719482 2.7993595600128174 -0.23344601690769196 4456788 0 -1
-1.8609224557876587 2.8133227825164795 -0.285322904586792 4456788 0 -1
-1.8582795858383179 2.8093273639678955 -0.3371998071670532 4456788 0 -1
-1.8926169872283936 2.8047215938568115 -0.10375379025936127 4456788 0 -1
-1.8879398107528687 2.797790288925171 -0.2593844532966614 4456788 0 -1
-1.8551914691925049 2.8046586513519287 -0.38907670974731445 4523353 0 -1
-2.8252148628234863 1.860260009765625 0.1296922266483307 4590430 0 -1
-1.8582795858383179 2.8093273639678955 -0.3371998071670532 4657508 0 -1
-1.8534798622131348 2.8020710945129395 -0.41501516103744507 4726897 0 -1
-1.8383369445800781 2.7791781425476074 -0.5965842604637146 4341894 0 -1
-1.973668098449707 2.7008776664733887 -0.5187689065933228 3432845 0 -1
-1.6847611665725708 2.933255195617676 -0.1296922266483307 3432845 0 -1
-2.76484751701355 1.8756701946258545 0.5447073578834534 3238030 0 -1
-1.8889987468719482 2.7993595600128174 -0.23344601690769196 3238030 0 -1
-1.975262999534607 2.7574312686920166 -0.41900569200515747 4456788 0 -1
-1.9250584840774536 2.796515703201294 -0.39281782507896423 4456788 0 -1
-2.705740451812744 1.8355718851089478 -0.9951384663581848 4456788 0 -1
-1.8713017702102661 2.8290140628814697 -0.41900569200515747 4456788 0 -1
-1.8799822330474854 2.842137098312378 -0.2618785500526428 4456788 0 -1
-1.8775379657745361 2.838441848754883 -0.3142542541027069 4456788 0 -1
-1.908961534500122 2.8289427757263184 -0.1833149790763855 4456788 0 -1
-1.87881600856781 2.840373992919922 -0.28806641697883606 4456788 0 -1
-1.876147747039795 2.8363401889801025 -0.34044212102890015 4523353 0 -1
-1.8999032974243164 2.872253656387329 -0.21149811148643494 4456788 0 -1
-3.1333651542663574 2.188082695007324 0.3825920820236206 4456788 0 -1
-3.084355592727661 2.276703357696533 0.23544128239154816 4456788 0 -1
3.4789795875549316 1.5664865970611572 -0.44145241379737854 4456788 0 -1
-3.162648916244507 2.145538330078125 0.3825920820236206 4456788 0 -1
3.3941986560821533 1.7497749328613281 -0.41202226281166077 4456788 0 -1
-2.9008989334106445 2.432619333267212 -0.6474635601043701 4456788 0 -1
-3.0281012058258057 2.3561582565307617 -0.17658096551895142 4590430 0 -1
-2.981982469558716 2.380117654800415 0.44145241379737854 4657508 0 -1
-3.0309505462646484 2.358375310897827 0.05886032059788704 4725613 0 -1
-2.1831085681915283 2.987487554550171 1.0300556421279907 4600703 0 -1
-2.8927907943725586 2.250873327255249 1.1477762460708618 4147337 0 -1
-2.8918137550354004 2.5432097911834717 0.4155139625072479 4456788 0 -1
-2.898247718811035 2.548868179321289 0.32647526264190674 4456788 0 -1
-2.9482877254486084 2.472358226776123 0.4451935291290283 4456788 0 -1
-2.982727527618408 2.440824270248413 0.38583439588546753 4456788 0 -1
-3.007253646850586 2.4002881050109863 0.4451935291290283 4523353 0 -1
-2.903569459915161 2.4940104484558105 0.5935913920402527 4590430 0 -1
-2.9016733169555664 2.5518808364868164 0.26711612939834595 4657508 0 -1
-3.085859537124634 2.3393795490264893 -0.08903870731592178 4725613 0 -1
-2.9016733169555664 2.5518808364868164 0.26711612939834595 2912910 0 -1
-2.927821636199951 2.5148415565490723 0.32647526264190674 2458766 0 -1
-2.9275238513946533 2.574615240097046 0.23943181335926056 4456788 0 -1
-3.0717151165008545 2.390094041824341 0.3292187452316284 4456788 0 -1
-2.9822475910186768 2.500836133956909 0.3292187452316284 4456788 0 -1
-2.952425241470337 2.5359747409820557 0.3292187452316284 4456788 0 -1
-2.9573967456817627 2.5402450561523438 0.23943181335926056 4456788 0 -1
-2.9756271839141846 2.4952845573425293 0.41900569200515747 4456788 0 -1
-2.9756271839141846 2.4952845573425293 0.41900569200515747 4456788 0 -1
-3.0053834915161133 2.459364175796509 0.41900569200515747 4456788 0 -1
-3.032524585723877 2.4204585552215576 0.4489346444606781 4523353 0 -1
-2.937723398208618 2.5233466625213623 0.5087926387786865 4590430 0 -1
-2.922602653503418 2.5702872276306152 0.3292187452316284 4657508 0 -1
-3.1111512184143066 2.358553171157837 -0.11971590667963028 4725613 0 -1
-2.9907004833221436 2.5079243183135986 0.1496448814868927 2912910 0 -1
-2.986870765686035 2.5655617713928223 0.09053515642881393 4456788 0 -1
-2.9788765907287598 2.558695077896118 0.30178385972976685 4456788 0 -1
-3.065155029296875 2.446503162384033 0.36214062571525574 4456788 0 -1
-2.982041597366333 2.5614137649536133 0.24142707884311676 4456788 0 -1
-2.9728007316589355 2.553476333618164 0.392318993806839 4456788 0 -1
-3.095205783843994 2.408371925354004 0.36214062571525574 4456788 0 -1
-2.967860460281372 2.5492329597473145 0.45267578959465027 4456788 0 -1
-3.0004241466522217 2.516078472137451 0.42249739170074463 4456788 0 -1
-3.002829074859619 2.5180952548980713 0.392318993806839 4456788 0 -1
-3.030428409576416 2.479858875274658 0.42249739170074463 4456788 0 -1
-3.057795524597168 2.440629005432129 0.45267578959465027 4523353 0 -1
-3.1177523136138916 2.3635575771331787 0.45267578959465027 4590430 0 -1
-2.967860460281372 2.5492329597473145 0.45267578959465027 4590430 0 -1
-3.0818893909454346 2.398010492324829 0.5130325555801392 4657508 0 -1
-3.0818893909454346 2.398010492324829 0.5130325555801392 4657508 0 -1
-3.035104513168335 2.4836854934692383 0.36214062571525574 4724328 0 -1
-3.030428409576416 2.479858875274658 0.42249739170074463 4725613 0 -1
-3.0708670616149902 2.4510622024536133 0.2716054618358612 4600703 0 -1
-3.039055824279785 2.4869189262390137 0.30178385972976685 4147337 0 -1
-2.8858630657196045 2.361558198928833 1.2674921751022339 2912910 0 -1
-3.113292932510376 2.42244553565979 0.45641690492630005 4456788 0 -1
-3.0298891067504883 2.5407872200012207 0.36513352394104004 4456788 0 -1
-2.7685627937316895 2.725667953491211 0.8215504288673401 4456788 0 -1
-3.041712999343872 2.3059122562408447 -1.0954005718231201 4456788 0 -1
-3.0136990547180176 2.5272104740142822 0.5477002859115601 4456788 0 -1
-3.0500237941741943 2.495894193649292 0.4868446886539459 4456788 0 -1
-3.167696714401245 2.3382210731506348 0.5172724723815918 4456788 0 -1
-3.0622713565826416 2.5059165954589844 0.33470574021339417 4456788 0 -1
-2.828101873397827 2.6638405323028564 0.8215504288673401 4456788 0 -1
-3.083066701889038 2.4607994556427 0.45641690492630005 4456788 0 -1
-3.1073596477508545 2.4178287982940674 0.5172724723815918 4523353 0 -1
-3.134247064590454 2.3760619163513184 0.5477002859115601 4590430 0 -1
-3.134247064590454 2.3760619163513184 0.5477002859115601 4590430 0 -1
-3.1104202270507812 2.420210361480713 0.4868446886539459 4657508 0 -1
-3.057922124862671 2.5023577213287354 0.3955613076686859 4724328 0 -1
-3.0554730892181396 2.5003535747528076 0.4259890913963318 4725613 0 -1
-3.092590808868408 2.4684014320373535 0.33470574021339417 4600703 0 -1
-3.0622713565826416 2.5059165954589844 0.33470574021339417 4147337 0 -1
-2.925494432449341 2.694152593612671 0.46015802025794983 4456788 0 -1
-3.2164692878723145 2.37422251701355 0.21474041044712067 4456788 0 -1
-2.920581102371216 2.6288297176361084 0.7669300436973572 4456788 0 -1
-3.2814736366271973 2.226148843765259 0.5521896481513977 4456788 0 -1
-2.924938917160034 2.6327521800994873 0.7362528443336487 4456788 0 -1
-2.924938917160034 2.6327521800994873 0.7362528443336487 4456788 0 -1
-3.2211060523986816 2.3776450157165527 0 4456788 0 -1
-2.830922842025757 2.6664974689483643 0.9509932398796082 4456788 0 -1
-3.1415183544158936 2.4444077014923096 0.42948082089424133 4456788 0 -1
-2.871382474899292 2.644319772720337 0.8896388411521912 4456788 0 -1
-3.1328296661376953 2.4376471042633057 0.5215124487876892 4523353 0 -1
-2.871382474899292 2.644319772720337 0.8896388411521912 4523353 0 -1
-3.184429168701172 2.41410493850708 0.24541760981082916 4657508 0 -1
-2.9331037998199463 2.640101432800293 0.6748984456062317 4724328 0 -1
-2.2762765884399414 3.2415354251861572 -0.5828668475151062 4724328 0 -1
-2.9956676959991455 2.6345443725585938 0.33744922280311584 4600703 0 -1
-2.611175060272217 2.9196629524230957 0.8282844424247742 4600703 0 -1
-3.0031869411468506 2.6411569118499756 0.18406321108341217 4147337 0 -1
-2.899742364883423 2.7313199043273926 0.6494588255882263 4456788 0 -1
-2.8618698120117188 2.8175292015075684 -0.40204593539237976 4456788 0 -1
-3.3179385662078857 2.2508866786956787 0.4638991355895996 4456788 0 -1
-3.3694167137145996 2.2185890674591064 0.12370643764734268 4456788 0 -1
-3.2464358806610107 2.3963420391082764 -0.09277983009815216 4456788 0 -1
-2.8142387866973877 2.8930110931396484 0.03092660941183567 4456788 0 -1
-3.0912792682647705 2.4673545360565186 0.8040918707847595 4456788 0 -1
-2.844496250152588 2.8619298934936523 -0.09277983009815216 4456788 0 -1
-2.3195033073425293 3.050002098083496 1.2679909467697144 4456788 0 -1
-2.0954525470733643 3.2318291664123535 -1.206137776374817 4456788 0 -1
-3.3082728385925293 2.3102235794067383 0.09277983009815216 4523353 0 -1
-3.0527329444885254 2.622133731842041 -0.3092660903930664 4523353 0 -1
-2.873133420944214 2.828618288040161 0.18555966019630432 4523353 0 -1
-3.2464358806610107 2.3963420391082764 -0.09277983009815216 4590430 0 -1
-3.3365421295166016 2.263507127761841 -0.18555966019630432 4657508 0 -1
-2.9913129806518555 2.6307146549224854 -0.6494588255882263 4724328 0 -1
-2.304124116897583 3.281191825866699 -0.4638991355895996 4724328 0 -1
-2.848686695098877 2.8045504093170166 0.5566789507865906 4600703 0 -1
-2.1905617713928223 3.378516912460327 0.2783394753932953 4600703 0 -1
-3.5390100479125977 1.9722237586975098 -0.37411221861839294 4456788 0 -1
-3.3661201000213623 2.2835729122161865 0.09352805465459824 4456788 0 -1
-2.9846668243408203 2.6865134239196777 -0.6546963453292847 4456788 0 -1
-3.0151829719543457 2.7139813899993896 0.31176018714904785 4456788 0 -1
-2.3682641983032227 3.306053876876831 0.12470407038927078 4456788 0 -1
-3.335833787918091 2.329469919204712 0 4456788 0 -1
-3.108436107635498 2.606654644012451 -0.31176018714904785 4456788 0 -1
-2.305941343307495 3.349821090698242 0.12470407038927078 4456788 0 -1
-3.1065080165863037 2.6050376892089844 0.3429361879825592 4523353 0 -1
-2.331954002380371 3.128197193145752 -1.1535125970840454 4657508 0 -1
-3.0341145992279053 2.544330358505249 -0.9352805018424988 4724328 0 -1
-2.3970978260040283 3.280322313308716 -0.21823212504386902 4724328 0 -1
-3.077970027923584 2.6438112258911133 0.5970830917358398 4456788 0 -1
-2.4288978576660156 3.1938488483428955 0.8484864830970764 4456788 0 -1
-2.411147117614746 3.299548387527466 0.3456796705722809 4456788 0 -1
-2.365506649017334 3.3022043704986572 0.5656576752662659 4456788 0 -1
-3.362421751022339 2.348036766052246 -0.03142542764544487 4456788 0 -1
-2.3243889808654785 3.376619577407837 -0.12570171058177948 4456788 0 -1
-3.112508773803711 2.610069990158081 0.5656576752662659 4523353 0 -1
-3.2027297019958496 2.427978515625 0.8170610666275024 4590430 0 -1
-3.0904994010925293 2.6545732021331787 0.47138139605522156 4590430 0 -1
-2.442460775375366 3.2764363288879395 0.3456796705722809 4657508 0 -1
-2.4162745475769043 3.306565046310425 -0.2199779748916626 4724328 0 -1
3.597846508026123 1.8547593355178833 -0.6599339246749878 4725613 0 -1
-3.046647548675537 2.6793787479400635 -0.7918708324432373 4456788 0 -1
-2.4106457233428955 3.169848680496216 1.108619213104248 4456788 0 -1
-3.1574697494506836 2.5838193893432617 0.6651715040206909 4456788 0 -1
-2.4248881340026855 3.318352460861206 0.44344767928123474 4456788 0 -1
-2.406156301498413 3.358950614929199 0.12669934332370758 4456788 0 -1
-2.3619041442871094 3.363473415374756 0.44344767928123474 4456788 0 -1
-3.3066656589508057 2.440800428390503 -0.44344767928123474 4456788 0 -1
-3.2802276611328125 2.486729383468628 0.38009801506996155 4523353 0 -1
-3.105839252471924 2.6677491664886475 0.5701470375061035 4523353 0 -1
-2.375333547592163 3.3825979232788086 0.06334967166185379 4523353 0 -1
-3.1919240951538086 2.483628273010254 0.8552204966545105 4590430 0 -1
-2.392491579055786 3.0836799144744873 1.3620178699493408 4590430 0 -1
-2.347102165222168 3.2765119075775146 0.9185701608657837 4590430 0 -1
-2.4563801288604736 3.2951085567474365 0.44344767928123474 4657508 0 -1
-2.3428218364715576 3.2705368995666504 0.9502450227737427 4726897 0 -1
-3.013967990875244 2.6506385803222656 1.1173484325408936 4523353 0 -1
-2.242786407470703 3.2580764293670654 1.3088939189910889 4523353 0 -1
-3.1504530906677246 2.514585018157959 1.0534999370574951 4590430 0 -1
-3.5033063888549805 2.2366600036621094 0.2873181700706482 4657508 0 -1
-2.3473963737487793 3.2769229412078857 1.0534999370574951 4726897 0 -1
-3.5381662845611572 2.258916139602661 0.09652095288038254 4523353 0 -1
-3.292419910430908 2.9635236263275146 -0.5125337243080139 4456788 0 -1
-3.3154702186584473 2.915795087814331 0.8260397911071777 4456788 0 -1
-3.303396224975586 2.837440252304077 1.101386308670044 4523353 0 -1
2.7431225776672363 4.316329479217529 0.793117880821228 4456788 5 -1
2.7463369369506836 4.32138729095459 0.753462016582489 4456788 5 -1
2.749382734298706 4.3261799812316895 0.7138060927391052 4456788 5 -1
2.766674518585205 4.353388786315918 0.7182954549789429 4456788 5 -1
2.769570827484131 4.357946395874023 0.6783901453018188 4456788 5 -1
2.814499855041504 4.340820789337158 0.5985795259475708 4456788 5 -1
2.772298812866211 4.362238883972168 0.6384848356246948 4456788 5 -1
2.814499855041504 4.340820789337158 0.5985795259475708 4456788 5 -1
2.777251958847046 4.370032787322998 0.5586742162704468 4456788 5 -1
2.8191850185394287 4.34804630279541 0.5187689065933228 4456788 5 -1
2.8231945037841797 4.354229927062988 0.4389583170413971 4456788 5 -1
2.741640090942383 4.3139967918396 0.9976325631141663 4456788 0 -1
2.7546868324279785 4.422464370727539 0.5621659755706787 4456788 5 -1
2.7868807315826416 4.385183334350586 0.6826300621032715 4456788 5 -1
2.7868807315826416 4.385183334350586 0.6826300621032715 4456788 5 -1
2.7868807315826416 4.385183334350586 0.6826300621032715 4456788 5 -1
2.8345329761505127 4.37171745300293 0.5621659755706787 4456788 5 -1
2.8368048667907715 4.3752217292785645 0.5220112204551697 4456788 5 -1
2.8368048667907715 4.3752217292785645 0.5220112204551697 4456788 5 -1
2.8368048667907715 4.3752217292785645 0.5220112204551697 4456788 5 -1
2.840839385986328 4.381443977355957 0.44170182943344116 4456788 5 -1
2.8826394081115723 4.357943534851074 0.4015471041202545 4456788 5 -1
2.8880820274353027 4.366171836853027 0.2409282624721527 4456788 5 -1
2.8521387577056885 4.398870944976807 0.5656576752662659 4456788 5 -1
2.884310245513916 4.360469341278076 0.6868700385093689 4456788 5 -1
2.8470518589019775 4.391025543212891 0.6464658975601196 4456788 5 -1
2.806952714920044 4.41676664352417 0.6464658975601196 4456788 5 -1
2.8041903972625732 4.412420272827148 0.6868700385093689 4456788 5 -1
2.9021708965301514 4.3874711990356445 0.3636370599269867 4456788 5 -1
2.8142216205596924 4.428204536437988 0.5252535343170166 4456788 5 -1
2.861862897872925 4.4138689041137695 0.3636370599269867 4456788 5 -1
2.9021708965301514 4.3874711990356445 0.3636370599269867 4456788 5 -1
2.7338151931762695 4.478291034698486 0.5252535343170166 4456788 5 -1
-3.2849087715148926 4.067224025726318 -0.6868700385093689 4456788 0 -1
-3.41455078125 3.81795072555542 -1.2525277137756348 4456788 0 -1
-3.1845927238464355 3.9430174827575684 1.4545482397079468 4523353 0 -1
-4.5720648765563965 2.160108804702759 1.4949524402618408 4657508 0 -1
-3.2849087715148926 4.067224025726318 -0.6868700385093689 4657508 0 -1
2.642401695251465 4.600556373596191 -0.0406535267829895 4456788 5 -1
2.683053970336914 4.576966762542725 -0.0406535267829895 4456788 5 -1
2.642401695251465 4.600556373596191 0.0406535267829895 4456788 5 -1
2.637509822845459 4.592039585113525 0.325228214263916 4456788 5 -1
2.840395212173462 4.469388961791992 0.325228214263916 4456788 5 -1
2.7217864990234375 4.549683094024658 0.2032676339149475 4456788 5 -1
2.601520299911499 4.623260498046875 0.081307053565979 4456788 5 -1
2.910163402557373 4.3995537757873535 0.569149374961853 4456788 5 -1
2.7592411041259766 4.519941806793213 0.325228214263916 4456788 5 -1
2.669787883758545 4.5543365478515625 0.5284958481788635 4456788 5 -1
2.748487710952759 4.502326488494873 0.569149374961853 4456788 5 -1
2.7435858249664307 4.494296550750732 0.650456428527832 4456788 5 -1
2.724808692932129 4.374496936798096 -1.2602593898773193 4456788 0 -1
2.879528760910034 4.441114902496338 0.3658817410469055 4456788 5 -1
2.641237735748291 4.598529815673828 0.162614107131958 4456788 5 -1
2.9184484481811523 4.412079334259033 0.406535267829895 4456788 5 -1
-3.28141188621521 4.062894344329834 0.9350311160087585 4456788 0 -1
2.011019468307495 4.848528861999512 0.7724170088768005 4456788 0 -1
2.6012251377105713 4.437376499176025 1.300912857055664 4456788 0 -1
-4.688596725463867 2.4170620441436768 -0.569149374961853 4456788 0 -1
-3.643317699432373 3.8258728981018066 -0.487842321395874 4456788 0 -1
-3.3217267990112305 4.1128106117248535 0.4471887946128845 4456788 0 -1
-3.5765650272369385 3.916933059692383 -0.1219605803489685 4456788 0 -1
-3.341994524002075 4.055200576782227 -0.731763482093811 4456788 0 -1
-3.5359222888946533 3.9536612033843994 0.1219605803489685 4456788 0 -1
-3.3706748485565186 4.090001106262207 -0.243921160697937 4456788 0 -1
-3.5342602729797363 3.9518027305603027 0.2032676339149475 4456788 0 -1
-3.3693854808807373 4.088436603546143 -0.2845746874809265 4456788 0 -1
-4.592634677886963 2.653655767440796 0.1219605803489685 4456788 0 -1
-3.5359222888946533 3.9536612033843994 -0.1219605803489685 4657508 0 -1
-3.798935651779175 3.419440984725952 1.4228734970092773 4729209 0 -1
-3.3297812938690186 3.7231664657592773 1.788755178451538 4729209 0 -1
2.656738758087158 4.625517845153809 -0.20451468229293823 4456788 5 -1
2.698880434036255 4.603964805603027 0.12270880490541458 4456788 5 -1
2.6586906909942627 4.628916263580322 0 4456788 5 -1
2.6586906909942627 4.628916263580322 0 4456788 5 -1
2.6586906909942627 4.628916263580322 0 4456788 5 -1
2.6995937824249268 4.605181694030762 0 4456788 5 -1
2.6574416160583496 4.626741886138916 0.1636117398738861 4456788 5 -1
2.698880434036255 4.603964805603027 0.12270880490541458 4456788 5 -1
2.6583786010742188 4.628372669219971 0.08180586993694305 4456788 5 -1
2.6579883098602295 4.627693176269531 0.12270880490541458 4456788 5 -1
2.7288870811462402 4.56155252456665 0.4908352196216583 4456788 5 -1
2.724682569503784 4.5545244216918945 0.5726410746574402 4456788 5 -1
2.7629668712615967 4.526044845581055 0.6135440468788147 4456788 5 -1
2.7375988960266113 4.576114654541016 -0.24541760981082916 4456788 5 -1
2.7339723110198975 4.570052623748779 -0.36812642216682434 4456788 5 -1
-3.378058433532715 4.098960876464844 0.5317381620407104 4456788 0 -1
-3.392451047897339 4.116424560546875 -0.20451468229293823 4456788 0 -1
-3.557615041732788 3.977916717529297 -0.12270880490541458 4456788 0 -1
-3.388559103012085 4.1117024421691895 -0.3272234797477722 4456788 0 -1
-4.620810508728027 2.669935941696167 0.12270880490541458 4456788 0 -1
-3.513932943344116 4.010928630828857 -0.24541760981082916 4523353 0 -1
-3.5172393321990967 4.014702796936035 -0.08180586993694305 4590430 0 -1
-3.5568835735321045 3.9770987033843994 -0.1636117398738861 4657508 0 -1
2.674823760986328 4.6570048332214355 0.04115234315395355 4456788 5 -1
2.6749024391174316 4.65714168548584 0 4456788 5 -1
2.6741955280303955 4.655910968780518 0.12345702946186066 4456788 5 -1
2.674823760986328 4.6570048332214355 -0.04115234315395355 4456788 5 -1
2.6749024391174316 4.65714168548584 0 4456788 5 -1
2.6749024391174316 4.65714168548584 0 4456788 5 -1
2.715975046157837 4.6331257820129395 0.04115234315395355 4456788 5 -1
2.6749024391174316 4.65714168548584 0 4456788 5 -1
2.6741955280303955 4.655910968780518 0.12345702946186066 4456788 5 -1
2.6741955280303955 4.655910968780518 0.12345702946186066 4456788 5 -1
2.7412965297698975 4.582295894622803 0.5761328339576721 4456788 5 -1
2.7520217895507812 4.600224018096924 -0.3292187452316284 4456788 5 -1
2.7520217895507812 4.600224018096924 -0.3292187452316284 4456788 5 -1
2.7930967807769775 4.5754008293151855 -0.3292187452316284 4456788 5 -1
2.7916972637176514 4.573108673095703 -0.37037110328674316 4456788 5 -1
2.7916972637176514 4.573108673095703 -0.37037110328674316 4456788 5 -1
2.7520217895507812 4.600224018096924 -0.3292187452316284 4456788 5 -1
-3.579833507537842 4.00275993347168 -0.0823046863079071 4456788 0 -1
-3.4120328426361084 4.140185356140137 -0.2469140589237213 4456788 0 -1
-3.5785717964172363 4.001349449157715 -0.1646093726158142 4456788 0 -1
-4.645297527313232 2.684084892272949 0.2469140589237213 4456788 0 -1
-3.5353593826293945 4.035385608673096 -0.2469140589237213 4523353 0 -1
-3.4970247745513916 4.074265956878662 -0.12345702946186066 4590430 0 -1
-3.5785717964172363 4.001349449157715 -0.1646093726158142 4657508 0 -1
2.6911139488220215 4.685366630554199 0 4456788 5 -1
2.732194662094116 4.660794734954834 0.08280350267887115 4456788 5 -1
2.732194662094116 4.660794734954834 0.08280350267887115 4456788 5 -1
2.7317936420440674 4.6601104736328125 0.12420525401830673 4456788 5 -1
2.608004093170166 4.731407165527344 0.08280350267887115 4456788 5 -1
2.6490118503570557 4.70766019821167 0.12420525401830673 4456788 5 -1
2.6910347938537598 4.6852288246154785 -0.04140175133943558 4456788 5 -1
2.6910347938537598 4.6852288246154785 -0.04140175133943558 4456788 5 -1
2.732435464859009 4.661205291748047 -0.04140175133943558 4456788 5 -1
2.6494009494781494 4.708351135253906 0.08280350267887115 4456788 5 -1
2.770984172821045 4.63192081451416 0.24841050803661346 4456788 5 -1
2.9290642738342285 4.517513751983643 0.45541927218437195 4456788 5 -1
2.7687008380889893 4.628104209899902 0.3312140107154846 4456788 5 -1
2.732194662094116 4.660794734954834 0.08280350267887115 4456788 5 -1
2.7738358974456787 4.636687755584717 -0.04140175133943558 4456788 5 -1
2.8033926486968994 4.59226655960083 0.49682101607322693 4456788 5 -1
