VERSION .7
FIELDS x y z rgb label object
SIZE 4 4 4 4 4 4
TYPE F F F I I I
COUNT 1 1 1 1 1 1
WIDTH 683
HEIGHT 1
POINTS 683
VIEWPOINT 0 0 0 1 0 0 0
DATA ascii
-1.7730135917663574 2.3784072399139404 0.9816704392433167 4729209 0 -1
-1.7632851600646973 2.365356922149658 1.0295567512512207 4600703 0 -1
-1.7776851654052734 2.384673833847046 0.9577272534370422 4536450 0 -1
-1.7588109970092773 2.4068551063537598 1.0402814149856567 4725613 0 -1
-1.9614362716674805 2.477905035018921 -1.017585277557373 4456788 0 -1
-1.8386949300765991 2.6710562705993652 -0.7123096585273743 4456788 0 -1
-2.0797035694122314 2.4728732109069824 -0.763188898563385 4456788 0 -1
-1.9401304721832275 2.654982805252075 -0.457913339138031 4456788 0 -1
-1.9401304721832275 2.654982805252075 -0.457913339138031 4456788 0 -1
-2.087167263031006 2.481748104095459 -0.7123096585273743 4456788 0 -1
-1.9225751161575317 2.6309590339660645 0.6359907388687134 4456788 0 -1
-1.8883894681930542 2.636157274246216 -0.7123096585273743 4456788 0 -1
-2.8208131790161133 1.744259238243103 0.152637779712677 4456788 0 -1
-1.8048876523971558 2.783689260482788 -0.12719815969467163 4456788 0 -1
-1.8562204837799072 2.7507846355438232 0.10175852477550507 4456788 0 -1
-1.9567803144454956 2.677767276763916 0.152637779712677 4456788 0 -1
-1.8036136627197266 2.781724452972412 -0.17807741463184357 4456788 0 -1
-2.8739185333251953 1.6605699062347412 0.0763188898563385 4523353 0 -1
-2.737703323364258 1.857255458831787 -0.27983593940734863 4523353 0 -1
-1.8568780422210693 2.6442904472351074 0.763188898563385 4523353 0 -1
-2.811586380004883 1.5668442249298096 0.8140681982040405 4590430 0 -1
-1.908217430114746 2.66383695602417 -0.5342322587966919 4729209 0 -1
-1.9376388788223267 2.704908609390259 -0.41102463006973267 4456788 0 -1
-1.8206605911254883 2.752455234527588 -0.590847909450531 4456788 0 -1
-1.9546905755996704 2.674907684326172 -0.5137807726860046 4456788 0 -1
-1.9315656423568726 2.6964304447174072 -0.48809173703193665 4456788 0 -1
-1.9591513872146606 2.6810121536254883 -0.46240270137786865 4456788 0 -1
-1.8033682107925415 2.7263128757476807 -0.744982123374939 4456788 0 -1
-1.849393606185913 2.795893430709839 -0.05137807875871658 4456788 0 -1
-1.8482528924942017 2.7941689491271973 -0.12844519317150116 4456788 0 -1
-1.8739230632781982 2.7770183086395264 -0.12844519317150116 4456788 0 -1
-1.8461323976516724 2.7909634113311768 -0.20551231503486633 4456788 0 -1
-2.7662594318389893 1.8766279220581055 -0.2568903863430023 4523353 0 -1
-1.8225826025009155 2.8109803199768066 -0.12844519317150116 4523353 0 -1
-1.8234398365020752 2.812302350997925 -0.07706711441278458 4657508 0 -1
-1.8491220474243164 2.795482873916626 -0.07706711441278458 4724328 0 -1
-1.8225826025009155 2.8109803199768066 -0.12844519317150116 4725613 0 -1
-1.9190698862075806 2.6789867877960205 0.6165369153022766 4726897 0 -1
-1.823921799659729 2.8130457401275635 0 4726897 0 -1
-1.9190698862075806 2.6789867877960205 -0.6165369153022766 4729209 0 -1
-1.9352610111236572 2.6483192443847656 -0.693604052066803 4017546 0 -1
-1.9414238929748535 2.656752824783325 -0.642225980758667 3432845 0 -1
-1.849393606185913 2.795893430709839 -0.05137807875871658 2588302 0 -1
-1.98024320602417 2.7098753452301025 -0.4409535825252533 4456788 0 -1
-1.824078917503357 2.7576231956481934 -0.7262765169143677 4456788 0 -1
-1.867074728012085 2.8226234912872314 -0.07781533896923065 4456788 0 -1
-1.865593433380127 2.8203842639923096 -0.1556306779384613 4456788 0 -1
-1.8907809257507324 2.8020005226135254 -0.18156912922859192 4456788 0 -1
-1.8631219863891602 2.816648006439209 -0.23344601690769196 4456788 0 -1
-1.864879846572876 2.819305419921875 -0.18156912922859192 4523353 0 -1
-1.86405611038208 2.8180601596832275 -0.20750758051872253 4590430 0 -1
-1.867074728012085 2.8226234912872314 -0.07781533896923065 4657508 0 -1
-1.8661969900131226 2.8212966918945312 -0.1296922266483307 4724328 0 -1
-1.8661969900131226 2.8212966918945312 -0.1296922266483307 4725613 0 -1
-1.9456335306167603 2.716068983078003 -0.5447073578834534 4729209 0 -1
-1.8675132989883423 2.823286771774292 0.025938447564840317 4729209 0 -1
-1.867074728012085 2.8226234912872314 -0.07781533896923065 2588302 0 -1
-2.001253128051758 2.738626718521118 -0.41900569200515747 4456788 0 -1
-1.8828113079071045 2.846414089202881 -0.1833149790763855 4456788 0 -1
-2.8999314308166504 1.793182373046875 0.23569069802761078 4456788 0 -1
-1.908961534500122 2.8289427757263184 -0.1833149790763855 4456788 0 -1
-1.881036639213562 2.843731164932251 -0.23569069802761078 4456788 0 -1
-2.954967737197876 1.7074006795883179 0.1833149790763855 4523353 0 -1
-2.842383861541748 1.8715648651123047 0.3142542541027069 4523353 0 -1
-1.8819797039031982 2.8451569080352783 -0.20950284600257874 4523353 0 -1
-2.8476805686950684 1.8750524520874023 0.23569069802761078 4590430 0 -1
-1.8846397399902344 2.8491783142089844 -0.10475142300128937 4657508 0 -1
-1.884141206741333 2.8484246730804443 -0.1309392750263214 4724328 0 -1
-2.924093723297119 1.808123230934143 0.29080989956855774 4456788 0 -1
-1.8999032974243164 2.872253656387329 -0.21149811148643494 4456788 0 -1
-3.029081106185913 2.3569204807281494 0.14715079963207245 4456788 0 -1
-2.965369701385498 2.4266200065612793 0.2648714482784271 4456788 0 -1
-2.946284055709839 2.3516242504119873 -0.7357540130615234 4456788 0 -1
-2.9589169025421143 2.3617074489593506 -0.6474635601043701 4456788 0 -1
-3.045513868331909 2.308793783187866 -0.3825920820236206 4456788 0 -1
-2.930548667907715 2.4574828147888184 -0.35316193103790283 4456788 0 -1
-2.981982469558716 2.380117654800415 0.44145241379737854 4523353 0 -1
-2.9319729804992676 2.3402016162872314 -0.8240445256233215 4590430 0 -1
-3.008439302444458 2.3408591747283936 0.4708825647830963 4726897 0 -1
-2.9869463443756104 2.3840794563293457 0.3825920820236206 4664956 0 -1
-2.9327516555786133 2.519076347351074 0.23743654787540436 4456788 0 -1
-3.0241150856018066 2.4137463569641113 0.17807741463184357 4456788 0 -1
-2.910195827484131 2.499701976776123 0.5342322587966919 4456788 0 -1
-3.0098469257354736 2.402358055114746 0.4155139625072479 4456788 0 -1
-3.0098469257354736 2.402358055114746 0.4155139625072479 4456788 0 -1
-2.9777705669403076 2.436768054962158 0.4451935291290283 4456788 0 -1
-2.942668914794922 2.467646598815918 0.5045526623725891 4456788 0 -1
-3.049717903137207 2.3729779720306396 0.26711612939834595 4523353 0 -1
-3.0440452098846436 2.3685641288757324 0.35615482926368713 4590430 0 -1
-2.9777705669403076 2.436768054962158 0.4451935291290283 4657508 0 -1
-2.88932204246521 2.541018486022949 0.4451935291290283 4726897 0 -1
-2.9296388626098633 2.5164027214050293 0.29679569602012634 4664956 0 -1
-2.9623754024505615 2.4841718673706055 0.23743654787540436 4600703 0 -1
-2.9508302211761475 2.4744904041290283 0.4155139625072479 4212104 0 -1
-3.0258936882019043 2.415166139602661 0.11871827393770218 3238030 0 -1
-3.0519490242004395 2.435962438583374 -0.08978693187236786 4456788 0 -1
-2.8812105655670166 2.5933921337127686 0.4788636267185211 4456788 0 -1
-2.9288177490234375 2.5757529735565186 0.20950284600257874 4456788 0 -1
-3.051321506500244 2.4354615211486816 0.11971590667963028 4456788 0 -1
-2.937723398208618 2.5233466625213623 0.5087926387786865 4456788 0 -1
-3.0696253776550293 2.388468027114868 0.35914772748947144 4456788 0 -1
-2.9288177490234375 2.5757529735565186 0.20950284600257874 4456788 0 -1
-3.0696253776550293 2.388468027114868 0.35914772748947144 4456788 0 -1
-3.000023365020752 2.4549779891967773 0.4788636267185211 4456788 0 -1
-2.970320224761963 2.4908342361450195 0.4788636267185211 4456788 0 -1
-3.0696253776550293 2.388468027114868 0.35914772748947144 4523353 0 -1
-2.913602113723755 2.5623714923858643 0.4489346444606781 4523353 0 -1
-3.0717151165008545 2.390094041824341 0.3292187452316284 4590430 0 -1
-2.916114568710327 2.5645811557769775 0.41900569200515747 4726897 0 -1
-2.9244167804718018 2.571882486343384 0.2992897629737854 4664956 0 -1
-3.0156302452087402 2.4677493572235107 0.2693607807159424 4600703 0 -1
-3.0523972511291504 2.4363200664520264 0.05985795333981514 3238030 0 -1
-2.8125979900360107 2.7088353633880615 0.5130325555801392 4456788 0 -1
-2.5503742694854736 2.8516790866851807 0.9355299472808838 4456788 0 -1
-2.916886568069458 2.6255042552948 0.3319622278213501 4456788 0 -1
-3.072406530380249 2.4522910118103027 0.24142707884311676 4456788 0 -1
-2.9186971187591553 2.627133846282959 0.30178385972976685 4456788 0 -1
-3.1075522899627686 2.4179787635803223 0.09053515642881393 4456788 0 -1
-2.935171365737915 2.581340789794922 0.4828541576862335 4456788 0 -1
-3.0973126888275146 2.4100112915039062 0.3319622278213501 4456788 0 -1
-3.0992350578308105 2.4115073680877686 0.30178385972976685 4456788 0 -1
-3.0250236988067627 2.475435972213745 0.4828541576862335 4456788 0 -1
-2.995072841644287 2.5115911960601807 0.4828541576862335 4456788 0 -1
-3.0904366970062256 2.404661178588867 0.42249739170074463 4523353 0 -1
-2.9622044563293457 2.544374704360962 0.5130325555801392 4523353 0 -1
-3.0628855228424072 2.4446916580200195 0.392318993806839 4590430 0 -1
-3.0278172492980957 2.47772216796875 0.45267578959465027 4657508 0 -1
-3.067241668701172 2.4481685161590576 0.3319622278213501 4664956 0 -1
-2.914902448654175 2.62371826171875 0.36214062571525574 4664956 0 -1
-3.0708670616149902 2.4510622024536133 0.2716054618358612 4600703 0 -1
-2.8724405765533447 2.645294427871704 0.5130325555801392 2782862 0 -1
-2.878394842147827 2.711212158203125 0.36513352394104004 4456788 0 -1
-2.6280579566955566 2.878160238265991 0.7606948614120483 4456788 0 -1
-2.9444692134857178 2.650331497192383 0.27385014295578003 4456788 0 -1
-3.164397716522217 2.398919105529785 -0.03042779304087162 4456788 0 -1
-2.9949686527252197 2.5725173950195312 0.4259890913963318 4456788 0 -1
-2.6280579566955566 2.878160238265991 0.7606948614120483 4456788 0 -1
-3.126601457595825 2.4328010082244873 0.27385014295578003 4456788 0 -1
-2.9866855144500732 2.5654025077819824 -0.5172724723815918 4456788 0 -1
-3.1295511722564697 2.435096025466919 0.2129945456981659 4456788 0 -1
-3.1295511722564697 2.435096025466919 0.2129945456981659 4456788 0 -1
-2.879265069961548 2.6515791416168213 0.6694114804267883 4456788 0 -1
-3.1585395336151123 2.3944780826568604 0.24342234432697296 4456788 0 -1
-3.0103602409362793 2.5244107246398926 0.5781280994415283 4456788 0 -1
-2.841341257095337 2.6763110160827637 0.7302670478820801 4456788 0 -1
-3.113292932510376 2.42244553565979 0.45641690492630005 4523353 0 -1
-2.9392497539520264 2.584927558898926 0.6694114804267883 4523353 0 -1
-2.9011590480804443 2.6113476753234863 0.7302670478820801 4590430 0 -1
-3.1945431232452393 2.3580377101898193 0.06085558608174324 4657508 0 -1
-3.0438361167907715 2.490830659866333 0.5477002859115601 4657508 0 -1
-2.8492727279663086 2.683781623840332 0.6694114804267883 4657508 0 -1
-3.7730462551116943 1.2382535934448242 0 4726897 0 -1
-2.5006372928619385 2.9733850955963135 0.8215504288673401 4726897 0 -1
-2.938992500305176 2.645401954650879 0.36513352394104004 4664956 0 -1
-2.6618881225585938 2.8548576831817627 0.7302670478820801 4664956 0 -1
-2.264869213104248 3.2252907752990723 0.4868446886539459 4664956 0 -1
-2.268446207046509 3.295351982116699 0.15338601171970367 4456788 0 -1
-3.181049108505249 2.4115426540374756 -0.30677202343940735 4456788 0 -1
-2.382166862487793 3.1324007511138916 0.7362528443336487 4456788 0 -1
-2.292602777481079 3.264785051345825 0.33744922280311584 4456788 0 -1
-2.3005199432373047 3.27605938911438 0.06135440245270729 4456788 0 -1
-2.860236167907715 2.5745129585266113 1.1043792963027954 4456788 0 -1
-3.244041919708252 2.329953908920288 -0.27609482407569885 4456788 0 -1
-3.12457013130188 2.4939262866973877 -0.21474041044712067 4456788 0 -1
-2.839714288711548 2.5560410022735596 1.196410894393921 4456788 0 -1
-2.328111171722412 3.2500009536743164 0.21474041044712067 4456788 0 -1
-2.8241755962371826 2.6008460521698 1.135056495666504 4523353 0 -1
-3.2187411785125732 2.37589955329895 -0.15338601171970367 4590430 0 -1
-3.1522293090820312 2.452741861343384 -0.27609482407569885 4657508 0 -1
-2.297327995300293 3.2715139389038086 0.5566789507865906 4456788 0 -1
-2.3161568641662598 3.2983269691467285 0.21648626029491425 4456788 0 -1
-2.318882703781128 3.3022091388702393 0.09277983009815216 4456788 0 -1
-2.319495677947998 3.303081750869751 0 4456788 0 -1
-2.3420584201812744 3.2694711685180664 0.3401927053928375 4456788 0 -1
-2.3170430660247803 3.299589157104492 0.18555966019630432 4456788 0 -1
-3.206911325454712 2.4311485290527344 -0.3092660903930664 4523353 0 -1
-2.2852747440338135 3.319798707962036 0.21648626029491425 4523353 0 -1
-3.216273069381714 2.4382455348968506 0.03092660941183567 4590430 0 -1
-2.2842652797698975 3.3183321952819824 0.24741287529468536 4590430 0 -1
-2.2883002758026123 3.3241939544677734 0.06185321882367134 4657508 0 -1
-2.273402452468872 3.3025519847869873 0.4638991355895996 4726897 0 -1
-2.4030051231384277 3.223508596420288 -0.6235203742980957 4456788 0 -1
-2.252547025680542 3.2077434062957764 -1.0911606550216675 4456788 0 -1
-2.3064157962799072 3.3505098819732666 0.09352805465459824 4456788 0 -1
-2.4465832710266113 3.217104434967041 0.4676402509212494 4456788 0 -1
-2.353675127029419 3.2856876850128174 0.4676402509212494 4456788 0 -1
-2.303704261779785 3.346571207046509 0.21823212504386902 4456788 0 -1
-3.1753761768341064 2.534477949142456 -0.21823212504386902 4523353 0 -1
-2.328295946121216 3.3156139850616455 0.37411221861839294 4590430 0 -1
-2.3045859336853027 3.3478517532348633 0.18705610930919647 4657508 0 -1
-2.9190964698791504 2.8114049434661865 0.6285085082054138 4456788 0 -1
-2.449383497238159 3.2857229709625244 0.15712712705135345 4456788 0 -1
-2.5393996238708496 3.20805287361145 -0.28282883763313293 4456788 0 -1
-3.393846273422241 2.302382230758667 -0.03142542764544487 4456788 0 -1
-2.9840128421783447 2.8106958866119385 -0.12570171058177948 4456788 0 -1
-2.5860867500305176 3.1379764080047607 -0.5342322587966919 4456788 0 -1
-2.4532833099365234 3.225914239883423 0.6285085082054138 4456788 0 -1
-3.3930492401123047 2.3018414974212646 0.09427627921104431 4456788 0 -1
-2.494433641433716 3.1512467861175537 0.8170610666275024 4456788 0 -1
-2.350950241088867 3.281883716583252 0.7227848172187805 4456788 0 -1
-3.29811954498291 2.4344921112060547 -0.12570171058177948 4456788 0 -1
-2.5720388889312744 3.1845812797546387 -0.25140342116355896 4456788 0 -1
-3.423762083053589 2.2543728351593018 -0.12570171058177948 4590430 0 -1
-3.392634630203247 2.233876943588257 0.5656576752662659 4657508 0 -1
-2.4726057052612305 3.123671531677246 0.9741882085800171 4657508 0 -1
-3.4192748069763184 2.3196330070495605 -0.12669934332370758 4456788 0 -1
-3.291764259338379 2.4954752922058105 -0.15837417542934418 4456788 0 -1
-2.5619683265686035 3.2365641593933105 -0.22172383964061737 4456788 0 -1
-3.3891077041625977 2.3666720390319824 -0.031674835830926895 4456788 0 -1
-3.3242950439453125 2.4538135528564453 -0.12669934332370758 4456788 0 -1
-3.1514480113983154 2.389101982116699 1.2036436796188354 4523353 0 -1
-3.4443373680114746 2.26792049407959 -0.28507351875305176 4590430 0 -1
-3.3210699558258057 2.451432943344116 -0.22172383964061737 4590430 0 -1
-3.270028591156006 2.875831365585327 1.101386308670044 4456788 0 -1
-3.3496625423431396 2.808940887451172 1.0325497388839722 4523353 0 -1
-3.3496625423431396 2.808940887451172 1.0325497388839722 4523353 0 -1
-3.293724536895752 2.8966708183288574 1.1093673706054688 4456788 0 -1
-3.2328484058380127 2.9772019386291504 1.0746996402740479 4523353 0 -1
-3.2940192222595215 4.07850456237793 -0.5656576752662659 4456788 0 -1
-3.2778382301330566 4.058469772338867 0.7676782608032227 4456788 0 -1
-4.367838382720947 2.5237669944763184 -1.5353565216064453 4456788 0 -1
-3.2863173484802246 3.9876413345336914 1.0505070686340332 4523353 0 -1
-3.978790521621704 3.2559220790863037 1.1717194318771362 4590430 0 -1
-3.575623035430908 3.4437105655670166 1.7777812480926514 4590430 0 -1
-2.9763145446777344 4.072955131530762 1.5353565216064453 4590430 0 -1
-3.0618679523468018 3.9464385509490967 1.788755178451538 4456788 0 -1
-3.3143527507781982 4.10368013381958 0.569149374961853 4456788 0 -1
-3.3706748485565186 4.090001106262207 0.243921160697937 4456788 0 -1
-3.3662097454071045 4.084583282470703 -0.3658817410469055 4456788 0 -1
-3.3327083587646484 4.126407146453857 -0.1219605803489685 4456788 0 -1
-4.593308925628662 2.654045581817627 0.081307053565979 4456788 0 -1
-3.242720603942871 4.179539203643799 0.406535267829895 4536450 0 -1
-3.8755128383636475 3.5690457820892334 -0.8589616417884827 4456788 0 -1
-3.6773717403411865 3.86163330078125 -0.24541760981082916 4456788 0 -1
-3.4973537921905518 3.992004871368408 -0.5726410746574402 4456788 0 -1
-3.3033971786499023 4.173220157623291 0.40902936458587646 4456788 0 -1
-3.3524649143218994 4.150868892669678 0.1636117398738861 4456788 0 -1
-3.4741969108581543 4.047669887542725 -0.20451468229293823 4456788 0 -1
-3.3539421558380127 4.152698040008545 0.04090293496847153 4456788 0 -1
-3.394544839859009 4.1189656257629395 -0.08180586993694305 4456788 0 -1
-4.62148904800415 2.670328140258789 0.08180586993694305 4456788 0 -1
-3.4620208740234375 4.03348445892334 -0.4908352196216583 4600703 0 -1
-3.6335153579711914 3.896921396255493 -0.3272234797477722 4536450 0 -1
-3.3033971786499023 4.173220157623291 0.40902936458587646 4536450 0 -1
-3.653839111328125 3.9187185764312744 -0.37037110328674316 4456788 0 -1
-3.5286967754364014 4.027780532836914 -0.4115234315395355 4456788 0 -1
-3.3645713329315186 4.165858745574951 -0.4115234315395355 4456788 0 -1
-3.4805517196655273 4.0550737380981445 -0.5349804759025574 4456788 0 -1
-3.5286967754364014 4.027780532836914 -0.4115234315395355 4456788 0 -1
-3.360196828842163 4.160442352294922 -0.4938281178474426 4456788 0 -1
-3.3490359783172607 4.146623611450195 -0.6584374904632568 4456788 0 -1
-4.6496686935424805 2.686610460281372 0.0823046863079071 4456788 0 -1
-3.354426145553589 3.9081289768218994 1.5226366519927979 4523353 0 -1
-3.489621639251709 4.065640926361084 -0.37037110328674316 4657508 0 -1
-3.4876654148101807 4.063361644744873 -0.4115234315395355 4725613 0 -1
-3.421787977218628 4.152022361755371 -0.49682101607322693 4456788 0 -1
-3.8089611530303955 3.832305908203125 0 4456788 0 -1
-3.931318521499634 3.7029802799224854 -0.1656070053577423 4456788 0 -1
-3.3370437622070312 4.131775379180908 0.9936420321464539 4456788 0 -1
-3.8499107360839844 3.790261745452881 -0.08280350267887115 4456788 0 -1
-4.6778483390808105 2.702893018722534 0.08280350267887115 4456788 0 -1
-3.805349826812744 3.5843279361724854 1.3662577867507935 4523353 0 -1
-3.765789270401001 3.8711960315704346 0.1656070053577423 4523353 0 -1
-3.5962727069854736 3.618314027786255 1.7802753448486328 4590430 0 -1
-3.807171583175659 3.830505609512329 0.1656070053577423 4657508 0 -1
-3.428164482116699 4.159759521484375 -0.3726157546043396 4657508 0 -1
-3.7621359825134277 3.8674404621124268 0.28981226682662964 4726897 0 -1
-3.994283437728882 3.678424119949341 -0.24990695714950562 4456788 0 -1
-4.039094924926758 3.6356093883514404 -0.12495347857475281 4456788 0 -1
-4.039094924926758 3.6356093883514404 -0.12495347857475281 4456788 0 -1
-4.706581115722656 2.7194948196411133 0 4456788 0 -1
-3.9567439556121826 3.726928949356079 0.0416511595249176 4523353 0 -1
-3.95500111579895 3.725287437438965 -0.1666046380996704 4590430 0 -1
-3.8949272632598877 3.6687026023864746 0.9579766988754272 4726897 0 -1
-3.7767679691314697 3.8824820518493652 0.45816275477409363 4726897 0 -1
-4.062445640563965 3.656627655029297 -0.1676022708415985 4456788 0 -1
-4.061371326446533 3.655660390853882 -0.20950284600257874 4456788 0 -1
-4.63441276550293 2.8657047748565674 -0.4609062373638153 4456788 0 -1
-3.937612533569336 3.7923457622528076 -0.12570171058177948 4523353 0 -1
-4.148034572601318 3.562938928604126 0.04190056771039963 4590430 0 -1
-4.2560224533081055 3.4827866554260254 -0.12644992768764496 4456788 0 -1
-3.555720806121826 4.142650604248047 0.6743996143341064 4456788 0 -1
-4.669848918914795 2.8876166343688965 -0.3371998071670532 4456788 0 -1
-4.130212783813477 3.632321357727051 -0.0842999517917633 4523353 0 -1
-3.4068353176116943 4.2181878089904785 0.9272994995117188 4523353 0 -1
-4.128756999969482 3.6310412883758545 0.1685999035835266 4590430 0 -1
-3.478612184524536 4.136246681213379 1.1871827840805054 4456788 0 -1
-3.5569844245910645 4.144123077392578 0.8903870582580566 4456788 0 -1
-3.405088424682617 4.301687717437744 0.7207895517349243 4456788 0 -1
-3.4767494201660156 4.304752349853516 0 4456788 0 -1
-3.5767605304718018 4.167163372039795 0.6783901453018188 4456788 0 -1
-4.468050956726074 2.762834310531616 -1.7383747100830078 4456788 0 -1
-3.412362813949585 4.225031852722168 1.059984564781189 4523353 0 -1
-3.3898262977600098 4.1971282958984375 1.2295821905136108 4590430 0 -1
-3.6042284965515137 4.199165344238281 0.5970830917358398 4456788 0 -1
-4.688772201538086 2.899317979812622 0.7676782608032227 4523353 0 -1
-3.5173041820526123 4.014776706695557 1.578005313873291 4523353 0 -1
-3.3690896034240723 4.17145299911499 1.4927077293395996 4523353 0 -1
-3.6004421710968018 4.64060640335083 0.7716687917709351 4456788 0 -1
-3.669860363006592 4.636177062988281 0.36313825845718384 4456788 0 -1
-3.4494082927703857 4.815311431884766 -0.09078456461429596 4456788 0 -1
-3.71122407913208 4.595068454742432 0.4539228081703186 4456788 0 -1
-3.4942820072174072 4.781770706176758 0.13617683947086334 4456788 0 -1
-3.696542739868164 4.669885158538818 0.09128338098526001 4456788 0 -1
-3.4515161514282227 4.818253993988037 -0.5933419466018677 4456788 0 -1
-3.784254550933838 4.591842174530029 0.27385014295578003 4456788 0 -1
-3.553356885910034 4.766646862030029 -0.36513352394104004 4456788 0 -1
-4.601141452789307 3.7652041912078857 -0.36513352394104004 4456788 0 -1
-3.6813154220581055 4.650648593902588 0.5477002859115601 4523353 0 -1
-3.553539514541626 4.489227771759033 1.6431008577346802 4657508 0 -1
-3.6444685459136963 4.697351932525635 -0.36513352394104004 4600703 0 -1
-4.014581680297852 4.396634101867676 -0.18256676197052002 4536450 0 -1
-3.348707914352417 4.864638805389404 0.7759087085723877 4536450 0 -1
-3.640007495880127 4.691601753234863 0.7801486849784851 4456788 0 -1
-3.669563055038452 4.729696273803711 0.18356439471244812 4456788 0 -1
-3.7161967754364014 4.694714546203613 0.1376732885837555 4456788 0 -1
-3.762075662612915 4.6580305099487305 0.1376732885837555 4456788 0 -1
-3.5298781394958496 4.830482482910156 -0.275346577167511 4456788 0 -1
-3.7132484912872314 4.690989971160889 0.275346577167511 4456788 0 -1
-3.6530282497406006 4.7083845138549805 0.5965842604637146 4523353 0 -1
-3.6685924530029297 4.728445053100586 -0.22945548593997955 4657508 0 -1
-3.5582571029663086 4.6788859367370605 1.1472774744033813 4726897 0 -1
-3.6660029888153076 4.725107669830322 -0.3212376832962036 4600703 0 -1
-3.6435928344726562 4.696223258972168 -0.7342575788497925 4536450 0 -1
-3.6597900390625 4.717099666595459 0.7843886017799377 4456788 0 -1
-3.5662388801574707 4.6893815994262695 -1.2457937002182007 4456788 0 -1
-3.6756033897399902 4.737481594085693 0.5536860823631287 4456788 0 -1
-3.6895062923431396 4.755401134490967 0.18456202745437622 4456788 0 -1
-3.6895062923431396 4.755401134490967 -0.18456202745437622 4456788 0 -1
-3.7320010662078857 4.714680194854736 -0.3229835331439972 4456788 0 -1
-3.546137571334839 4.8527326583862305 -0.36912405490875244 4456788 0 -1
-3.666778087615967 4.726106643676758 -0.692107617855072 4456788 0 -1
-3.6842987537384033 4.7486891746521 0.36912405490875244 4523353 0 -1
-3.6296582221984863 4.7727742195129395 -0.5536860823631287 4657508 0 -1
-3.62406587600708 4.765420436859131 -0.6459670662879944 4725613 0 -1
-3.5976004600524902 4.73061990737915 0.968950629234314 4726897 0 -1
-3.6140427589416504 4.7522406578063965 -0.7843886017799377 4536450 0 -1
-3.5969338417053223 4.729743480682373 -1.159747838973999 4456788 0 -1
-3.6897776126861572 4.75575065612793 -0.6494588255882263 4456788 0 -1
-3.683197021484375 4.747269153594971 -0.7422386407852173 4456788 0 -1
-3.692735195159912 4.759562969207764 -0.6030688881874084 4456788 0 -1
-3.50528883934021 4.893319606781006 -0.6494588255882263 4456788 0 -1
-3.7292370796203613 4.711188316345215 -0.7422386407852173 4456788 0 -1
-3.50528883934021 4.893319606781006 -0.6494588255882263 4456788 0 -1
-3.675724744796753 4.737637996673584 -0.8350184559822083 4456788 0 -1
-3.6405160427093506 4.787051200866699 -0.6958487033843994 4523353 0 -1
-3.4690146446228027 4.940056324005127 -0.4638991355895996 4523353 0 -1
-3.6405160427093506 4.787051200866699 -0.6958487033843994 4657508 0 -1
-3.64365553855896 4.791179656982422 -0.6494588255882263 4725613 0 -1
4.173097133636475 4.475619316101074 0 4456788 6 -1
4.21986198425293 4.431305885314941 0.04688873142004013 4456788 6 -1
4.21986198425293 4.431305885314941 0.04688873142004013 4456788 6 -1
4.100536346435547 4.58497953414917 0.09427627921104431 4456788 6 -1
4.2895708084106445 4.409638404846191 0 4456788 6 -1
4.241934299468994 4.454484462738037 0.09427627921104431 4456788 6 -1
4.264753818511963 4.478447437286377 0.04738754779100418 4456788 6 -1
4.1670427322387695 4.56360387802124 0.2369377315044403 4456788 6 -1
4.312139987945557 4.432839393615723 0.04738754779100418 4456788 6 -1
4.264378547668457 4.478053092956543 0.09477509558200836 4456788 6 -1
4.168145179748535 4.5648112297058105 0.18955019116401672 3757452 6 -1
4.069462776184082 4.6450300216674805 0.33171284198760986 3692940 6 -1
4.1670427322387695 4.56360387802124 0.2369377315044403 3238030 6 -1
4.071019649505615 4.646807670593262 0.2843252718448639 3107982 6 -1
4.114963531494141 4.601110935211182 0.37910038232803345 2139270 6 -1
4.165694713592529 4.562128067016602 0.2843252718448639 2271109 6 -1
4.287199974060059 4.502018451690674 0.047636955976486206 4456788 6 -1
4.191559791564941 4.590454578399658 0.09527391195297241 4456788 6 -1
4.190082550048828 4.588836669921875 0.19054782390594482 4456788 6 -1
4.239191055297852 4.546504497528076 0.09527391195297241 4456788 6 -1
4.239191055297852 4.546504497528076 0.09527391195297241 4456788 6 -1
4.190944194793701 4.589780330657959 0.14291086792945862 3757452 6 -1
4.140032768249512 4.6291422843933105 0.28582173585891724 3692940 6 -1
4.190944194793701 4.589780330657959 0.14291086792945862 3432845 6 -1
4.141372203826904 4.630640029907227 0.23818477988243103 3238030 6 -1
4.190082550048828 4.588836669921875 0.19054782390594482 2070922 6 -1
4.237697124481201 4.544902324676514 0.19054782390594482 2271109 6 -1
4.048665523529053 4.716964244842529 -0.09527391195297241 13164576 6 -1
4.309646129608154 4.5255889892578125 0.04788636416196823 4456788 6 -1
4.062686443328857 4.733299255371094 0.38309091329574585 8180304 6 -1
4.25738000869751 4.566011905670166 0.2873181700706482 8180304 6 -1
3.9604249000549316 4.80560827255249 0.5267499685287476 11197490 6 -1
4.135299205780029 4.720178604125977 0.28881463408470154 7589974 6 -1
4.08565092086792 4.760054588317871 0.3369503915309906 8180304 6 -1
4.280938148498535 4.591278553009033 0.24067886173725128 8180304 6 -1
4.031517505645752 4.793679237365723 0.48135772347450256 10672695 6 -1
4.031517505645752 4.793679237365723 0.48135772347450256 10672695 6 -1
4.137731552124023 4.722954750061035 0.19254308938980103 11197490 6 -1
4.08565092086792 4.760054588317871 0.3369503915309906 11918891 6 -1
4.085484504699707 4.759860515594482 -0.7257776856422424 4590430 6 -1
3.960123300552368 4.9032440185546875 -0.38708144426345825 4017546 6 -1
4.203451156616211 4.700052738189697 -0.33869627118110657 4017546 6 -1
4.102949142456055 4.780208110809326 -0.43546661734580994 3887499 6 -1
4.450260162353516 4.477535724639893 0.14515553414821625 2458766 6 -1
4.1116533279418945 4.79034948348999 0.14515553414821625 4505456 6 -1
4.306154727935791 4.618322372436523 0.04838518053293228 4505456 6 -1
4.006409168243408 4.861405849456787 0.43546661734580994 10672695 6 -1
4.206419944763184 4.703372478485107 0.2419258952140808 10672695 6 -1
4.109720706939697 4.788097381591797 0.2419258952140808 12640037 6 -1
4.1584391593933105 4.746591091156006 -0.6808842420578003 4590430 6 -1
3.980536460876465 4.928518295288086 -0.38907670974731445 4017546 6 -1
4.218769550323486 4.7171807289123535 -0.48634588718414307 4017546 6 -1
4.119229316711426 4.79917573928833 -0.5349804759025574 3887499 6 -1
4.124098300933838 4.8048481941223145 -0.43771129846572876 3107982 6 -1
4.075579643249512 4.846071243286133 -0.43771129846572876 2782862 6 -1
4.126165866851807 4.807257175445557 -0.38907670974731445 2718350 6 -1
4.032402515411377 4.892946243286133 -0.29180753231048584 2588302 6 -1
4.129568576812744 4.811221599578857 -0.29180753231048584 2070922 6 -1
4.082305908203125 4.854069232940674 -0.24317294359207153 2666112 6 -1
4.179503917694092 4.77063512802124 -0.24317294359207153 2994813 6 -1
4.131997585296631 4.814051628112793 -0.19453835487365723 4045940 6 -1
4.033707141876221 4.894529342651367 0.24317294359207153 10672695 6 -1
4.279717922210693 4.687002658843994 0.04863458871841431 10672695 6 -1
4.130904674530029 4.812778472900391 0.24317294359207153 12640037 6 -1
4.179764270782471 4.770932674407959 -0.6843759417533875 4729209 6 -1
3.9942235946655273 4.945465564727783 -0.537723958492279 4600703 6 -1
4.179764270782471 4.770932674407959 -0.6843759417533875 4600703 6 -1
4.0027174949646 4.955982208251953 -0.3421879708766937 4017546 6 -1
4.2427825927734375 4.744030952453613 -0.4399559497833252 4017546 6 -1
4.098533630371094 4.8733649253845215 -0.39107197523117065 3107982 6 -1
4.100344657897949 4.875518321990967 -0.3421879708766937 2782862 6 -1
4.053081512451172 4.918038368225098 -0.2933039665222168 2588302 6 -1
4.150745868682861 4.835894584655762 -0.2933039665222168 2070922 6 -1
4.0543928146362305 4.9196295738220215 -0.24441997706890106 2006409 6 -1
4.248410701751709 4.75032377243042 -0.2933039665222168 2006409 6 -1
4.1520891189575195 4.837459564208984 -0.24441997706890106 2666112 6 -1
4.150745868682861 4.835894584655762 -0.2933039665222168 2994813 6 -1
4.105170726776123 4.881256580352783 -0.1466519832611084 4045940 6 -1
4.197971820831299 4.791715621948242 -0.3421879708766937 4505456 6 -1
4.103240966796875 4.87896203994751 0.24441997706890106 12640037 6 -1
4.301286220550537 4.710623741149902 0.09776799380779266 12640037 6 -1
4.096071720123291 4.870437145233154 -0.7861344814300537 4536450 6 -1
4.125267028808594 4.905151844024658 -0.19653362035751343 2782862 6 -1
4.112519264221191 4.8899946212768555 -0.5404674410820007 2588302 6 -1
4.17437744140625 4.863426685333252 -0.19653362035751343 2070922 6 -1
4.17437744140625 4.863426685333252 -0.19653362035751343 2666112 6 -1
4.170327663421631 4.858708381652832 -0.3439338207244873 2994813 6 -1
4.126115322113037 4.906160831451416 -0.14740021526813507 4045940 6 -1
4.221004962921143 4.8180060386657715 -0.29480043053627014 4505456 6 -1
4.272597789764404 4.777368545532227 -0.19653362035751343 6933851 6 -1
4.077593803405762 4.947781562805176 -0.09826681017875671 10016830 6 -1
4.098291873931885 4.972897529602051 -0.09876562654972076 4456788 6 -1
4.148034572601318 4.932223796844482 0.04938281327486038 2070922 6 -1
4.143770217895508 4.92715311050415 -0.2962968647480011 4045940 6 -1
4.189645290374756 4.8812150955200195 -0.39506250619888306 6933851 6 -1
4.0986528396606445 4.973335266113281 -0.04938281327486038 10016830 6 -1
4.901892185211182 4.2104620933532715 -0.44668999314308167 4456788 0 -1
4.250288963317871 4.851431846618652 -0.5955866575241089 6933851 6 -1
4.06398344039917 5.031838893890381 0.34742555022239685 7589974 6 -1
4.365583419799805 4.781039237976074 -0.19852888584136963 7589974 6 -1
4.459595203399658 4.683051586151123 -0.7482244372367859 4456788 6 -1
4.488160133361816 4.713047981262207 0.1496448814868927 12640037 6 -1
-3.7140769958496094 5.503993511199951 0.05087926238775253 4456788 0 -1
-3.7306392192840576 5.528537750244141 0.20451468229293823 4456788 0 -1
-3.7306392192840576 5.528537750244141 -0.20451468229293823 4456788 0 -1
-3.7830772399902344 5.495643138885498 -0.10225734114646912 4456788 0 -1
-3.7830772399902344 5.495643138885498 -0.10225734114646912 4456788 0 -1
-3.731954574584961 5.530486583709717 -0.10225734114646912 4456788 0 -1
-3.732283353805542 5.5309739112854 -0.05112867057323456 4523353 0 -1
-2.464337110519409 6.230627536773682 -0.2568903863430023 4456788 4 -1
-2.412996768951416 6.250689506530762 -0.2568903863430023 4456788 4 -1
-2.311945676803589 6.293801307678223 0.05137807875871658 4456788 4 -1
-2.516343116760254 6.211718559265137 -0.20551231503486633 4456788 4 -1
-2.465496063232422 6.23355770111084 -0.15413422882556915 4456788 4 -1
-2.461509943008423 6.223479270935059 -0.41102463006973267 4456788 4 -1
-2.455700397491455 6.2087907791137695 -0.6165369153022766 4456788 4 -1
-2.4538819789886475 6.204193592071533 -0.6679149866104126 4456788 4 -1
-3.748837471008301 5.555506229400635 -0.20551231503486633 4456788 0 -1
-3.9504170417785645 5.405971527099609 -0.3596465289592743 4456788 0 -1
-3.75015926361084 5.557464599609375 -0.10275615751743317 4456788 0 -1
-4.467792510986328 4.99562406539917 0.20551231503486633 4456788 0 -1
-3.8954379558563232 5.437960624694824 -0.46240270137786865 4456788 0 -1
-3.8954379558563232 5.437960624694824 -0.46240270137786865 4456788 0 -1
-3.8492813110351562 5.4815754890441895 -0.3082684576511383 4523353 0 -1
-3.9028992652893066 5.448376655578613 -0.20551231503486633 4657508 0 -1
-2.4229989051818848 6.276599407196045 -0.36139240860939026 4456788 4 -1
-2.475498914718628 6.258848190307617 -0.30976492166519165 4456788 4 -1
-2.529078245162964 6.243156433105469 -0.15488246083259583 4456788 4 -1
-2.477464437484741 6.263817310333252 -0.15488246083259583 4456788 4 -1
-2.475498914718628 6.258848190307617 -0.30976492166519165 4456788 4 -1
-2.3745853900909424 6.30459451675415 0.10325497388839722 4456788 4 -1
-2.5190300941467285 6.2183518409729 -0.6195298433303833 4456788 4 -1
-2.476300001144409 6.260873317718506 -0.25813743472099304 4456788 4 -1
-2.476300001144409 6.260873317718506 -0.25813743472099304 4456788 4 -1
-2.4745521545410156 6.256453990936279 -0.36139240860939026 4456788 4 -1
-2.472219705581665 6.250556945800781 -0.4646473824977875 4456788 4 -1
-2.322145462036133 6.321568012237549 0.20650994777679443 4456788 4 -1
-2.4638192653656006 6.229318141937256 -0.7227848172187805 4456788 4 -1
-3.9218454360961914 5.474824905395508 -0.20650994777679443 4456788 0 -1
-3.716742515563965 5.618931770324707 -0.10325497388839722 4456788 0 -1
-2.459425210952759 6.218208312988281 0.8260397911071777 4456788 0 -1
-3.9695940017700195 5.43221378326416 -0.36139240860939026 4456788 0 -1
-3.767810583114624 5.583622932434082 -0.15488246083259583 4456788 0 -1
-4.414342880249023 5.038689136505127 -0.7227848172187805 4456788 0 -1
-3.9180407524108887 5.469513893127441 -0.36139240860939026 4456788 0 -1
-3.867967128753662 5.508185386657715 -0.30976492166519165 4523353 0 -1
-2.4364240169525146 6.311376094818115 -0.2593844532966614 4456788 4 -1
-2.5329222679138184 6.252645492553711 -0.570645809173584 4456788 4 -1
-2.486506462097168 6.286678314208984 -0.36313825845718384 4456788 4 -1
-2.4889209270477295 6.292783260345459 -0.20750758051872253 4456788 4 -1
-2.534494400024414 6.256526470184326 -0.5187689065933228 4456788 4 -1
-2.473588705062866 6.254018306732178 -0.7781534194946289 4456788 4 -1
-2.437927722930908 6.315271377563477 -0.10375379025936127 4456788 4 -1
-2.537187337875366 6.263174057006836 -0.41501516103744507 4456788 4 -1
-2.485408067703247 6.283901214599609 -0.41501516103744507 4456788 4 -1
-2.485408067703247 6.283901214599609 -0.41501516103744507 4456788 4 -1
-2.475721836090088 6.259411334991455 -0.7262765169143677 4456788 4 -1
-2.449288845062256 6.344701290130615 -0.15637890994548798 4456788 4 -1
-2.449648380279541 6.345633029937744 -0.10425260663032532 4456788 4 -1
-2.5019891262054443 6.3258233070373535 -0.05212630331516266 4456788 4 -1
-2.5017685890197754 6.325266361236572 -0.10425260663032532 4456788 4 -1
-2.5433685779571533 6.278432369232178 -0.6255156397819519 4456788 4 -1
-2.497357130050659 6.314112663269043 -0.41701042652130127 4456788 4 -1
-2.4914629459381104 6.299210071563721 -0.6255156397819519 4456788 4 -1
-2.185187578201294 6.428822994232178 0.41701042652130127 4456788 4 -1
-2.343961477279663 6.380958080291748 -0.2606315016746521 4456788 4 -1
-2.136927366256714 6.457660675048828 0.10425260663032532 4456788 4 -1
-2.2414309978485107 6.4229817390441895 0 4456788 4 -1
-2.2902557849884033 6.395333766937256 -0.3648841083049774 4456788 4 -1
-2.591275453567505 6.247514724731445 -0.7297682166099548 2912910 4 -1
-2.4092118740081787 6.396528720855713 0.052375711500644684 4456788 4 -1
-2.513960361480713 6.356090545654297 -0.052375711500644684 4456788 4 -1
-2.461658477783203 6.376743793487549 0 4456788 4 -1
-2.5140340328216553 6.356276988983154 0 4456788 4 -1
-2.512852907180786 6.353290557861328 -0.20950284600257874 4456788 4 -1
-2.461007833480835 6.375059127807617 0.15712712705135345 4456788 4 -1
-2.5140340328216553 6.356276988983154 0 4456788 4 -1
-2.3012137413024902 6.425933361053467 0.366629958152771 4456788 4 -1
-2.611086368560791 6.295278549194336 -0.5237571001052856 4456788 4 -1
-2.5104150772094727 6.3471269607543945 -0.366629958152771 4456788 4 -1
-2.2510974407196045 6.450681686401367 -0.20950284600257874 4456788 4 -1
-2.1987464427948 6.46871280670166 0.20950284600257874 4456788 4 -1
-2.3566300868988037 6.415445804595947 -0.10475142300128937 4456788 4 -1
-2.146836757659912 6.487605571746826 0.15712712705135345 4456788 4 -1
-2.2518911361694336 6.452955722808838 -0.10475142300128937 4456788 4 -1
-2.1991984844207764 6.470043182373047 0.15712712705135345 4456788 4 -1
-2.553645372390747 6.303801536560059 -0.6808842420578003 2588302 4 -1
-2.555537700653076 6.308472633361816 -0.6285085082054138 2523534 4 -1
-2.5588645935058594 6.316685676574707 -0.5237571001052856 2070155 4 -1
-2.5572774410247803 6.312767028808594 -0.5761328339576721 2070922 4 -1
-2.420684337615967 6.42698860168457 0.05262511968612671 4456788 4 -1
-2.5257089138031006 6.3857951164245605 -0.10525023937225342 4456788 4 -1
-2.5259315967559814 6.386357307434082 0.05262511968612671 4456788 4 -1
-2.4733805656433105 6.407109260559082 0 4456788 4 -1
-2.5253381729125977 6.384857177734375 0.15787535905838013 4456788 4 -1
-2.313805103302002 6.461093902587891 0.26312559843063354 4456788 4 -1
-2.366391658782959 6.442019462585449 0.26312559843063354 4456788 4 -1
-2.25862455368042 6.472250938415527 0.42100095748901367 4456788 4 -1
-2.3148932456970215 6.464132308959961 0.15787535905838013 4456788 4 -1
-2.441448211669922 6.02683687210083 2.2102549076080322 4456788 0 -1
-2.3154373168945312 6.465651035308838 0.05262511968612671 4456788 4 -1
-2.2628135681152344 6.484255313873291 0.05262511968612671 4456788 4 -1
-2.2099955081939697 6.501807689666748 -0.10525023937225342 4456788 4 -1
-2.2099955081939697 6.501807689666748 0.10525023937225342 4456788 4 -1
-2.4105796813964844 6.0947113037109375 -2.052379608154297 3238030 0 -1
-2.438776969909668 6.166003227233887 -1.7892539501190186 3107982 0 -1
-2.618169069290161 6.312355041503906 -0.6841265559196472 2070922 4 -1
-2.4319424629211426 6.456879138946533 0.10574905574321747 4456788 4 -1
-2.485029697418213 6.437285900115967 -0.052874527871608734 4456788 4 -1
-2.2201433181762695 6.531662940979004 -0.1586235761642456 4456788 4 -1
-2.5376791954040527 6.416059494018555 0.10574905574321747 4456788 4 -1
-2.2735378742218018 6.514986515045166 -0.052874527871608734 4456788 4 -1
-2.3736891746520996 6.461885452270508 0.4758707284927368 4456788 4 -1
-2.3209404945373535 6.481018543243408 0.4758707284927368 4456788 4 -1
-2.3262059688568115 6.495721817016602 0.10574905574321747 4456788 4 -1
-2.272536516189575 6.5121169090271 0.21149811148643494 4456788 4 -1
-2.27193546295166 6.510394096374512 0.2643726170063019 4456788 4 -1
-2.2175333499908447 6.523984432220459 0.37012168765068054 4456788 4 -1
-2.218381881713867 6.5264811515808105 0.3172471523284912 4456788 4 -1
-2.2733376026153564 6.5144124031066895 0.10574905574321747 4456788 4 -1
-2.3793537616729736 6.477305889129639 0 4456788 4 -1
-2.1677918434143066 6.550931453704834 0.052874527871608734 4456788 4 -1
-2.2206649780273438 6.533197402954102 0.052874527871608734 4456788 4 -1
-2.229567050933838 6.559387683868408 -0.2656196653842926 4456788 4 -1
-2.4419069290161133 6.483334541320801 0.2656196653842926 4456788 4 -1
-2.284262180328369 6.545717239379883 0.05312393233180046 4456788 4 -1
-2.3899452686309814 6.506139755249023 -0.15937180817127228 4456788 4 -1
-2.4894843101501465 6.448824882507324 0.5312393307685852 4456788 4 -1
-2.3258275985717773 6.494665145874023 0.6906111240386963 4456788 4 -1
-2.436516523361206 6.46902322769165 0.5312393307685852 4456788 4 -1
-2.436516523361206 6.46902322769165 0.5312393307685852 4456788 4 -1
-2.3349814414978027 6.52022647857666 0.31874361634254456 4456788 4 -1
-2.225893497467041 6.548579692840576 0.47811540961265564 4456788 4 -1
-2.2826521396636963 6.541103839874268 0.2656196653842926 4456788 4 -1
-2.2832560539245605 6.542834281921387 0.21249572932720184 4456788 4 -1
-2.2819137573242188 6.53898811340332 0.31874361634254456 4456788 4 -1
-2.230943202972412 6.563436508178711 0.10624786466360092 4456788 4 -1
-2.452577590942383 6.511666297912598 0.3202400505542755 4456788 4 -1
-2.346702814102173 6.552957534790039 0.2668667137622833 4456788 4 -1
-2.295053720474243 6.57664155960083 0 4456788 4 -1
-2.401165723800659 6.536684989929199 0.16012002527713776 4456788 4 -1
-2.452577590942383 6.511666297912598 0.3202400505542755 4456788 4 -1
-2.291749954223633 6.567174434661865 0.3736133873462677 4456788 4 -1
-2.2895898818969727 6.5609846115112305 0.48036009073257446 4456788 4 -1
-2.237464666366577 6.582622528076172 0.4269867241382599 4456788 4 -1
-2.3473236560821533 6.554691314697266 0.21349336206912994 4456788 4 -1
-2.2406272888183594 6.591926574707031 0.21349336206912994 4456788 4 -1
-2.2933688163757324 6.571813106536865 0.2668667137622833 4456788 4 -1
-2.2907376289367676 6.564273834228516 0.4269867241382599 4456788 4 -1
-2.518419027328491 6.523777961730957 0.26811376214027405 4456788 4 -1
-2.4607741832733154 6.533428192138672 0.4826047420501709 4456788 4 -1
-2.4084858894348145 6.556612491607666 0.4289819896221161 4456788 4 -1
-2.51664137840271 6.5191731452941895 0.37535926699638367 4456788 4 -1
-2.2515604496002197 6.624092102050781 0.16086825728416443 4456788 4 -1
-2.3587775230407715 6.58667516708374 0.16086825728416443 4456788 4 -1
-2.4118900299072266 6.565879821777344 0.21449099481105804 4456788 4 -1
-2.4104721546173096 6.562020301818848 0.32173651456832886 4456788 4 -1
-2.3024590015411377 6.597862243652344 0.37535926699638367 4456788 4 -1
-2.3024590015411377 6.597862243652344 0.37535926699638367 4456788 4 -1
-2.246793746948242 6.6100687980651855 0.4826047420501709 4456788 4 -1
-2.248913526535034 6.616304874420166 0.37535926699638367 4456788 4 -1
-3.041295051574707 6.264070510864258 -0.6970957517623901 6343264 0 -1
-2.472219705581665 6.563816070556641 0.4848494231700897 4456788 4 -1
-2.517380475997925 6.521088123321533 0.7542102336883545 4456788 0 -1
-2.517380475997925 6.521088123321533 0.7542102336883545 4456788 0 -1
-2.420757532119751 6.590019226074219 0.37710511684417725 4456788 4 -1
-2.476300001144409 6.574649333953857 0.2693607807159424 4456788 4 -1
-2.476300001144409 6.574649333953857 0.2693607807159424 4456788 4 -1
-2.3692612648010254 6.615950107574463 0.21548862755298615 4456788 4 -1
-2.367868661880493 6.612061023712158 0.3232329487800598 4456788 4 -1
-2.367868661880493 6.612061023712158 0.3232329487800598 4456788 4 -1
-2.3131682872772217 6.628550052642822 0.37710511684417725 4456788 4 -1
-2.3082597255706787 6.6144843101501465 0.5925937294960022 4456788 4 -1
-2.2008986473083496 6.650978088378906 0.5925937294960022 4456788 4 -1
-2.260969400405884 6.651773452758789 0.2693607807159424 4456788 4 -1
-2.3247666358947754 6.661786079406738 0.32472941279411316 4456788 4 -1
-2.53293776512146 6.56138801574707 0.6494588255882263 4456788 4 -1
-2.3756797313690186 6.6338725090026855 0.48709410429000854 4456788 4 -1
-2.4308903217315674 6.6176042556762695 0.4329725205898285 4456788 4 -1
-2.486008405685425 6.6004252433776855 0.3788509666919708 4456788 4 -1
-2.4308903217315674 6.6176042556762695 0.4329725205898285 4456788 4 -1
-2.2166378498077393 6.698540687561035 0.32472941279411316 4456788 4 -1
-2.6469695568084717 6.534176826477051 0.4329725205898285 4456788 4 -1
-2.3247666358947754 6.661786079406738 0.32472941279411316 4456788 4 -1
-2.325518846511841 6.663941383361816 0.2706078290939331 4456788 4 -1
-2.3228509426116943 6.656296253204346 0.4329725205898285 4456788 4 -1
-2.3728749752044678 6.626040935516357 0.5953372120857239 4456788 4 -1
-2.109191417694092 6.735537528991699 0.2706078290939331 4456788 4 -1
-2.325518846511841 6.663941383361816 0.2706078290939331 4456788 4 -1
-2.215790033340454 6.69597864151001 0.3788509666919708 4456788 4 -1
-2.3269541263580322 6.668054580688477 0.10824313014745712 4456788 4 -1
-2.961881399154663 6.373508930206299 -0.703580379486084 3302798 0 -1
-2.9745006561279297 6.40066385269165 -0.2706078290939331 2782862 0 -1
-2.976336717605591 6.404614448547363 -0.10824313014745712 2718350 0 -1
-2.8681061267852783 6.453807353973389 0.10824313014745712 10016830 0 -1
-2.546342372894287 6.59611177444458 0.5980806946754456 4456788 4 -1
-2.332386016845703 6.683619976043701 0.48933878540992737 4456788 4 -1
-2.5506300926208496 6.6072187423706055 0.4349677860736847 4456788 4 -1
-2.3888790607452393 6.670731067657471 0.3805968165397644 4456788 4 -1
-2.440869092941284 6.644769191741943 0.48933878540992737 4456788 4 -1
-2.497464656829834 6.630842208862305 0.3805968165397644 4456788 4 -1
-2.3888790607452393 6.670731067657471 0.3805968165397644 4456788 4 -1
-2.386627435684204 6.664443492889404 0.48933878540992737 4456788 4 -1
-2.119471788406372 6.768366813659668 0.21748389303684235 4456788 4 -1
-2.332386016845703 6.683619976043701 0.48933878540992737 4456788 4 -1
-2.2268528938293457 6.729409694671631 0.3262258470058441 4456788 4 -1
-2.346952199935913 6.72536039352417 0.27310192584991455 4456788 4 -1
-2.6190061569213867 6.621679782867432 0.32772231101989746 4456788 4 -1
-2.5623302459716797 6.637526988983154 0.4369630515575409 4456788 4 -1
-2.511873722076416 6.669098854064941 0.16386115550994873 4456788 4 -1
-2.2897419929504395 6.736422061920166 0.4369630515575409 4456788 4 -1
-2.4007556438446045 6.703895092010498 0.32772231101989746 4456788 4 -1
-2.178391933441162 6.765316486358643 0.5462038516998291 4456788 4 -1
-2.6318163871765137 6.6540679931640625 0.2743489444255829 4456788 4 -1
-2.6318163871765137 6.6540679931640625 0.2743489444255829 4456788 4 -1
-2.567955255508423 6.652098178863525 0.6584374904632568 4456788 4 -1
-2.3392982482910156 6.703427314758301 0.9327864646911621 4456788 0 -1
-2.2990448474884033 6.763791084289551 0.4938281178474426 4456788 4 -1
-2.645022392272949 6.687457084655762 0.16535760462284088 4456788 4 -1
-2.700127124786377 6.665399074554443 0.16535760462284088 4456788 4 -1
-2.6969528198242188 6.657563209533691 0.38583439588546753 4456788 4 -1
-2.6429240703582764 6.682151794433594 0.33071520924568176 4456788 4 -1
-2.700127124786377 6.665399074554443 0.16535760462284088 4456788 4 -1
-2.700523614883423 6.666377544403076 0.11023839563131332 4456788 4 -1
-2.5777177810668945 6.677387237548828 -0.7165495753288269 4456788 4 -1
-2.753936529159546 6.639687538146973 -0.2755959928035736 4456788 4 -1
-2.5208520889282227 6.692936897277832 -0.7716687917709351 4456788 4 -1
-2.742252826690674 6.611518383026123 0.7165495753288269 4456788 4 -1
-2.5893852710723877 6.707611083984375 -0.22047679126262665 4456788 4 -1
-2.5336217880249023 6.726840496063232 -0.2755959928035736 4456788 4 -1
-2.711787223815918 6.694182395935059 0.22147442400455475 4456788 4 -1
-2.7091562747955322 6.687687873840332 0.3875802457332611 4456788 4 -1
-2.6548829078674316 6.712387561798096 0.3322116434574127 4456788 4 -1
-2.711787223815918 6.694182395935059 0.22147442400455475 4456788 4 -1
