VERSION .7
FIELDS x y z rgb label object
SIZE 4 4 4 4 4 4
TYPE F F F I I I
COUNT 1 1 1 1 1 1
WIDTH 684
HEIGHT 1
POINTS 684
VIEWPOINT 0 0 0 1 0 0 0
DATA ascii
-2.1526381969451904 2.6120269298553467 0.051876895129680634 4456788 0 -1
-2.1506147384643555 2.6095714569091797 -0.1556306779384613 4456788 0 -1
-2.0273048877716064 2.6657793521881104 0.4928304851055145 4456788 0 -1
-2.1518795490264893 2.6111063957214355 -0.10375379025936127 4456788 0 -1
-2.120699405670166 2.625753402709961 -0.2593844532966614 4456788 0 -1
-2.875023126602173 1.7777801752090454 0.18156912922859192 4456788 0 -1
-2.8648476600646973 1.7714881896972656 0.3371998071670532 4456788 0 -1
-2.873753070831299 1.7769948244094849 0.20750758051872253 4456788 0 -1
-2.8723132610321045 1.77610445022583 0.23344601690769196 4456788 0 -1
-2.873753070831299 1.7769948244094849 0.20750758051872253 4523353 0 -1
-2.873753070831299 1.7769948244094849 0.20750758051872253 4725613 0 -1
-2.875023126602173 1.7777801752090454 0.18156912922859192 4726897 0 -1
-2.8761231899261475 1.7784603834152222 0.1556306779384613 4728182 0 -1
-2.8707029819488525 1.775108814239502 0.2593844532966614 4664956 0 -1
-2.8761231899261475 1.7784603834152222 0.1556306779384613 4147337 0 -1
-2.991497278213501 1.5421744585037231 0.36313825845718384 3432845 0 -1
-2.7105984687805176 1.67610764503479 1.141291618347168 3432845 0 -1
-2.7107839584350586 1.8929868936538696 0.7262765169143677 3432845 0 -1
-2.197453737258911 2.612884283065796 0.15712712705135345 4456788 0 -1
-1.9926457405090332 2.7268476486206055 0.5237571001052856 4456788 0 -1
-2.029115676879883 2.7219550609588623 0.39281782507896423 4456788 0 -1
-2.250502109527588 2.568803548812866 -0.1309392750263214 4456788 0 -1
-1.9643415212631226 2.742185115814209 0.5499449372291565 4456788 0 -1
-2.1733367443084717 2.6371424198150635 -0.052375711500644684 4456788 0 -1
-2.13501238822937 2.64347505569458 0.366629958152771 4456788 0 -1
-2.0418813228607178 2.6849465370178223 0.5499449372291565 4456788 0 -1
-2.145827531814575 2.6568655967712402 -0.1309392750263214 4456788 0 -1
-2.1410908699035645 2.6510009765625 -0.2618785500526428 4456788 0 -1
-2.136723756790161 2.6455938816070557 -0.34044212102890015 4456788 0 -1
-2.9013853073120117 1.7940813302993774 0.20950284600257874 4456788 0 -1
-2.8945376873016357 1.7898470163345337 0.3142542541027069 4456788 0 -1
-2.87524676322937 1.8356800079345703 0.20950284600257874 4456788 0 -1
-2.8945376873016357 1.7898470163345337 0.3142542541027069 4456788 0 -1
-2.8999314308166504 1.793182373046875 0.23569069802761078 4456788 0 -1
-2.898305892944336 1.7921772003173828 0.2618785500526428 4456788 0 -1
-2.898305892944336 1.7921772003173828 0.2618785500526428 4523353 0 -1
-2.8999314308166504 1.793182373046875 0.23569069802761078 4725613 0 -1
-2.9013853073120117 1.7940813302993774 0.20950284600257874 4726897 0 -1
-2.8999314308166504 1.793182373046875 0.23569069802761078 4728182 0 -1
-2.896507978439331 1.7910654544830322 0.28806641697883606 4664956 0 -1
-2.8945376873016357 1.7898470163345337 0.3142542541027069 4600703 0 -1
-2.90266752243042 1.7948741912841797 0.1833149790763855 4536450 0 -1
-2.896507978439331 1.7910654544830322 0.28806641697883606 4212104 0 -1
-2.8999314308166504 1.793182373046875 0.23569069802761078 4147337 0 -1
-2.27360463142395 2.5951735973358154 0 4456788 0 -1
-2.194228410720825 2.6624927520751953 -0.026437263935804367 4456788 0 -1
-2.191972494125366 2.6597554683685303 -0.1586235761642456 4456788 0 -1
-1.8462026119232178 2.905017614364624 0.2379353642463684 4456788 0 -1
-2.9275498390197754 1.81026029586792 0.2379353642463684 4456788 0 -1
-2.9259088039398193 1.8092454671859741 0.2643726170063019 4456788 0 -1
-2.9259088039398193 1.8092454671859741 0.2643726170063019 4456788 0 -1
-2.9259088039398193 1.8092454671859741 0.2643726170063019 4456788 0 -1
-2.9275498390197754 1.81026029586792 0.2379353642463684 4456788 0 -1
-2.9259088039398193 1.8092454671859741 0.2643726170063019 4523353 0 -1
-2.8977506160736084 1.8500474691390991 0.29080989956855774 4725613 0 -1
-2.9011754989624023 1.852234125137329 0.2379353642463684 4726897 0 -1
-2.948429822921753 1.7636098861694336 0.3172471523284912 4728182 0 -1
-2.948429822921753 1.7636098861694336 0.3172471523284912 4729209 0 -1
-2.9176025390625 1.8041092157363892 0.37012168765068054 4664956 0 -1
-2.9259088039398193 1.8092454671859741 0.2643726170063019 4536450 0 -1
-2.888826608657837 1.844349980354309 0.396558940410614 4212104 0 -1
-2.972552537918091 1.7175612449645996 0.3436844050884247 4147337 0 -1
-2.8625645637512207 1.8848527669906616 0.396558940410614 4147337 0 -1
-2.877438545227051 1.7792737483978271 -0.8272867798805237 4456788 0 -1
-2.9566497802734375 1.8282543420791626 0.21349336206912994 4523353 0 -1
-2.8895866870880127 1.8448352813720703 0.6137934327125549 4725613 0 -1
-2.9339101314544678 1.8141932487487793 0.48036009073257446 4726897 0 -1
-2.836550235748291 1.980811595916748 0.4003000557422638 4726897 0 -1
-3.06671404838562 1.6453973054885864 -0.13343335688114166 4729209 0 -1
-2.882894277572632 1.7826473712921143 -0.8006001114845276 4729209 0 -1
-2.8881611824035645 1.7859041690826416 -0.7739134430885315 4536450 0 -1
-2.9314000606536865 1.8715306520462036 0.5117855072021484 4456788 0 -1
-2.822969436645508 2.0837624073028564 0.21548862755298615 4456788 0 -1
-2.5340278148651123 2.3336424827575684 0.7003380656242371 4456788 0 -1
-2.4035918712615967 2.5240283012390137 0.457913339138031 4456788 0 -1
-2.8308424949645996 1.7504609823226929 -1.1313153505325317 4523353 0 -1
-2.8861231803894043 1.726340889930725 -1.0235710144042969 4729209 0 -1
-2.969621181488037 1.7762855291366577 -0.6195298433303833 4664956 0 -1
-2.945870876312256 1.8807694911956787 -0.37710511684417725 4536450 0 -1
-3.06168532371521 1.7062196731567383 -0.2693607807159424 4017546 0 -1
-2.9433326721191406 1.8791489601135254 -0.40404120087623596 4017546 0 -1
-2.9394030570983887 1.8766402006149292 0.6524516940116882 4456788 0 -1
-2.390928268432617 2.5642549991607666 0.5437097549438477 4456788 0 -1
-2.387979507446289 2.5610923767089844 0.570895254611969 4456788 0 -1
-2.9514355659484863 1.884322166442871 0.570895254611969 4456788 0 -1
-2.4233105182647705 2.5447349548339844 0.48933878540992737 4456788 0 -1
-2.9394030570983887 1.8766402006149292 0.6524516940116882 4456788 0 -1
-2.970357656478882 1.836730718612671 0.6252661943435669 4456788 0 -1
-2.4233105182647705 2.5447349548339844 0.48933878540992737 4456788 0 -1
-3.0392301082611084 1.7560880184173584 -0.5165242552757263 4729209 0 -1
-3.0812618732452393 1.7171293497085571 -0.3805968165397644 4017546 0 -1
-2.9706032276153564 1.896559715270996 0.6310026049613953 4456788 0 -1
-2.4128634929656982 2.587780237197876 0.5486978888511658 4456788 0 -1
-2.9933371543884277 1.8509401082992554 0.6584374904632568 4456788 0 -1
-2.966370105743408 1.8938571214675903 0.6584374904632568 4456788 0 -1
-3.0055902004241943 1.858516812324524 0.5761328339576721 4456788 0 -1
-2.418370008468628 2.5936858654022217 0.4938281178474426 4456788 0 -1
-3.086822509765625 1.7202281951904297 -0.5761328339576721 4729209 0 -1
-3.1248600482940674 1.676594614982605 -0.4938281178474426 4600703 0 -1
-3.1016721725463867 1.7921674251556396 -0.4706331491470337 4724328 0 -1
-3.122385263442993 1.7400466203689575 -0.5260017514228821 4600703 0 -1
-3.122385263442993 1.7400466203689575 -0.5260017514228821 4147337 0 -1
-3.1258482933044434 1.7419764995574951 -0.4983174800872803 4017546 0 -1
-3.1258482933044434 1.7419764995574951 -0.4983174800872803 3562893 0 -1
-3.2158665657043457 1.6578413248062134 -0.4469393789768219 4724328 0 -1
-3.2158665657043457 1.6578413248062134 -0.4469393789768219 4724328 0 -1
-3.1228787899017334 1.804420828819275 -0.53074049949646 4725613 0 -1
-3.1540091037750244 1.7576699256896973 -0.5028068423271179 4147337 0 -1
-3.157310724258423 1.7595100402832031 -0.4748730957508087 4017546 0 -1
3.447514772415161 1.393210530281067 -0.4302290380001068 4456788 0 -1
3.4373462200164795 1.3891011476516724 -0.5162748694419861 4456788 0 -1
-3.12841534614563 1.871268630027771 0.9836657047271729 4456788 0 -1
-2.743133544921875 2.4124526977539062 0.9547343850135803 4456788 0 -1
-3.0369884967803955 2.241739511489868 0.08679403364658356 4456788 0 -1
-2.8642032146453857 2.4601967334747314 0 4456788 0 -1
-3.003201484680176 2.276716709136963 0.23145075142383575 4456788 0 -1
-2.833939790725708 2.492312431335449 -0.11572537571191788 4456788 0 -1
-2.8786144256591797 2.4725754261016846 0.320988267660141 4456788 0 -1
-2.914989709854126 2.4444353580474854 0.17508451640605927 4456788 0 -1
-2.7293481826782227 2.6286566257476807 0.37934979796409607 4456788 0 -1
-2.246851921081543 3.0747177600860596 -0.029180752113461494 4456788 0 -1
-2.913874626159668 2.443500280380249 0.2042652666568756 4456788 0 -1
-2.814199447631836 2.5330748558044434 0.4085305333137512 4456788 0 -1
-2.84076189994812 2.49831223487854 0.43771129846572876 4456788 0 -1
-3.0923423767089844 2.2209994792938232 -0.08754225820302963 4456788 0 -1
-2.8786144256591797 2.4725754261016846 0.320988267660141 4456788 0 -1
-2.8697493076324463 2.464960813522339 0.43771129846572876 4456788 0 -1
-2.8581149578094482 2.454967498779297 0.5544342994689941 4456788 0 -1
-2.874526262283325 2.4690639972686768 0.37934979796409607 4456788 0 -1
-2.8847360610961914 2.4778335094451904 0.2042652666568756 4456788 0 -1
-3.063169479370117 2.2610647678375244 0.08754225820302963 2134668 0 -1
-2.864034652709961 2.4017059803009033 0.7295188307762146 2994813 0 -1
-2.905019998550415 2.4952564239501953 0.2943015992641449 4456788 0 -1
-2.2361011505126953 3.1215567588806152 -0.08829048275947571 4456788 0 -1
-2.84456729888916 2.5604090690612793 0.32373178005218506 4456788 0 -1
-2.6072566509246826 2.737898349761963 0.6768937110900879 4456788 0 -1
-2.7318577766418457 2.6895315647125244 0.23544128239154816 4456788 0 -1
-2.9235122203826904 2.451582193374634 0.44145241379737854 4456788 0 -1
-2.9235122203826904 2.451582193374634 0.44145241379737854 4456788 0 -1
-2.9283785820007324 2.455662965774536 0.3825920820236206 4456788 0 -1
-2.908252239227295 2.4387855529785156 -0.5886031985282898 4456788 0 -1
-2.947120189666748 2.4116861820220947 0.5003127455711365 4456788 0 -1
-2.947120189666748 2.4116861820220947 0.5003127455711365 4456788 0 -1
-2.9235122203826904 2.451582193374634 0.44145241379737854 4456788 0 -1
-2.9208149909973145 2.4493203163146973 0.4708825647830963 4456788 0 -1
-2.9260334968566895 2.4536962509155273 0.41202226281166077 4456788 0 -1
-2.9208149909973145 2.4493203163146973 0.4708825647830963 4456788 0 -1
-2.9325435161590576 2.459155559539795 0.32373178005218506 4456788 0 -1
-2.9260334968566895 2.4536962509155273 0.41202226281166077 4456788 0 -1
-2.9116599559783936 2.441643238067627 0.559173047542572 4523353 0 -1
-2.874483346939087 2.4104678630828857 0.8240445256233215 2994813 0 -1
-2.2556471824645996 3.1488425731658936 0 4456788 0 -1
-2.2259023189544678 3.169800043106079 -0.029679568484425545 4456788 0 -1
-2.2259023189544678 3.169800043106079 -0.029679568484425545 4456788 0 -1
-2.9363350868225098 2.4623351097106934 0.5639117956161499 4456788 0 -1
-2.759875774383545 2.7171154022216797 0.05935913696885109 4456788 0 -1
-2.9455676078796387 2.4700772762298584 0.4748730957508087 4456788 0 -1
-2.9455676078796387 2.4700772762298584 0.4748730957508087 4456788 0 -1
-2.9508302211761475 2.4744904041290283 0.4155139625072479 4456788 0 -1
-2.9482877254486084 2.472358226776123 0.4451935291290283 4456788 0 -1
-2.9455676078796387 2.4700772762298584 0.4748730957508087 4456788 0 -1
-2.9482877254486084 2.472358226776123 0.4451935291290283 4456788 0 -1
-2.9482877254486084 2.472358226776123 0.4451935291290283 4456788 0 -1
-2.9455676078796387 2.4700772762298584 0.4748730957508087 4456788 0 -1
-2.9482877254486084 2.472358226776123 0.4451935291290283 4456788 0 -1
-2.942668914794922 2.467646598815918 0.5045526623725891 4456788 0 -1
-2.9363350868225098 2.4623351097106934 0.5639117956161499 4523353 0 -1
-2.2141590118408203 3.216489553451538 -0.08978693187236786 4456788 0 -1
-2.274602174758911 3.1753034591674805 0 4456788 0 -1
-2.2743351459503174 3.1749305725097656 0.05985795333981514 4456788 0 -1
-2.2745354175567627 3.1752102375030518 0.02992897666990757 4456788 0 -1
-2.2721970081329346 3.171945810317993 0.17957386374473572 4456788 0 -1
-2.9504168033599854 2.534249782562256 0.35914772748947144 4456788 0 -1
-2.9730632305145264 2.4931344985961914 0.4489346444606781 4456788 0 -1
-2.9346511363983154 2.520707845687866 0.5387215614318848 4456788 0 -1
-2.970320224761963 2.4908342361450195 0.4788636267185211 4456788 0 -1
-2.970320224761963 2.4908342361450195 0.4788636267185211 4456788 0 -1
-2.967397451400757 2.4883830547332764 0.5087926387786865 4456788 0 -1
-3.0053834915161133 2.459364175796509 0.41900569200515747 4456788 0 -1
-3.0053834915161133 2.459364175796509 0.41900569200515747 4456788 0 -1
-3.0470147132873535 2.4320240020751953 0.23943181335926056 4456788 0 -1
-2.964294195175171 2.485780954360962 0.5387215614318848 4456788 0 -1
-2.937723398208618 2.5233466625213623 0.5087926387786865 4456788 0 -1
-2.970320224761963 2.4908342361450195 0.4788636267185211 4456788 0 -1
-2.961010217666626 2.4830269813537598 0.5686505436897278 4456788 0 -1
-2.961010217666626 2.4830269813537598 0.5686505436897278 4523353 0 -1
-2.1265017986297607 3.279716730117798 -0.4828541576862335 4456788 0 -1
-2.2929511070251465 3.200918197631836 -0.09053515642881393 4456788 0 -1
-2.293489933013916 3.2016704082489014 -0.030178384855389595 4456788 0 -1
-2.293489933013916 3.2016704082489014 -0.030178384855389595 4456788 0 -1
-2.2929511070251465 3.200918197631836 0.09053515642881393 4456788 0 -1
-3.095205783843994 2.408371925354004 0.36214062571525574 4456788 0 -1
-2.809476137161255 2.646296739578247 0.784637987613678 4456788 0 -1
-2.3991799354553223 3.030911684036255 0.7544596195220947 4456788 0 -1
-3.0155420303344727 2.467677116394043 0.5733892917633057 4456788 0 -1
-2.800185441970825 2.637545347213745 0.8449947834014893 4456788 0 -1
-2.940415620803833 2.5859527587890625 0.42249739170074463 4456788 0 -1
-2.820068836212158 2.538357973098755 1.0562435388565063 4456788 0 -1
-3.1060914993286133 2.416842222213745 0.15089192986488342 4456788 0 -1
-2.809476137161255 2.646296739578247 0.784637987613678 4456788 0 -1
-2.8541171550750732 2.569005012512207 0.8751731514930725 4456788 0 -1
-3.038083076477051 2.4248950481414795 0.6337460875511169 4456788 0 -1
-2.3114259243011475 3.22670841217041 -0.12171117216348648 4456788 0 -1
-2.311901330947876 3.227372169494629 -0.09128338098526001 4456788 0 -1
-2.8012149333953857 2.5797009468078613 1.1258283853530884 4456788 0 -1
-3.1978652477264404 2.2967886924743652 0.5172724723815918 4456788 0 -1
-3.0461580753326416 2.431340217590332 0.7606948614120483 4456788 0 -1
-3.0550568103790283 2.4384429454803467 0.6998392343521118 4456788 0 -1
-2.330371856689453 3.253156900405884 -0.12270880490541458 4456788 0 -1
-2.3005199432373047 3.27605938911438 -0.06135440245270729 4456788 0 -1
-2.2341043949127197 3.3107810020446777 0.27609482407569885 4456788 0 -1
-3.014132499694824 2.5889780521392822 0.4908352196216583 4456788 0 -1
-2.1872870922088623 3.241401195526123 0.8589616417884827 4456788 0 -1
-2.974334716796875 2.6157829761505127 -0.5828668475151062 4456788 0 -1
-3.3122622966766357 2.2470357418060303 -0.09203160554170609 4456788 0 -1
-2.2842652797698975 3.3183321952819824 0.24741287529468536 4456788 0 -1
-3.0584969520568848 2.627084732055664 0.18555966019630432 4456788 0 -1
-2.2713048458099365 3.2995047569274902 0.4948257505893707 4456788 0 -1
-3.0107221603393555 2.6477839946746826 0.4638991355895996 4456788 0 -1
-2.2011985778808594 3.262017250061035 0.8968716859817505 4456788 0 -1
2.703904390335083 3.4850597381591797 0.37311458587646484 4456788 5 -1
2.703904390335083 3.4850597381591797 0.37311458587646484 4456788 5 -1
2.740939140319824 3.462660074234009 0.305275559425354 4456788 5 -1
2.691408395767212 3.539033889770508 0.3416891396045685 4456788 5 -1
2.6897387504577637 3.5368385314941406 0.3758580684661865 4456788 5 -1
2.7237861156463623 3.5106852054595947 0.3758580684661865 4456788 5 -1
2.7237861156463623 3.5106852054595947 0.3758580684661865 4456788 5 -1
2.7254767417907715 3.512864351272583 0.3416891396045685 4456788 5 -1
2.6424193382263184 3.6160342693328857 0.3441832363605499 4456788 5 -1
2.6712770462036133 3.5833816528320312 0.44743821024894714 4456788 5 -1
2.7110536098480225 3.564866304397583 0.3441832363605499 4456788 5 -1
2.6732563972473145 3.5860369205474854 0.41301989555358887 4456788 5 -1
2.7436678409576416 3.5363106727600098 0.3786015510559082 4456788 5 -1
2.7849364280700684 3.518242359161377 0.20650994777679443 4456788 5 -1
2.697645425796509 3.618753671646118 0.3120095729827881 4456788 5 -1
2.6961331367492676 3.616724967956543 0.346677303314209 4456788 5 -1
2.69446063041687 3.6144814491271973 0.38134506344795227 4456788 5 -1
2.69063401222229 3.6093482971191406 0.45068052411079407 4456788 5 -1
2.6926276683807373 3.612022638320923 0.41601279377937317 4456788 5 -1
2.769426107406616 3.5695106983184814 0.24267412722110748 4456788 5 -1
2.8766613006591797 3.4905617237091064 0.10400319844484329 4456788 5 -1
2.9099514484405518 3.460080146789551 0.1733386516571045 4456788 5 -1
2.8753092288970947 3.4889209270477295 0.1733386516571045 4456788 5 -1
2.9453728199005127 3.4315547943115234 0.1386709213256836 4456788 5 -1
2.907897472381592 3.4576380252838135 0.24267412722110748 4456788 5 -1
2.9453728199005127 3.4315547943115234 0.1386709213256836 4456788 5 -1
2.943641424179077 3.429537534713745 0.20800639688968658 4456788 5 -1
2.9453728199005127 3.4315547943115234 0.1386709213256836 4456788 5 -1
2.677229881286621 3.6636710166931152 0.41900569200515747 4456788 5 -1
2.6752476692199707 3.6609582901000977 0.4539228081703186 4456788 5 -1
2.677229881286621 3.6636710166931152 0.41900569200515747 4456788 5 -1
2.677229881286621 3.6636710166931152 0.41900569200515747 4456788 5 -1
2.677229881286621 3.6636710166931152 0.41900569200515747 4456788 5 -1
2.677229881286621 3.6636710166931152 0.41900569200515747 4456788 5 -1
2.7119991779327393 3.6380083560943604 0.41900569200515747 4456788 5 -1
2.7119991779327393 3.6380083560943604 0.41900569200515747 4456788 5 -1
2.755537271499634 3.623359441757202 0.20950284600257874 4456788 5 -1
2.885845422744751 3.5017056465148926 0.41900569200515747 4456788 5 -1
2.967172622680664 3.4569530487060547 0.10475142300128937 4456788 5 -1
2.93166184425354 3.4858949184417725 0.1396685540676117 4456788 5 -1
2.9308862686157227 3.4849729537963867 0.17458570003509521 4456788 5 -1
2.96577787399292 3.4553282260894775 0.17458570003509521 4456788 5 -1
2.963684558868408 3.4528892040252686 0.24441997706890106 4456788 5 -1
2.995725154876709 3.4194278717041016 0.3142542541027069 4456788 5 -1
2.96577787399292 3.4553282260894775 0.17458570003509521 4456788 5 -1
3.0377912521362305 3.3966801166534424 0 4456788 5 -1
2.9623754024505615 3.451364040374756 0.2793371081352234 4523353 5 -1
2.957395553588867 3.4455621242523193 0.38408854603767395 4657508 5 -1
3.1061654090881348 3.3313419818878174 0.1396685540676117 4657508 5 -1
2.95923113822937 3.4477007389068604 0.34917140007019043 4729209 5 -1
2.696352958679199 3.689840078353882 0.4219985902309418 4456788 5 -1
2.696352958679199 3.689840078353882 0.4219985902309418 4456788 5 -1
2.698188543319702 3.692351818084717 0.38683202862739563 4456788 5 -1
2.806626081466675 3.617457628250122 0.31649893522262573 4456788 5 -1
2.8836569786071777 3.5704123973846436 0 4456788 5 -1
2.9888055324554443 3.482156991958618 0.0703330934047699 4456788 5 -1
2.953209400177002 3.5115160942077637 0.10549964755773544 4456788 5 -1
2.9526021480560303 3.510794162750244 0.1406661868095398 4456788 5 -1
2.986962080001831 3.480009078979492 0.17583273351192474 4456788 5 -1
2.9835352897644043 3.4760167598724365 0.2813323736190796 4456788 5 -1
3.0221028327941895 3.4495363235473633 0.17583273351192474 4456788 5 -1
3.0586812496185303 3.4200382232666016 0.10549964755773544 4456788 5 -1
3.094656229019165 3.38916277885437 0 4456788 5 -1
3.0932023525238037 3.38757061958313 0.1406661868095398 4523353 5 -1
3.0092813968658447 3.434901475906372 0.4571651220321655 4725613 5 -1
3.160433292388916 3.3187928199768066 0.24616584181785583 4725613 5 -1
2.986962080001831 3.480009078979492 0.17583273351192474 4212104 5 -1
2.7558679580688477 3.6968562602996826 0.31874361634254456 4456788 5 -1
2.7925989627838135 3.672093152999878 0.2833276391029358 4456788 5 -1
2.793833017349243 3.6737160682678223 0.24791169166564941 4456788 5 -1
2.7925989627838135 3.672093152999878 0.2833276391029358 4456788 5 -1
2.8986470699310303 3.588972330093384 0.2833276391029358 4456788 5 -1
2.9270715713500977 3.551729917526245 0.4249914586544037 4456788 5 -1
2.903341054916382 3.5947842597961426 0.10624786466360092 4456788 5 -1
2.969345808029175 3.530703067779541 0.2833276391029358 4456788 5 -1
3.004695177078247 3.500669240951538 0.2833276391029358 4456788 5 -1
3.0060229301452637 3.502216339111328 0.24791169166564941 4456788 5 -1
3.1497058868408203 3.3780388832092285 0.17707978188991547 4456788 5 -1
3.1474828720092773 3.375654697418213 0.24791169166564941 4456788 5 -1
3.1157805919647217 3.412297487258911 0.10624786466360092 4456788 5 -1
3.1162381172180176 3.4127986431121826 -0.07083190977573395 4456788 5 -1
3.032961368560791 3.391279697418213 -0.814566969871521 4523353 0 -1
3.1165125370025635 3.4130992889404297 -0.035415954887866974 4590430 5 -1
3.081188201904297 3.445204019546509 0 4724328 5 -1
3.1798477172851562 3.3391799926757812 0.31874361634254456 4725613 5 -1
3.1516499519348145 3.3801238536834717 0.07083190977573395 4728182 5 -1
2.8092801570892334 3.69402813911438 0.35665363073349 4456788 5 -1
2.8092801570892334 3.69402813911438 0.35665363073349 4456788 5 -1
2.919059991836548 3.6142468452453613 0.285322904586792 4456788 5 -1
2.919059991836548 3.6142468452453613 0.285322904586792 4456788 5 -1
2.9242165088653564 3.620631217956543 0.071330726146698 4456788 5 -1
3.206488609313965 3.3671557903289795 0.213992178440094 4456788 5 -1
3.2052621841430664 3.365867853164673 0.2496575564146042 4456788 5 -1
3.13818359375 3.4368324279785156 -0.071330726146698 4456788 5 -1
3.070650100708008 3.3628721237182617 -0.9629648327827454 4523353 0 -1
3.1384599208831787 3.4371352195739746 -0.035665363073349 4590430 5 -1
3.1027956008911133 3.4693641662597656 -0.035665363073349 4724328 5 -1
3.185668468475342 3.345292329788208 0.570645809173584 4725613 5 -1
3.102522373199463 3.4690587520599365 0.071330726146698 4728182 5 -1
3.102522373199463 3.4690587520599365 0.071330726146698 4728182 5 -1
2.785187005996704 3.7361862659454346 0.5028068423271179 4456788 5 -1
2.8319313526153564 3.7238128185272217 0.2873181700706482 4456788 5 -1
2.8690457344055176 3.6979103088378906 0.25140342116355896 4456788 5 -1
2.9005439281463623 3.6642906665802 0.35914772748947144 4456788 5 -1
2.9021708965301514 3.6663460731506348 0.3232329487800598 4456788 5 -1
3.231950044631958 3.393893003463745 0.07182954251766205 4456788 5 -1
2.9805760383605957 3.616652488708496 0.07182954251766205 4456788 5 -1
3.2289116382598877 3.390702486038208 0.21548862755298615 4456788 5 -1
3.1930348873138428 3.424509048461914 0.21548862755298615 4456788 5 -1
3.1065986156463623 3.4022417068481445 -0.8619545102119446 4523353 0 -1
3.124218225479126 3.4933178424835205 0.07182954251766205 4726897 5 -1
3.0878543853759766 3.524587392807007 0.10774431377649307 4728182 5 -1
2.871072292327881 3.7005224227905273 -0.17957386374473572 4341894 5 -1
3.2299563884735107 3.3917994499206543 -0.17957386374473572 4341894 5 -1
2.5583126544952393 3.8676300048828125 -0.6823806762695312 4212104 5 -1
2.903625726699829 3.6681840419769287 -0.2873181700706482 4212104 5 -1
3.616727590560913 2.959639072418213 -0.35914772748947144 4212104 0 -1
2.768573045730591 3.788670063018799 0.5062985420227051 4456788 5 -1
2.7728452682495117 3.7945163249969482 0.4339701533317566 4456788 5 -1
2.9271481037139893 3.6979000568389893 0.18082089722156525 4456788 5 -1
2.7348079681396484 3.817742109298706 0.47013434767723083 4456788 5 -1
2.9223248958587646 3.6918067932128906 0.32547762989997864 4456788 5 -1
2.8764395713806152 3.707440137863159 0.5062985420227051 4456788 5 -1
2.8946967124938965 3.6569039821624756 0.723283588886261 4456788 5 -1
2.9401962757110596 3.6404168605804443 0.6147910952568054 4456788 5 -1
2.9549102783203125 3.658635139465332 0.39780598878860474 4456788 5 -1
3.253247022628784 3.41625714302063 0.1446567177772522 4456788 5 -1
3.0334181785583496 3.60688853263855 -0.25314927101135254 4456788 5 -1
3.0002167224884033 3.6404848098754883 0.1446567177772522 4456788 5 -1
3.2523865699768066 3.415353536605835 0.18082089722156525 4456788 5 -1
3.212559223175049 3.445448637008667 0.2893134355545044 4456788 5 -1
3.212559223175049 3.445448637008667 0.2893134355545044 4456788 5 -1
3.112761974334717 3.4805080890655518 -0.6871194243431091 4523353 5 -1
3.2874605655670166 3.379478693008423 0.2169850766658783 4536450 5 -1
3.2893943786621094 3.3814663887023926 0.1446567177772522 4341894 5 -1
2.926201105117798 3.6967039108276367 -0.2169850766658783 4212104 5 -1
2.8682162761688232 3.7715251445770264 0.36413589119911194 4456788 5 -1
2.862366199493408 3.7638325691223145 0.47337666153907776 4456788 5 -1
2.8600735664367676 3.7608182430267334 0.5097902417182922 4456788 5 -1
2.8985986709594727 3.7360007762908936 0.47337666153907776 4456788 5 -1
2.9180755615234375 3.68643856048584 0.691858172416687 4456788 5 -1
2.924370050430298 3.6943905353546143 0.6190310120582581 4456788 5 -1
2.968683958053589 3.675689220428467 0.5097902417182922 4456788 5 -1
2.9788057804107666 3.6882212162017822 -0.32772231101989746 4456788 5 -1
3.0151326656341553 3.658583641052246 -0.32772231101989746 4456788 5 -1
3.0928826332092285 3.6034135818481445 0.18206794559955597 4456788 5 -1
3.2330939769744873 3.4674720764160156 0.32772231101989746 4456788 5 -1
3.2221083641052246 3.4556899070739746 0.5097902417182922 4724328 5 -1
2.9088938236236572 3.74927020072937 -0.2548951208591461 4212104 5 -1
3.163421869277954 3.5371530055999756 0.2548951208591461 4212104 5 -1
2.66589617729187 3.8727240562438965 -0.691858172416687 3107982 5 -1
2.872532606124878 3.777200937271118 -0.2548951208591461 3107982 5 -1
2.875322103500366 3.7808690071105957 -0.1456543505191803 2588302 5 -1
2.892207384109497 3.803072214126587 0.2566409707069397 4456788 5 -1
2.887861490249634 3.7973575592041016 0.366629958152771 4456788 5 -1
2.8819713592529297 3.789612293243408 0.4766189455986023 4456788 5 -1
2.8745274543762207 3.7798240184783936 0.5866079330444336 4456788 5 -1
3.00203800201416 3.716986656188965 -0.2566409707069397 4456788 5 -1
3.0340824127197266 3.681577444076538 -0.366629958152771 4456788 5 -1
3.0340824127197266 3.681577444076538 -0.366629958152771 4456788 5 -1
3.037306070327759 3.6854891777038574 -0.2933039665222168 4456788 5 -1
3.040794610977173 3.6897222995758057 -0.1833149790763855 4456788 5 -1
3.072359800338745 3.6531920433044434 -0.3299669623374939 4456788 5 -1
3.1155312061309814 3.629800796508789 -0.1099889874458313 4657508 5 -1
3.2583096027374268 3.4945156574249268 0.2566409707069397 4657508 5 -1
3.2806289196014404 3.4450111389160156 0.5132819414138794 4724328 5 -1
3.2826693058013916 3.302788496017456 -1.099889874458313 4600703 0 -1
2.8992526531219482 3.8123364448547363 0.5167736411094666 4456788 5 -1
2.8451578617095947 3.816634178161621 -0.7382481098175049 4456788 5 -1
2.8451578617095947 3.816634178161621 -0.7382481098175049 4456788 5 -1
3.003983736038208 3.719395637512207 -0.590598464012146 4456788 5 -1
3.025395154953003 3.745906114578247 -0.1476496160030365 4456788 5 -1
3.0224602222442627 3.742272138595581 -0.2583868205547333 4456788 5 -1
3.0528273582458496 3.7043230533599854 -0.40603646636009216 4456788 5 -1
3.0224602222442627 3.742272138595581 -0.2583868205547333 4456788 5 -1
3.0528273582458496 3.7043230533599854 -0.40603646636009216 4456788 5 -1
3.0579681396484375 3.7105605602264404 -0.295299232006073 4456788 5 -1
3.0637295246124268 3.7175517082214355 0 4456788 5 -1
3.136725425720215 3.6544933319091797 -0.11073721200227737 4600703 5 -1
2.970881938934326 3.7531495094299316 -0.7803980708122253 4456788 5 -1
2.9476146697998047 3.799177646636963 -0.6317508220672607 4456788 5 -1
2.970881938934326 3.7531495094299316 -0.7803980708122253 4456788 5 -1
2.934204339981079 3.781893253326416 -0.7803980708122253 4456788 5 -1
3.0112733840942383 3.728421211242676 -0.743236243724823 4456788 5 -1
2.99513578414917 3.78378963470459 -0.48310357332229614 4456788 5 -1
3.0471792221069336 3.7728781700134277 -0.03716181218624115 4456788 5 -1
3.100904941558838 3.6871337890625 -0.557427167892456 4456788 5 -1
3.0100185871124268 3.802591323852539 0.03716181218624115 4456788 5 -1
3.1528139114379883 3.6732375621795654 -0.2972944974899292 4456788 5 -1
3.078629970550537 3.7356319427490234 -0.2972944974899292 4456788 5 -1
3.2169976234436035 3.5970582962036133 -0.48310357332229614 4456788 5 -1
2.953896999359131 3.8072750568389893 -0.7856356501579285 4456788 5 -1
2.9741899967193604 3.757328510284424 -0.9352805018424988 4456788 0 -1
2.994513988494873 3.78300404548645 -0.7482244372367859 4456788 5 -1
2.994513988494873 3.78300404548645 -0.7482244372367859 4456788 5 -1
2.994513988494873 3.78300404548645 -0.7482244372367859 4456788 5 -1
3.007449150085449 3.7993454933166504 -0.5985795259475708 4456788 5 -1
2.9980227947235107 3.7874369621276855 -0.7108132243156433 4456788 5 -1
3.023094654083252 3.81911039352417 -0.33670100569725037 4456788 5 -1
3.0154011249542236 3.733531951904297 -0.8978692889213562 4456788 0 -1
2.970320224761963 3.8284428119659424 -0.5985795259475708 4456788 5 -1
3.0547244548797607 3.7822203636169434 -0.4489346444606781 4729209 5 -1
3.0027642250061035 3.793426990509033 -0.866194486618042 4456788 0 -1
3.024519681930542 3.820910930633545 -0.6402307152748108 4456788 5 -1
3.014477252960205 3.8082242012023926 -0.753212571144104 4456788 5 -1
2.989361047744751 3.776494264602661 0.9791763424873352 4456788 5 -1
3.1687428951263428 3.6169166564941406 -1.0168370008468628 4456788 0 -1
3.047929525375366 3.7738070487976074 -0.7908732295036316 4456788 5 -1
3.2295854091644287 3.611133337020874 0.8285338282585144 4456788 5 -1
3.1301333904266357 3.7218878269195557 0.9098408818244934 4456788 5 -1
3.229104518890381 3.6858153343200684 0.6823806762695312 4456788 5 -1
3.341747522354126 3.5840024948120117 0.6823806762695312 4728182 5 -1
3.3922150135040283 3.5621883869171143 0.53074049949646 4729209 5 -1
3.121907949447632 3.7881457805633545 0.8395078182220459 4456788 5 -1
3.1259615421295166 3.7930643558502197 0.8013483881950378 4456788 5 -1
3.1460320949554443 3.7407920360565186 0.9539861679077148 4456788 5 -1
3.150726318359375 3.7463738918304443 0.915826678276062 4456788 5 -1
3.2467474937438965 3.70595383644104 0.725029468536377 4456788 5 -1
3.294827699661255 3.6840832233428955 0.610551118850708 4456788 5 -1
3.3560738563537598 3.599367141723633 0.763188898563385 4728182 5 -1
3.3560738563537598 3.599367141723633 0.763188898563385 4729209 5 -1
3.347588062286377 3.590266227722168 0.8395078182220459 4664956 5 -1
3.146392583847046 3.8178555965423584 0.8065859079360962 4456788 5 -1
3.218031167984009 3.7492198944091797 0.8449947834014893 4456788 5 -1
3.218031167984009 3.7492198944091797 0.8449947834014893 4456788 5 -1
3.1084842681884766 3.848783493041992 0.8065859079360962 4456788 5 -1
3.302098512649536 3.692213296890259 0.7681770920753479 4456788 5 -1
3.3780088424682617 3.622892379760742 0.7681770920753479 4726897 5 -1
3.3780088424682617 3.622892379760742 0.7681770920753479 4728182 5 -1
3.3694677352905273 3.613732099533081 0.8449947834014893 4729209 5 -1
-3.4570538997650146 3.8654751777648926 -0.4788636267185211 4456788 0 -1
-3.662832260131836 3.606081962585449 -0.8380113840103149 8705099 0 -1
-3.612968921661377 3.79400372505188 0.12046413123607635 4456788 0 -1
-3.5269694328308105 3.8626174926757812 -0.3212376832962036 4456788 0 -1
-3.6763429641723633 3.7792460918426514 -0.08080823719501495 4456788 0 -1
-3.716742515563965 3.7395219802856445 -0.08080823719501495 4456788 0 -1
-3.5950164794921875 3.8556315898895264 -0.12121235579252243 4456788 0 -1
-3.69555926322937 3.7990000247955322 -0.243921160697937 4456788 0 -1
-3.8035261631011963 3.744596004486084 -0.08180586993694305 4456788 0 -1
-3.9076359272003174 3.680673122406006 -0.1646093726158142 4456788 0 -1
-4.643520832061768 2.683058261871338 0.28806641697883606 4456788 0 -1
-3.9330508708953857 3.7046120166778564 -0.04140175133943558 4456788 0 -1
-4.677161693572998 2.702496290206909 0.12420525401830673 4456788 0 -1
-4.661505222320557 2.7882895469665527 -0.208255797624588 4456788 0 -1
-4.062445640563965 3.656627655029297 -0.1676022708415985 4456788 0 -1
-4.631710529327393 2.77046799659729 -0.8799118995666504 4456788 0 -1
-3.5727462768554688 4.078060626983643 -0.7123096585273743 4456788 0 -1
-4.127665042877197 3.6300809383392334 -0.21074987947940826 4456788 0 -1
-4.128756999969482 3.6310412883758545 -0.1685999035835266 4456788 0 -1
-4.585707187652588 3.0194544792175293 -0.3371998071670532 4456788 0 -1
-4.631594657897949 2.95700740814209 0.2528998553752899 4456788 0 -1
-4.154041767120361 3.65327787399292 -0.12719815969467163 4456788 0 -1
-4.1955671310424805 3.603766918182373 -0.1695975363254547 4456788 0 -1
-4.193100452423096 3.6016485691070557 -0.25439631938934326 4456788 0 -1
-4.647336006164551 2.967057228088379 0.46639323234558105 4456788 0 -1
-4.222106456756592 3.6265628337860107 -0.0426487922668457 4456788 0 -1
-4.219130516052246 3.624006748199463 -0.21324396133422852 4456788 0 -1
-4.263752460479736 3.5754730701446533 -0.1279463768005371 4456788 0 -1
-1.9806157350540161 5.007626056671143 1.4074101448059082 4456788 0 -1
-4.637650966644287 3.053656816482544 0.38383913040161133 4456788 0 -1
-4.725113391876221 2.9217896461486816 -0.3411903381347656 4523353 0 -1
-4.332209587097168 3.5451316833496094 -0.08579640090465546 4456788 0 -1
-4.372404098510742 3.4899048805236816 -0.21449099481105804 4456788 0 -1
-1.9495692253112793 4.929130554199219 1.8017244338989258 4456788 0 -1
4.738017559051514 2.9297690391540527 -0.5576766133308411 4456788 0 -1
-1.9836829900741577 5.015381336212158 1.5014370679855347 4456788 0 -1
-1.9836829900741577 5.015381336212158 1.5014370679855347 4456788 0 -1
4.776873588562012 2.857297420501709 -0.600574791431427 4456788 0 -1
-4.540132999420166 3.0800223350524902 -1.1153532266616821 4456788 0 -1
-4.356756687164307 3.5652194023132324 -0.12944282591342926 4456788 0 -1
-4.356756687164307 3.5652194023132324 -0.12944282591342926 4456788 0 -1
-3.2940778732299805 4.245733737945557 1.682756781578064 4456788 0 -1
4.761747360229492 2.9444425106048584 -0.6040664911270142 4456788 0 -1
4.988638401031494 2.465294361114502 -0.8629521727561951 4456788 0 -1
-1.9952161312103271 5.0445404052734375 1.5101662874221802 4456788 0 -1
-1.9952161312103271 5.0445404052734375 1.5101662874221802 4456788 0 -1
4.76556396484375 2.9468026161193848 -0.560918927192688 4456788 0 -1
-4.425975799560547 3.5326642990112305 -0.08679403364658356 4456788 0 -1
-4.469367980957031 3.4776041507720947 -0.08679403364658356 4456788 0 -1
-1.9733766317367554 5.111886501312256 1.4321016073226929 4456788 0 -1
5.004787921905518 2.4732751846313477 -0.9547343850135803 4456788 0 -1
5.377279281616211 1.7647371292114258 -0.2169850766658783 4456788 0 -1
-4.746125221252441 3.0301287174224854 0.6075582504272461 4456788 0 -1
-2.210803508758545 4.974746227264404 1.5622925758361816 4456788 0 -1
-2.006749153137207 5.073699474334717 1.5188956260681152 4456788 0 -1
5.04815149307251 2.4947047233581543 -0.6075582504272461 4456788 0 -1
-2.0573501586914062 5.078671932220459 1.4321016073226929 4456788 0 -1
5.028924942016602 2.485203266143799 -0.7811462879180908 4456788 0 -1
-4.495449542999268 3.4978983402252197 -0.043646425008773804 4456788 0 -1
-4.538695335388184 3.4407694339752197 -0.08729285001754761 4456788 0 -1
-4.537095546722412 3.439556837081909 -0.17458570003509521 4456788 0 -1
-3.1373941898345947 4.55766487121582 1.3530391454696655 4456788 0 -1
-1.9926692247390747 5.161862373352051 1.3530391454696655 4456788 0 -1
5.4081830978393555 1.7748793363571167 -0.21823212504386902 4456788 0 -1
-4.931900978088379 2.84968638420105 0.043646425008773804 4456788 0 -1
-4.740530967712402 3.1213979721069336 0.48011067509651184 4456788 0 -1
-2.170315742492676 5.112131118774414 1.2657463550567627 4456788 0 -1
-4.563960552215576 3.4599227905273438 -0.1316874921321869 4456788 0 -1
-4.6507720947265625 3.340303659439087 -0.17558333277702332 4456788 0 -1
-4.634025573730469 3.4205851554870605 -0.13243572413921356 4456788 0 -1
-4.678159236907959 3.359973669052124 -0.13243572413921356 4456788 0 -1
-3.4923198223114014 4.592182636260986 0.5327357649803162 4456788 0 -1
-3.3632755279541016 4.422497272491455 -1.6426019668579102 4456788 0 -1
-3.4473633766174316 4.53306770324707 -1.0654715299606323 4456788 0 -1
-4.704589366912842 3.3789565563201904 -0.13318394124507904 4456788 0 -1
-3.5365264415740967 4.558225631713867 -0.5327357649803162 7589974 0 -1
-3.511939525604248 4.617981433868408 0.5357286930084229 4456788 0 -1
-3.7430484294891357 4.450675010681152 -0.35715246200561523 4456788 0 -1
-3.604602336883545 4.286055564880371 1.6071860790252686 4456788 0 -1
-4.01749324798584 4.218797206878662 0.08928811550140381 4456788 0 -1
-3.7461354732513428 4.454345703125 -0.2678643465042114 4456788 0 -1
-3.4324331283569336 4.513435363769531 -1.3393217325210571 4456788 0 -1
-4.015015125274658 4.216195106506348 -0.22322028875350952 4456788 0 -1
-3.7390756607055664 4.445950984954834 -0.44644057750701904 4456788 0 -1
-4.731019496917725 3.397939443588257 -0.1339321732521057 4456788 0 -1
-3.7706081867218018 4.483444690704346 -0.08978693187236786 4456788 0 -1
-3.5905282497406006 4.627828121185303 0.1346803903579712 4456788 0 -1
-4.077622413635254 4.191757678985596 -0.35914772748947144 4456788 0 -1
-3.7709403038024902 4.483839988708496 -0.04489346593618393 4456788 0 -1
-3.591055393218994 4.6285080909729 0.08978693187236786 4456788 0 -1
-4.070767879486084 4.184711456298828 -0.4938281178474426 4456788 0 -1
-3.7706081867218018 4.483444690704346 -0.08978693187236786 4456788 0 -1
-3.7692794799804688 4.481864929199219 -0.17957386374473572 4456788 0 -1
-4.067998886108398 4.1818647384643555 -0.5387215614318848 4456788 0 -1
-3.8154964447021484 4.445306777954102 -0.08978693187236786 4456788 0 -1
-3.635943651199341 4.593329906463623 0.08978693187236786 4456788 0 -1
-4.058231353759766 4.171823978424072 -0.6734020113945007 4456788 0 -1
-4.081411361694336 4.106426239013672 0.8978692889213562 10016830 0 -1
-4.081411361694336 4.106426239013672 0.8978692889213562 12640037 0 -1
-3.7915561199188232 4.508352756500244 0.09028574824333191 4456788 0 -1
-3.7918901443481445 4.508749961853027 0.045142874121665955 4456788 0 -1
-3.42313814163208 4.5012125968933105 1.8713092803955078 4456788 0 -1
5.096588611602783 2.9448440074920654 -0.9128338098526001 4456788 0 -1
-3.603046178817749 4.737781047821045 0.22820845246315002 4456788 0 -1
5.096588611602783 2.9448440074920654 -0.9128338098526001 4456788 0 -1
5.299291133880615 2.6188135147094727 -0.9637130498886108 4456788 0 -1
5.3303914070129395 2.5183866024017334 -1.055495262145996 4456788 0 -1
-3.6236934661865234 4.764930725097656 0.18356439471244812 4456788 0 -1
5.124439239501953 2.9609360694885254 -0.9178219437599182 4456788 0 -1
-5.088525772094727 3.1465070247650146 0.275346577167511 4456788 0 -1
-5.088525772094727 3.1465070247650146 0.275346577167511 4456788 0 -1
-3.7584760189056396 4.469018936157227 1.3308418989181519 4456788 0 -1
-3.9190635681152344 4.565969467163086 0.23070253431797028 4456788 0 -1
-2.2719056606292725 5.351424217224121 1.5687772035598755 4456788 0 -1
5.359361171722412 2.532073497772217 -1.0612316131591797 4456788 0 -1
-1.981445074081421 5.394080638885498 1.7994797229766846 4456788 0 -1
5.203975200653076 2.9000775814056396 -0.8766696453094482 4456788 0 -1
5.4492998123168945 2.4536664485931396 -0.7382481098175049 4456788 0 -1
5.710663318634033 1.8741484880447388 -0.36912405490875244 4456788 0 -1
5.228792667388916 2.5839741230010986 -1.6236469745635986 4456788 0 -1
5.228792667388916 2.5839741230010986 -1.6236469745635986 4456788 0 -1
-2.2310097217559814 5.507359027862549 1.159747838973999 4456788 0 -1
5.182793617248535 2.448652744293213 -1.9483764171600342 4456788 0 -1
-5.099450588226318 3.0502476692199707 1.159747838973999 4523353 0 -1
5.232904434204102 2.5860064029693604 -1.72565495967865 4456788 0 -1
5.232904434204102 2.5860064029693604 -1.72565495967865 4456788 0 -1
5.264979839324951 2.4874820709228516 -1.772294282913208 4456788 0 -1
5.266582012176514 2.488239288330078 -1.8755491971969604 4456788 0 -1
5.305852890014648 2.5067930221557617 -1.7348830699920654 4456788 0 -1
5.318202972412109 2.5126278400421143 -1.687994360923767 4456788 0 -1
5.3301873207092285 2.518289804458618 -1.6411055326461792 4456788 0 -1
-5.202203750610352 3.2168002128601074 -0.18755492568016052 4456788 0 -1
5.415731906890869 2.438551664352417 -1.6026967763900757 4456788 0 -1
-5.48904275894165 2.829707384109497 0.33171284198760986 4456788 0 -1
-5.301793098449707 3.1712794303894043 -0.2843252718448639 4456788 0 -1
-5.334712505340576 3.190969944000244 -0.09527391195297241 4456788 0 -1
-5.335182189941406 3.191251039505005 -0.047636955976486206 4456788 0 -1
-5.335182189941406 3.191251039505005 -0.047636955976486206 4456788 0 -1
-5.333929061889648 3.1905014514923096 -0.14291086792945862 4456788 0 -1
-5.335182189941406 3.191251039505005 -0.047636955976486206 4456788 0 -1
-5.335339069366455 3.191344738006592 0 4456788 0 -1
-5.333929061889648 3.1905014514923096 -0.14291086792945862 4456788 0 -1
-4.870048999786377 3.887108325958252 -0.4788636267185211 4456788 0 -1
-5.362642765045166 3.207676649093628 0.09577272832393646 4456788 0 -1
-5.360753059387207 3.2065463066101074 -0.19154545664787292 4456788 0 -1
-5.360753059387207 3.2065463066101074 -0.19154545664787292 4456788 0 -1
-5.362642765045166 3.207676649093628 -0.09577272832393646 4456788 0 -1
-5.362642765045166 3.207676649093628 -0.09577272832393646 4456788 0 -1
-5.0950469970703125 3.659393072128296 0.3369503915309906 4456788 0 -1
-4.133818626403809 4.816173076629639 0.04863458871841431 10672695 0 -1
-3.910719633102417 5.040522575378418 0 4456788 0 -1
-3.859140396118164 5.074528694152832 0.6878676414489746 4456788 0 -1
-3.813344717025757 5.1154069900512695 0.6387342214584351 4456788 0 -1
-3.878730058670044 5.100287914276123 0.6913593411445618 4456788 0 -1
-3.8818390369415283 5.104375839233398 0.641976535320282 4456788 0 -1
-3.8983194828033447 5.126046657562256 0.6948511004447937 4456788 0 -1
-2.6215837001800537 6.320587158203125 -1.1156026124954224 4456788 0 -1
-4.513412952423096 5.258425712585449 -0.21249572932720184 4724328 0 -1
-5.493418216705322 4.274415016174316 0.2668667137622833 4456788 0 -1
-3.769148826599121 5.475409507751465 -2.0815603733062744 4456788 0 -1
-2.6402339935302734 6.36555290222168 -1.0140935182571411 4456788 0 -1
-4.57661247253418 5.223909378051758 -0.5337334275245667 4523353 0 -1
-4.534602642059326 5.2831130027771 -0.21349336206912994 4724328 0 -1
-2.6555135250091553 6.40239143371582 -0.9652094841003418 4456788 0 -1
-4.59799861907959 5.24832010269165 -0.5362275242805481 4523353 0 -1
-4.610337734222412 5.262404918670654 -0.16086825728416443 4724328 0 -1
-2.6856887340545654 6.4751434326171875 -0.5387215614318848 4456788 4 -1
-2.535902976989746 6.114012718200684 -2.370374917984009 4456788 0 -1
-2.58308744430542 6.227773666381836 -1.993269920349121 4456788 0 -1
-3.6242449283599854 5.818480968475342 -1.5622925758361816 2666112 0 -1
-2.379351854324341 6.477301597595215 -1.3468040227890015 2666112 0 -1
-2.1386306285858154 6.641831398010254 -0.8619545102119446 2994813 0 -1
-1.7226433753967285 6.811062812805176 -0.2693607807159424 2994813 0 -1
-2.6926193237304688 6.4918532371521 -0.703580379486084 4456788 4 -1
-2.7048070430755615 6.521236896514893 -0.21648626029491425 4456788 4 -1
-2.5621156692504883 6.177210807800293 -2.2731058597564697 4456788 0 -1
-2.7040915489196777 6.519512176513672 -0.2706078290939331 4456788 4 -1
-2.7057604789733887 6.523536205291748 -0.10824313014745712 4456788 4 -1
-2.6708152294158936 6.439283847808838 -1.1365529298782349 4456788 0 -1
-2.9121646881103516 6.4073591232299805 -0.5953372120857239 2468738 0 -1
-2.433682441711426 6.625205039978027 0.2706078290939331 6343264 4 -1
-2.3611230850219727 6.427677154541016 -1.731890082359314 6933851 0 -1
-2.7134363651275635 6.542042255401611 -0.4349677860736847 4456788 4 -1
-2.7050278186798096 6.5217695236206055 -0.7068226933479309 4456788 4 -1
-2.717271566390991 6.551289081573486 -0.21748389303684235 4456788 4 -1
-2.716552734375 6.549556255340576 -0.27185487747192383 4456788 4 -1
-2.7088749408721924 6.531044960021973 -0.5980806946754456 4456788 4 -1
-2.7146353721618652 6.544933319091797 -0.3805968165397644 4456788 4 -1
-2.7105562686920166 6.535098552703857 -0.5437097549438477 4456788 4 -1
-2.7070322036743164 6.526601791381836 -0.6524516940116882 4456788 4 -1
-2.6130731105804443 6.300068378448486 -1.9573551416397095 4590430 0 -1
-2.988208055496216 6.430160045623779 -0.27185487747192383 2070922 0 -1
-3.0860166549682617 6.35618257522583 -0.6524516940116882 6343264 0 -1
-2.6640994548797607 6.576463222503662 0.05437097325921059 6343264 4 -1
-2.9338769912719727 6.455130577087402 -0.27185487747192383 6933851 0 -1
-2.730297565460205 6.582694053649902 -0.16386115550994873 4456788 4 -1
-2.7309389114379883 6.584240913391113 -0.05462038144469261 4456788 4 -1
-2.6583495140075684 6.261683940887451 -2.130194902420044 4456788 0 -1
-2.365433931350708 6.280296802520752 -2.403296947479248 4456788 0 -1
-2.7281312942504883 6.577471733093262 -0.32772231101989746 4456788 4 -1
-2.7290141582489014 6.579599857330322 -0.27310192584991455 4456788 4 -1
-2.7290141582489014 6.579599857330322 -0.27310192584991455 4456788 4 -1
-2.730297565460205 6.582694053649902 -0.16386115550994873 4456788 4 -1
-2.722990036010742 6.5650763511657715 -0.5462038516998291 4456788 4 -1
-2.7213008403778076 6.561003684997559 -0.600824236869812 4456788 4 -1
-2.730698347091675 6.583661079406738 -0.10924076288938522 4456788 4 -1
-2.7213008403778076 6.561003684997559 -0.600824236869812 4456788 4 -1
-2.7270877361297607 6.574955940246582 -0.382342666387558 4456788 4 -1
-2.722990036010742 6.5650763511657715 -0.5462038516998291 4456788 4 -1
-2.7174360752105713 6.551685810089111 -0.7100650072097778 4456788 4 -1
-2.7174360752105713 6.551685810089111 -0.7100650072097778 4456788 4 -1
-2.707750082015991 6.528332710266113 -0.9285464882850647 4456788 0 -1
-4.476767063140869 5.542928695678711 -0.21848152577877045 4456788 0 -1
-2.6954309940338135 6.498631954193115 -1.1470280885696411 4523353 0 -1
-2.6919357776641846 6.490204811096191 -1.201648473739624 4590430 0 -1
-2.707750082015991 6.528332710266113 -0.9285464882850647 3107982 0 -1
-2.821437120437622 6.494726181030273 -0.8193057179450989 2199437 4 -1
-2.821437120437622 6.494726181030273 -0.8193057179450989 2199437 4 -1
-2.996969223022461 6.449012279510498 -0.4915834367275238 2070922 0 -1
-2.9370057582855225 6.462014198303223 -0.6554446220397949 2994813 0 -1
-2.676084518432617 6.606048583984375 -0.10924076288938522 6343264 4 -1
-2.9439539909362793 6.477301597595215 -0.4369630515575409 6933851 0 -1
-2.7434089183807373 6.6143059730529785 -0.05486978963017464 4456788 4 -1
-2.523714065551758 6.700535297393799 0.10973957926034927 4456788 4 -1
-2.7980306148529053 6.590700149536133 -0.10973957926034927 4456788 4 -1
-2.5788800716400146 6.680398464202881 0 4456788 4 -1
-2.742764711380005 6.612752437591553 0.1646093726158142 4456788 4 -1
-2.523343324661255 6.699551105499268 0.1646093726158142 4456788 4 -1
-2.68735671043396 6.633874416351318 -0.21947915852069855 4456788 4 -1
-2.727658271789551 6.57633113861084 -0.7681770920753479 4456788 4 -1
-2.7431674003601074 6.613723278045654 -0.10973957926034927 4456788 4 -1
-2.7354238033294678 6.595053672790527 -0.5486978888511658 4456788 4 -1
-2.7253079414367676 6.570664882659912 -0.823046863079071 4456788 4 -1
-4.438055515289307 5.606646537780762 -0.38408854603767395 4456788 0 -1
