VERSION .7
FIELDS x y z rgb label object
SIZE 4 4 4 4 4 4
TYPE F F F I I I
COUNT 1 1 1 1 1 1
WIDTH 686
HEIGHT 1
POINTS 686
VIEWPOINT 0 0 0 1 0 0 0
DATA ascii
-1.672348141670227 2.3815102577209473 -0.33670100569725037 4456788 0 -1
-1.5729501247406006 2.4259707927703857 -0.47138139605522156 4456788 0 -1
-1.456937313079834 2.536602258682251 -0.15712712705135345 4728182 0 -1
-2.192199468612671 1.9732096195220947 -0.2723536789417267 4456788 0 -1
-2.087064027786255 2.099855422973633 -0.09078456461429596 4456788 0 -1
-1.4979013204574585 2.555239200592041 -0.02269614115357399 4456788 0 -1
-1.3351354598999023 2.6342687606811523 0.2269614040851593 4456788 0 -1
-1.9504350423812866 2.2262964248657227 -0.11348070204257965 4456788 0 -1
-1.7639994621276855 2.3663151264190674 0.2496575564146042 4456788 0 -1
-1.9490584135055542 2.2247250080108643 0.15887299180030823 4456788 0 -1
-1.784722089767456 2.209761381149292 -0.8397572040557861 4456788 0 -1
-1.4521691799163818 2.580705165863037 0.06808841973543167 4728182 0 -1
-1.858404517173767 2.3009917736053467 0.15887299180030823 4729209 0 -1
-1.4523824453353882 2.5810842514038086 0.04539228230714798 4729209 0 -1
-1.9960283041000366 2.231842041015625 0.04589109867811203 4456788 0 -1
-2.2779760360717773 1.8641124963760376 -0.550693154335022 4456788 0 -1
-2.107020616531372 2.119934320449829 -0.18356439471244812 4456788 0 -1
-1.876003384590149 2.322781801223755 0.22945548593997955 4456788 0 -1
-1.8519757986068726 2.3396224975585938 0.25240105390548706 4456788 0 -1
-2.1047842502593994 2.1176843643188477 -0.22945548593997955 4456788 0 -1
-1.9732593297958374 2.2523486614227295 0.022945549339056015 4456788 0 -1
-1.8580983877182007 2.3473572731018066 0.06883664429187775 4456788 0 -1
-1.9732593297958374 2.2523486614227295 -0.022945549339056015 4456788 0 -1
-1.8580983877182007 2.3473572731018066 0.06883664429187775 4456788 0 -1
-1.857224941253662 2.3462538719177246 -0.11472774296998978 4456788 0 -1
-1.9727957248687744 2.251819610595703 0.06883664429187775 4728182 0 -1
-1.9732593297958374 2.2523486614227295 0.022945549339056015 4729209 0 -1
-1.9503144025802612 2.2722458839416504 0.022945549339056015 3887499 0 -1
-1.8550941944122314 2.343562126159668 0.18356439471244812 2782862 0 -1
-1.8679499626159668 2.359802722930908 0.32472941279411316 4456788 0 -1
-1.8721059560775757 2.365053176879883 0.25514453649520874 4456788 0 -1
-1.9710503816604614 2.2964046001434326 0.06958486884832382 4456788 0 -1
-1.8785709142684937 2.373220443725586 0.04638991504907608 4456788 0 -1
-1.9715713262557983 2.297011613845825 0 4456788 0 -1
-1.96786367893219 2.292691946029663 0.18555966019630432 4456788 0 -1
-1.8785709142684937 2.373220443725586 0.04638991504907608 4456788 0 -1
-1.8782950639724731 2.3728718757629395 -0.06958486884832382 4456788 0 -1
-1.8785709142684937 2.373220443725586 -0.04638991504907608 4523353 0 -1
-1.9706450700759888 2.2959322929382324 0.09277983009815216 4728182 0 -1
-1.9938291311264038 2.2758278846740723 0.09277983009815216 4729209 0 -1
-1.161015272140503 2.799185037612915 0.4219985902309418 4456788 0 -1
-2.645399808883667 1.5285301208496094 -0.16411055624485016 4456788 0 -1
-1.9684014320373535 2.340529441833496 0.09377746284008026 4456788 0 -1
-1.4533799886703491 2.692018747329712 -0.04688873142004013 4456788 0 -1
-1.2538964748382568 2.758829116821289 0.4219985902309418 4456788 0 -1
0.06790433824062347 2.9532158374786377 0.7971084117889404 4456788 0 -1
-1.8710840940475464 2.4116384983062744 0.2109992951154709 4456788 0 -1
-2.2376716136932373 2.0607213973999023 -0.3282211124897003 4456788 0 -1
-1.896985650062561 2.396483898162842 0.1406661868095398 4456788 0 -1
-1.992537021636963 2.3214378356933594 0.04688873142004013 4456788 0 -1
-1.992771029472351 2.3217105865478516 0 4456788 0 -1
-1.9922444820404053 2.3210971355438232 -0.0703330934047699 4456788 0 -1
-2.109001636505127 2.214677095413208 -0.09377746284008026 4725613 0 -1
-1.9918348789215088 2.320619821548462 0.09377746284008026 4729209 0 -1
-2.107755184173584 2.2605535984039307 -0.09477509558200836 4456788 0 -1
-1.8909893035888672 2.4372942447662354 0.21324396133422852 4456788 0 -1
-2.2124545574188232 2.1308324337005615 -0.35540661215782166 4456788 0 -1
-2.0840725898742676 2.2824056148529053 -0.09477509558200836 4456788 0 -1
-1.9177865982055664 2.422762155532837 0.11846886575222015 4456788 0 -1
-2.013911724090576 2.3463406562805176 -0.02369377389550209 4456788 0 -1
-2.013911724090576 2.3463406562805176 -0.02369377389550209 4456788 0 -1
-2.0139708518981934 2.346409559249878 0 4456788 0 -1
-2.011841297149658 2.343928575515747 -0.14216263592243195 4456788 0 -1
-2.0130245685577393 2.3453073501586914 0.09477509558200836 4728182 0 -1
-2.0134384632110596 2.345789670944214 0.07108131796121597 4729209 0 -1
-2.0137343406677246 2.3461341857910156 -0.04738754779100418 3887499 0 -1
-1.6267391443252563 2.6116201877593994 -0.3080190420150757 3887499 0 -1
-2.1546332836151123 2.2625951766967773 -0.04788636416196823 4456788 0 -1
-1.985182762145996 2.4088351726531982 0.1436590850353241 4456788 0 -1
-2.0585694313049316 2.3497250080108643 -0.07182954251766205 4456788 0 -1
-2.6854496002197266 1.9287586212158203 0.7262765169143677 4471684 0 -1
-2.4505655765533447 2.1049044132232666 1.0115994215011597 4471684 0 -1
3.1773111820220947 0.9534706473350525 0.6743996143341064 4471684 0 -1
-3.084397792816162 1.0122500658035278 0.9597225189208984 3757452 0 -1
-2.5238137245178223 2.065286159515381 0.9078456163406372 3757452 0 -1
-2.916114568710327 1.744280457496643 0.366629958152771 4523353 0 -1
-2.9288177490234375 1.7518787384033203 0.1833149790763855 4657508 0 -1
-2.92061448097229 1.7469719648361206 0.3142542541027069 4212104 0 -1
-2.5423521995544434 2.080456495285034 0.9427627921104431 3757452 0 -1
-3.2243294715881348 0.7629498839378357 0.8380113840103149 3757452 0 -1
-2.874244451522827 1.7192356586456299 0.6808842420578003 3238030 0 -1
-2.84350323677063 1.7008477449417114 0.8380113840103149 2328718 0 -1
-2.837724447250366 1.6973910331726074 0.8641992211341858 2271109 0 -1
-2.9176025390625 1.8041092157363892 0.37012168765068054 4523353 0 -1
-2.9095330238342285 1.7991195917129517 0.44943347573280334 4590430 0 -1
-2.922104597091675 1.806893229484558 0.3172471523284912 4657508 0 -1
-2.8348238468170166 1.8665870428085327 -1.0330485105514526 4456788 0 -1
-2.721567392349243 2.1722631454467773 -0.6796371936798096 4456788 0 -1
-2.01718807220459 2.8725802898406982 -0.5165242552757263 4456788 0 -1
-3.431652069091797 0.9260287284851074 0.8100776672363281 4590430 0 -1
-2.3328917026519775 2.7739267349243164 0.39107197523117065 4590430 0 -1
-2.231480121612549 2.876152515411377 0.19553598761558533 4590430 0 -1
-2.7355494499206543 2.40578293800354 -0.5072961449623108 4456788 0 -1
-2.8733277320861816 2.2933928966522217 0.11273247748613358 4456788 0 -1
-2.7411105632781982 2.4106736183166504 -0.4509299099445343 4456788 0 -1
-2.849102735519409 2.2168798446655273 0.7045779824256897 4456788 0 -1
-2.738413095474243 2.40830135345459 0.47911304235458374 4456788 0 -1
-2.7502453327178955 2.4187073707580566 0.3381974399089813 4657508 0 -1
-2.8580899238586426 2.2812306880950928 0.3945636749267578 4724328 0 -1
-2.761215925216675 2.4283554553985596 0.08454935997724533 4725613 0 -1
-2.756751775741577 2.424429178237915 0.22546495497226715 4212104 0 -1
-2.7344565391540527 2.4612979888916016 0.48335298895835876 4456788 0 -1
-2.7703089714050293 2.436352252960205 0.39805540442466736 4456788 0 -1
-2.644181966781616 2.5466325283050537 0.5402180552482605 4456788 0 -1
-2.808119058609009 2.4120235443115234 0.2558927536010742 4456788 0 -1
-2.8107683658599854 2.414299249649048 0.19902770221233368 4456788 0 -1
-2.8118438720703125 2.4152231216430664 0.1705951690673828 4456788 0 -1
-2.927776575088501 2.2780957221984863 -0.0852975845336914 4456788 0 -1
-2.7703089714050293 2.436352252960205 0.39805540442466736 4456788 0 -1
-2.790837287902832 2.397179365158081 0.48335298895835876 4456788 0 -1
-2.81349778175354 2.4166436195373535 -0.11373011022806168 4657508 0 -1
-2.812753677368164 2.4160044193267822 0.14216263592243195 4725613 0 -1
-2.772529363632202 2.438304901123047 0.3696228563785553 4729209 0 -1
-2.8118438720703125 2.4152231216430664 0.1705951690673828 4212104 0 -1
-2.5848939418792725 2.600736618041992 0.5686505436897278 2458766 0 -1
-2.841917037963867 2.3831584453582764 0.11373011022806168 2328718 0 -1
-2.7653682231903076 2.432007074356079 0.4549204409122467 3257723 0 -1
-2.8253891468048096 2.4268577098846436 0.3728651702404022 4456788 0 -1
-2.798922300338745 2.4615161418914795 0.3441832363605499 4456788 0 -1
-2.8008275032043457 2.4631917476654053 0.31550130248069763 4456788 0 -1
-2.8365092277526855 2.4364092350006104 0.17209161818027496 4456788 0 -1
-2.8365092277526855 2.4364092350006104 0.17209161818027496 4456788 0 -1
-2.832751750946045 2.4331817626953125 0.25813743472099304 4456788 0 -1
-2.684680461883545 2.585636854171753 0.3441832363605499 4456788 0 -1
-2.81809139251709 2.4205892086029053 0.4589109718799591 4456788 0 -1
-2.8153181076049805 2.4182074069976807 0.4875929057598114 4456788 0 -1
-2.716477632522583 2.333308458328247 1.0899136066436768 4657508 0 -1
-2.8354241847991943 2.4354772567749023 0.20077355206012726 4725613 0 -1
-2.8253891468048096 2.4268577098846436 0.3728651702404022 4729209 0 -1
-2.834171772003174 2.434401512145996 0.22945548593997955 4212104 0 -1
-2.838761329650879 2.4383437633514404 0.08604580909013748 2328718 0 -1
-2.8206937313079834 2.4228246212005615 0.4302290380001068 3257723 0 -1
-2.857384204864502 2.4543397426605225 0.2603820860385895 4456788 0 -1
-2.828521728515625 2.4875476360321045 0.2603820860385895 4456788 0 -1
-2.8211703300476074 2.4810822010040283 0.37610748410224915 4456788 0 -1
-2.828521728515625 2.4875476360321045 0.2603820860385895 4456788 0 -1
-2.8499577045440674 2.44796085357666 0.37610748410224915 4456788 0 -1
-2.8268795013427734 2.42813777923584 0.6075582504272461 4456788 0 -1
-2.8425965309143066 2.4416377544403076 0.4629015028476715 4456788 0 -1
-2.839799165725708 2.439235210418701 0.4918328523635864 4456788 0 -1
-2.836829423904419 2.4366843700408936 0.520764172077179 4523353 0 -1
-2.836829423904419 2.4366843700408936 0.520764172077179 4590430 0 -1
-2.823213815689087 2.4249892234802246 0.6364895701408386 4657508 0 -1
-2.847675323486328 2.446000337600708 0.40503883361816406 4725613 0 -1
-2.845221519470215 2.44389271736145 0.4339701533317566 4729209 0 -1
-2.8138833045959473 2.4746737480163574 0.4629015028476715 4212104 0 -1
-3.0290911197662354 2.2963435649871826 0.23344601690769196 4456788 0 -1
-2.803481101989746 2.5234274864196777 0.5252535343170166 4456788 0 -1
-3.021941900253296 2.290923833847046 0.35016903281211853 4456788 0 -1
-2.994922161102295 2.3303415775299072 0.320988267660141 4456788 0 -1
-2.8642802238464355 2.4602630138397217 0.49607279896736145 4456788 0 -1
-2.992884874343872 2.328756332397461 0.35016903281211853 4523353 0 -1
-2.89321231842041 2.426173448562622 0.49607279896736145 4523353 0 -1
-2.9829440116882324 2.321021556854248 0.4668920338153839 4590430 0 -1
-2.9829440116882324 2.321021556854248 0.4668920338153839 4590430 0 -1
-2.782258987426758 2.5043253898620605 0.7003380656242371 4590430 0 -1
-2.994922161102295 2.3303415775299072 0.320988267660141 4725613 0 -1
-2.79709792137146 2.517681837081909 0.5836150646209717 4725613 0 -1
3.6112918853759766 1.2808098793029785 -0.2648714482784271 4456788 0 -1
-2.4598381519317627 2.924872636795044 0.3825920820236206 4456788 0 -1
-3.6218490600585938 0.9773532748222351 0.8240445256233215 4590430 0 -1
-1.738171100616455 3.3574745655059814 -0.6768937110900879 4590430 0 -1
-2.4857542514801025 2.955688238143921 0.29679569602012634 4456788 0 -1
-2.584333658218384 2.7716808319091797 0.8013483881950378 4657508 0 -1
-3.1650826930999756 2.084045648574829 0.8013483881950378 4725613 0 -1
-2.909867286682129 2.264160633087158 1.1871827840805054 4725613 0 -1
3.2001419067382812 1.9788185358047485 -0.9200666546821594 4725613 0 -1
-3.548807144165039 1.5979279279708862 0.6035677194595337 4456788 0 -1
-2.6822826862335205 2.75736141204834 0.8449947834014893 4456788 0 -1
-2.5417184829711914 3.342200994491577 0 4456788 0 -1
-2.5390307903289795 3.3386669158935547 0.19304190576076508 4456788 0 -1
-2.5568344593048096 3.295501470565796 0.4826047420501709 4523353 0 -1
-2.560218334197998 3.3665270805358887 0.1296922266483307 4456788 0 -1
4.700277805328369 2.322791814804077 0.81307053565979 4456788 0 -1
4.962681293487549 1.174283504486084 1.463526964187622 4456788 0 -1
-2.6828176975250244 4.576563835144043 0.081307053565979 4456788 0 -1
0.03996019437909126 5.214930534362793 0.975684642791748 4456788 0 -1
-3.9412500858306885 3.3050310611724854 1.300912857055664 4456788 0 -1
5.061837673187256 1.3659330606460571 0.81307053565979 4456788 0 -1
-4.526920795440674 2.7077877521514893 -0.569149374961853 4456788 0 -1
-4.407891273498535 2.814185619354248 0.894377589225769 4729209 0 -1
-3.7615807056427 3.3081276416778564 1.7481017112731934 4729209 0 -1
-2.987281322479248 4.087962627410889 1.5854876041412354 4729209 0 -1
4.935223579406738 1.7503660917282104 0.8537240624427795 4729209 0 -1
-4.717156410217285 2.3311331272125244 0.8998645544052124 4456788 0 -1
-4.4419989585876465 2.746724843978882 1.1043792963027954 4456788 0 -1
-3.2948715686798096 3.91776967048645 1.5134086608886719 4456788 0 -1
-4.342177391052246 2.9457292556762695 -0.9816704392433167 4456788 0 -1
-3.1858363151550293 4.273636817932129 -0.2863205373287201 4456788 0 -1
-4.527015209197998 2.7078440189361572 -0.8180587291717529 4456788 0 -1
-4.346953868865967 2.8622474670410156 1.1861851215362549 4725613 0 -1
-4.010237216949463 3.1203558444976807 1.6361174583435059 4725613 0 -1
-4.3289642333984375 2.936765432357788 1.063476324081421 4729209 0 -1
-4.711465835571289 2.428851366043091 -0.8641992211341858 4456788 0 -1
-5.026907444000244 1.3565071821212769 -1.3168749809265137 4456788 0 -1
-3.854555130004883 3.7123522758483887 -0.45267578959465027 4456788 0 -1
-2.0281708240509033 4.889880657196045 -0.9053515791893005 4456788 0 -1
-0.8637931942939758 5.298191547393799 -0.1646093726158142 4456788 0 -1
-3.9431955814361572 3.631376266479492 -0.3292187452316284 4456788 0 -1
-4.941870212554932 1.9971098899841309 -0.6584374904632568 4456788 0 -1
-5.095682144165039 1.2057546377182007 -1.1934179067611694 4456788 0 -1
-4.528990268707275 2.800516366958618 -0.6995898485183716 4456788 0 -1
-4.373459815979004 2.879700183868408 1.1934179067611694 4725613 0 -1
-4.045003890991211 3.1474077701568604 1.6049413681030273 4725613 0 -1
5.016691207885742 1.3537503480911255 1.3580273389816284 4725613 0 -1
-4.865350246429443 1.7255842685699463 1.4814844131469727 4729209 0 -1
-4.315032958984375 3.013261318206787 1.0699609518051147 4729209 0 -1
-0.7685595154762268 5.222826957702637 -0.9876562356948853 4729209 0 -1
4.905554294586182 2.0972752571105957 0.6172851324081421 4729209 0 -1
5.113276481628418 1.2099177837371826 1.1111133098602295 4729209 0 -1
4.957472801208496 1.8833218812942505 1.0350438356399536 4456788 0 -1
-4.452446937561035 3.020536184310913 -0.49682101607322693 4456788 0 -1
-4.098928451538086 3.189366340637207 1.4904630184173584 4456788 0 -1
5.134970188140869 1.3856678009033203 -0.9522402882575989 4456788 0 -1
-4.565138816833496 2.822868824005127 -0.6210262775421143 4456788 0 -1
-4.9525041580200195 1.3364295959472656 1.6974718570709229 4657508 0 -1
-4.448208808898926 2.9289188385009766 0.9108385443687439 4725613 0 -1
5.094216346740723 1.5287095308303833 0.9522402882575989 4725613 0 -1
-4.462900161743164 2.8493056297302246 1.0764455795288086 4729209 0 -1
4.853030204772949 2.292853355407715 0.6210262775421143 4729209 0 -1
-5.1575093269348145 1.0257474184036255 1.2420525550842285 4729209 0 -1
-5.126565456390381 1.2130622863769531 1.2006508111953735 4600703 0 -1
4.774889945983887 2.4615478515625 0.5796245336532593 4600703 0 -1
-4.3113555908203125 3.010693311691284 1.2420525550842285 4471684 0 -1
-4.059133052825928 3.2398629188537598 1.4904630184173584 4471684 0 -1
-4.482317924499512 3.0408005714416504 -0.45816275477409363 4456788 0 -1
5.077499866485596 1.3701595067977905 1.3744882345199585 4456788 0 -1
5.165903568267822 1.3940151929855347 -0.9579766988754272 4456788 0 -1
-4.616623401641846 2.8547046184539795 0.2915581166744232 4456788 0 -1
-5.245580673217773 1.4155158996582031 -0.1666046380996704 4657508 0 -1
-4.49658727645874 2.960773468017578 0.7497208714485168 4725613 0 -1
5.16203498840332 1.5490610599517822 0.7080697417259216 4725613 0 -1
-5.107032299041748 1.2084403038024902 1.4161394834518433 4729209 0 -1
-4.489785194396973 2.8664700984954834 1.0829302072525024 4729209 0 -1
-4.114045143127441 3.2011284828186035 1.541092872619629 4729209 0 -1
5.035719871520996 1.7860089540481567 0.9996278285980225 4729209 0 -1
-4.697642803192139 2.617908000946045 0.7913720607757568 4471684 0 -1
-4.4081525802612305 2.9904866218566895 1.0829302072525024 4471684 0 -1
-4.004302024841309 3.276798963546753 1.666046380996704 4471684 0 -1
-4.952830791473389 1.625440001487732 1.541092872619629 3757452 0 -1
4.9860944747924805 2.014981746673584 0.7913720607757568 3757452 0 -1
5.021514415740967 2.0292956829071045 -0.7542102336883545 4456788 0 -1
-4.647548198699951 2.8738272190093994 0.20950284600257874 4456788 0 -1
-3.7170839309692383 3.9033355712890625 0.9218124747276306 4657508 0 -1
-4.569791793823242 2.9175498485565186 0.7123096585273743 4725613 0 -1
-4.215259552001953 3.2798829078674316 1.1732158660888672 4725613 0 -1
4.976790904998779 2.2409088611602783 0.335204541683197 4725613 0 -1
-5.14844274520874 1.2182389497756958 1.3827186822891235 4729209 0 -1
-4.088674545288086 3.263441562652588 1.5922216176986694 4729209 0 -1
5.010080814361572 2.024675130844116 0.8380113840103149 4729209 0 -1
-4.717441082000732 2.531069040298462 -1.264499306678772 4456788 0 -1
-4.323055744171143 3.3637592792510986 -0.5057997107505798 4456788 0 -1
-4.675212383270264 2.8909332752227783 0.21074987947940826 4456788 0 -1
-4.326474666595459 3.2798855304718018 0.8851494789123535 4725613 0 -1
-3.309551239013672 4.265677452087402 1.053749442100525 4725613 0 -1
-0.2829437553882599 5.2675676345825195 -1.55954909324646 4725613 0 -1
-5.156951427459717 1.220252275466919 1.475249171257019 4729209 0 -1
-4.562662124633789 2.8213374614715576 -1.3567802906036377 4456788 0 -1
-0.7419021129608154 5.646966457366943 0.08729285001754761 3257723 4 -1
-0.7419674396514893 5.647463798522949 0.043646425008773804 3651704 4 -1
-0.7419674396514893 5.647463798522949 0.043646425008773804 4045940 4 -1
-0.7405998110771179 5.637054443359375 -0.7023333311080933 4726897 4 -1
-0.6982805132865906 5.652688026428223 -0.6145416498184204 4341894 4 -1
-0.656094491481781 5.670496940612793 -0.4828541576862335 3302798 4 -1
-0.8339963555335999 5.66750955581665 0.04389583319425583 2134668 4 -1
-0.8339963555335999 5.66750955581665 0.04389583319425583 2070155 4 -1
-0.8340208530426025 5.667675971984863 0 2070922 4 -1
-0.7462072372436523 5.67973518371582 0.04389583319425583 3651704 4 -1
-0.7462072372436523 5.67973518371582 0.04389583319425583 4045940 4 -1
-0.7013223171234131 5.677311897277832 0.3072708249092102 6933851 4 -1
-0.6995733976364136 5.663154602050781 -0.794614315032959 4523353 4 -1
-0.745495617389679 5.674318313598633 -0.662178635597229 4726897 4 -1
-0.7003057599067688 5.669083118438721 -0.7504690885543823 4536450 4 -1
-0.7016429305076599 5.67990779876709 -0.662178635597229 4471684 4 -1
-0.7028108835220337 5.689362525939941 -0.5738881230354309 4341894 4 -1
-0.7033316493034363 5.693578243255615 -0.5297428965568542 3887499 4 -1
-0.7042472958564758 5.700990200042725 -0.44145241379737854 3692940 4 -1
-0.6602318286895752 5.706254959106445 -0.44145241379737854 3302798 4 -1
-0.6593734622001648 5.698836326599121 -0.5297428965568542 3238030 4 -1
-0.7042472958564758 5.700990200042725 -0.44145241379737854 3107982 4 -1
-0.705307126045227 5.709569454193115 -0.3090166747570038 2782862 4 -1
-0.8383654952049255 5.697200775146484 0.17658096551895142 2199437 4 -1
-0.8387349843978882 5.699711322784424 0.044145241379737854 2134668 4 -1
-0.8387349843978882 5.699711322784424 0.044145241379737854 2070155 4 -1
-0.8387349843978882 5.699711322784424 0.044145241379737854 2070922 4 -1
-0.8828011155128479 5.692539215087891 0.08829048275947571 2006409 4 -1
-0.8387349843978882 5.699711322784424 -0.044145241379737854 3257723 4 -1
-0.7945210337638855 5.705530166625977 0.08829048275947571 3651704 4 -1
-0.7945210337638855 5.705530166625977 0.08829048275947571 4045940 4 -1
-0.7059920430183411 5.715114116668701 0.17658096551895142 6933851 4 -1
-0.7063031196594238 5.717632293701172 0.044145241379737854 8180304 4 -1
-0.6621008515357971 5.722408771514893 -0.08829048275947571 8705099 4 -1
-0.7063031196594238 5.717632293701172 -0.044145241379737854 9360965 4 -1
-0.7061372399330139 5.716289520263672 -0.13243572413921356 12640037 4 -1
-0.7063031196594238 5.717632293701172 -0.044145241379737854 13164576 4 -1
-0.7056070566177368 5.7119975090026855 -0.6659197211265564 4471684 4 -1
-0.7073053121566772 5.72574520111084 -0.5327357649803162 3887499 4 -1
-0.7082260847091675 5.733199119567871 -0.4439464807510376 3692940 4 -1
-0.6639619469642639 5.738493919372559 -0.4439464807510376 3302798 4 -1
-0.663550078868866 5.734934329986572 -0.48834115266799927 3238030 4 -1
-0.7082260847091675 5.733199119567871 -0.4439464807510376 3107982 4 -1
-0.6643343567848206 5.74171257019043 -0.3995518386363983 2264205 4 -1
-0.8434983491897583 5.732081413269043 0 2070922 4 -1
-0.6659197211265564 5.7554144859313965 0 2070922 4 -1
-0.6657437682151794 5.753893852233887 -0.13318394124507904 2468738 4 -1
-0.6654308438301086 5.751189231872559 -0.2219732403755188 2666112 4 -1
-0.8434735536575317 5.731913089752197 0.04439464956521988 3651704 4 -1
-0.6654308438301086 5.751189231872559 -0.2219732403755188 4505456 4 -1
-0.7103143930435181 5.7501044273376465 0 8180304 4 -1
-0.7102935314178467 5.749935626983643 0.04439464956521988 8705099 4 -1
-0.7103143930435181 5.7501044273376465 0 11918891 4 -1
-0.7102935314178467 5.749935626983643 -0.04439464956521988 12640037 4 -1
-0.7102309465408325 5.749429225921631 -0.08878929913043976 13164576 4 -1
-0.6203018426895142 5.7490410804748535 -0.7143049240112305 4664956 4 -1
-0.7126043438911438 5.768641948699951 -0.40179651975631714 4017546 4 -1
-0.7126043438911438 5.768641948699951 -0.40179651975631714 3562893 4 -1
-0.7117630839347839 5.761831760406494 -0.49108463525772095 3302798 4 -1
-0.6680666208267212 5.773969650268555 -0.40179651975631714 3238030 4 -1
-0.7126043438911438 5.768641948699951 -0.40179651975631714 3107982 4 -1
-0.7132766842842102 5.774084568023682 -0.31250840425491333 2523534 4 -1
-0.7135496139526367 5.776294231414795 -0.2678643465042114 2264205 4 -1
-0.7132766842842102 5.774084568023682 -0.31250840425491333 2199437 4 -1
-0.7132766842842102 5.774084568023682 -0.31250840425491333 2070922 4 -1
-0.669346272945404 5.785029411315918 -0.17857623100280762 2468738 4 -1
-0.6691691875457764 5.783499240875244 -0.22322028875350952 2666112 4 -1
-0.7137804627418518 5.778162956237793 -0.22322028875350952 4045940 4 -1
-0.7137804627418518 5.778162956237793 -0.22322028875350952 4505456 4 -1
-0.8476143479347229 5.76005220413208 0.22322028875350952 6343264 4 -1
-0.8476143479347229 5.76005220413208 0.22322028875350952 6343264 4 -1
-0.8482121825218201 5.764114856719971 -0.044644057750701904 6933851 4 -1
-0.7588598728179932 5.7760396003723145 0.08928811550140381 11197490 4 -1
-0.7587484121322632 5.775191783905029 0.1339321732521057 11918891 4 -1
-0.7142839431762695 5.782238483428955 -0.044644057750701904 12640037 4 -1
-0.7613719701766968 5.79516077041626 0.40404120087623596 4456788 4 -1
-0.6724326014518738 5.811704158782959 -0.3142542541027069 3562893 4 -1
-0.672135591506958 5.809136867523193 -0.35914772748947144 3238030 4 -1
-0.7175359129905701 5.808563709259033 -0.2693607807159424 3107982 4 -1
-0.7175359129905701 5.808563709259033 -0.2693607807159424 2782862 4 -1
-0.7175359129905701 5.808563709259033 -0.2693607807159424 2523534 4 -1
-0.7175359129905701 5.808563709259033 -0.2693607807159424 2458766 4 -1
-0.7172614336013794 5.806342124938965 -0.3142542541027069 2328718 4 -1
-0.7175359129905701 5.808563709259033 -0.2693607807159424 2264205 4 -1
-0.7172614336013794 5.806342124938965 -0.3142542541027069 2199437 4 -1
-0.7179579734802246 5.811980247497559 -0.17957386374473572 4045940 4 -1
-0.7177680730819702 5.81044340133667 -0.22446732223033905 4505456 4 -1
-0.7613719701766968 5.79516077041626 0.40404120087623596 7589974 4 -1
-0.8072279095649719 5.796779632568359 0.2693607807159424 9360965 4 -1
-0.8077027201652527 5.80018949508667 0.17957386374473572 10016830 4 -1
-0.8072279095649719 5.796779632568359 0.2693607807159424 10672695 4 -1
-0.8065627217292786 5.7920026779174805 0.35914772748947144 11197490 4 -1
-0.8079875111579895 5.802234172821045 0.08978693187236786 11918891 4 -1
-0.6764271259307861 5.846227645874023 -0.2708572447299957 2782862 4 -1
-0.767338752746582 5.840576648712158 -0.09028574824333191 2523534 4 -1
-1.0382860898971558 5.799246311187744 0 2328718 4 -1
-0.6742745041847229 5.82762336730957 -0.5417144894599915 2328718 4 -1
-0.6751523017883301 5.835209846496582 -0.45142874121665955 2264205 4 -1
-0.72056645154953 5.833096027374268 -0.4062858521938324 2199437 4 -1
-0.72056645154953 5.833096027374268 -0.4062858521938324 2134668 4 -1
-0.6761683821678162 5.843991279602051 -0.3160001039505005 2070155 4 -1
-0.7222011685371399 5.846329689025879 -0.09028574824333191 2070922 4 -1
-0.6768249869346619 5.849666595458984 -0.18057149648666382 2468738 4 -1
-0.7222011685371399 5.846329689025879 -0.09028574824333191 4045940 4 -1
-0.5851320028305054 5.84492301940918 0.45142874121665955 4505456 4 -1
-0.6751523017883301 5.835209846496582 0.45142874121665955 5949540 4 -1
-0.7215222120285034 5.84083366394043 0.2708572447299957 7589974 4 -1
-0.8106372356414795 5.821262359619141 0.4062858521938324 9360965 4 -1
-0.8114020228385925 5.826754093170166 0.3160001039505005 11197490 4 -1
-0.9924140572547913 5.802884101867676 0.22571437060832977 11918891 4 -1
-0.8556726574897766 5.814813137054443 0.4062858521938324 11918891 4 -1
-1.037798285484314 5.7965216636657715 0.18057149648666382 12640037 4 -1
-0.8124762773513794 5.834468841552734 0.09028574824333191 12640037 4 -1
-0.8542107939720154 5.8048787117004395 0.8170610666275024 4456788 4 -1
-0.907605767250061 5.852485656738281 -0.13617683947086334 2912910 4 -1
-0.9077390432357788 5.8533453941345215 -0.09078456461429596 2264205 4 -1
-0.635193407535553 5.887057304382324 -0.18156912922859192 2134668 4 -1
-0.6808042526245117 5.884058475494385 -0.09078456461429596 2070155 4 -1
-0.6808642148971558 5.884576797485352 -0.04539228230714798 2070922 4 -1
-0.9074191451072693 5.851282596588135 0.18156912922859192 3257723 4 -1
-0.9531259536743164 5.846126079559326 0.09078456461429596 3651704 4 -1
-0.6300773620605469 5.839641571044922 0.7716687917709351 3651704 4 -1
-0.5866944789886475 5.860530853271484 0.6354919672012329 4045940 4 -1
-0.6769551634788513 5.850791931152344 0.6354919672012329 5949540 4 -1
-0.6808642148971558 5.884576797485352 0.04539228230714798 6343264 4 -1
-0.7702175974845886 5.862489223480225 0.36313825845718384 9360965 4 -1
-0.8158848881721497 5.858946323394775 0.31774598360061646 11197490 4 -1
-0.8166772127151489 5.864635944366455 0.18156912922859192 11918891 4 -1
-0.8621879816055298 5.859088897705078 0.6389836668968201 4456788 4 -1
-0.8667846918106079 5.890326023101807 -0.18256676197052002 2912910 4 -1
-0.5932722687721252 5.926237106323242 -0.09128338098526001 2134668 4 -1
-0.7757037281990051 5.9042463302612305 0.13692507147789001 2070155 4 -1
-0.5932722687721252 5.926237106323242 -0.09128338098526001 2070155 4 -1
-0.6846253275871277 5.917083740234375 0 2070922 4 -1
-0.6389648914337158 5.9220123291015625 -0.045641690492630005 2994813 4 -1
-0.6352964043617249 5.888012409210205 0.6389836668968201 3651704 4 -1
-0.6389648914337158 5.9220123291015625 0.045641690492630005 4045940 4 -1
-0.6377819776535034 5.911048889160156 0.36513352394104004 4505456 4 -1
-0.9584754705429077 5.8789381980896 0 5949540 4 -1
-0.5931851863861084 5.9253668785095215 0.13692507147789001 5949540 4 -1
-0.6841226816177368 5.912739276885986 0.22820845246315002 6933851 4 -1
-0.9145559072494507 5.897302627563477 0.5048021078109741 4456788 4 -1
-0.6376287341117859 5.909628391265869 0.7342575788497925 4456788 4 -1
-0.860568642616272 5.848084449768066 0.9637130498886108 4456788 4 -1
-0.802397608757019 5.762092590332031 1.4226239919662476 4456788 0 -1
-4.517002105712891 3.8798625469207764 0.6424753665924072 4456788 0 -1
-0.6048597693443298 5.605921745300293 2.0192084312438965 4456788 0 -1
-0.6421735286712646 5.9517502784729 -0.18356439471244812 2328718 4 -1
-0.638217568397522 5.915086269378662 0.6883664727210999 3651704 4 -1
-0.6420036554336548 5.950176239013672 0.22945548593997955 4045940 4 -1
-0.594830334186554 5.941800594329834 0.4589109718799591 4505456 4 -1
-1.0088629722595215 5.899064540863037 0.22945548593997955 12640037 4 -1
-0.9596304893493652 5.886022567749023 0.550693154335022 13164576 4 -1
-0.9218343496322632 5.944235801696777 0.27684304118156433 4456788 4 -1
-0.5953016877174377 5.946508407592773 0.7382481098175049 4456788 4 -1
-0.9200971126556396 5.933033466339111 0.46140506863594055 4456788 4 -1
-0.6416861414909363 5.947233200073242 0.692107617855072 4456788 4 -1
-0.9129781126976013 5.8871283531188965 0.8766696453094482 4456788 4 -1
-0.587802529335022 5.871599197387695 1.199653148651123 4456788 0 -1
-4.5084757804870605 3.9649856090545654 -0.46140506863594055 4456788 0 -1
-4.520574569702148 3.975625991821289 -0.13842152059078217 4456788 0 -1
-1.6561747789382935 5.77100944519043 0.46140506863594055 4600703 0 -1
-1.3152542114257812 5.7709784507751465 1.1073721647262573 4600703 0 -1
-0.8928214311599731 5.757152557373047 1.5226366519927979 4600703 0 -1
-0.8849466443061829 5.706373691558838 1.7071987390518188 2666112 0 -1
-0.5927412509918213 5.920932292938232 0.9228101372718811 2666112 4 -1
-0.8289672136306763 5.952891826629639 0.36912405490875244 2994813 4 -1
-0.5995447635650635 5.988893032073975 0.18456202745437622 2994813 4 -1
-0.9221326112747192 5.9461588859558105 -0.23070253431797028 3257723 4 -1
-0.5986985564231873 5.980440139770508 0.36912405490875244 3257723 4 -1
-0.5647079944610596 5.64090633392334 2.030182361602783 3651704 0 -1
-0.8750209808349609 5.946296691894531 0.36912405490875244 4045940 4 -1
-0.6456636190414429 5.984097003936768 -0.18456202745437622 4045940 4 -1
-1.1125404834747314 5.946585178375244 -0.2319495677947998 4456788 4 -1
-0.8346261382102966 5.993528842926025 0.18555966019630432 4456788 4 -1
-0.9238678812980652 5.957348346710205 0.5566789507865906 4456788 4 -1
-1.066936731338501 5.959271430969238 -0.04638991504907608 4456788 4 -1
-0.788049578666687 5.998216152191162 0.2319495677947998 4456788 4 -1
-0.9734729528427124 5.9709272384643555 -0.2319495677947998 4456788 4 -1
-0.5059412717819214 5.981263160705566 0.7886285185813904 4456788 4 -1
-0.6929008960723877 5.988607406616211 0.5566789507865906 4456788 4 -1
-0.6957669854164124 6.013378620147705 0.09277983009815216 4456788 4 -1
-0.6957669854164124 6.013378620147705 0.09277983009815216 4456788 4 -1
-4.352451324462891 4.191880226135254 -0.37111932039260864 4456788 0 -1
-4.545010089874268 3.9971158504486084 -0.13916973769664764 4456788 0 -1
-0.6479126214981079 6.004940986633301 0.4175092279911041 4657508 4 -1
-0.878817081451416 5.97209358215332 0.4638991355895996 2994813 4 -1
-0.9255895018577576 5.968449592590332 0.4175092279911041 3651704 4 -1
-0.6958282589912415 6.013908386230469 0.04638991504907608 3651704 4 -1
-0.6958282589912415 6.013908386230469 0.04638991504907608 3651704 4 -1
-0.9260534644126892 5.971441745758057 -0.37111932039260864 4045940 4 -1
-0.8392859697341919 6.026991367340088 0.13991796970367432 4456788 4 -1
-1.4362373352050781 5.873363494873047 -0.6995898485183716 4456788 0 -1
-1.1647502183914185 5.96771764755249 -0.27983593940734863 4456788 4 -1
-4.4243574142456055 4.167382717132568 -0.32647526264190674 4456788 0 -1
-4.612410545349121 3.96181321144104 -0.27983593940734863 4456788 0 -1
-4.426050662994385 4.1689772605896 -0.27983593940734863 4456788 0 -1
-0.6739620566368103 5.824923038482666 -1.6323763132095337 4657508 0 -1
-0.9783901572227478 6.001087188720703 -0.27983593940734863 2718350 4 -1
-0.9793969988822937 6.00726318359375 0.046639323234558105 2072968 4 -1
-0.6992611885070801 6.043578147888184 0.18655729293823242 3651704 4 -1
-0.7852909564971924 5.977219104766846 0.8395078182220459 7589974 4 -1
-0.7008281946182251 6.057121276855469 0.5157760381698608 6343264 4 -1
-0.6562687754631042 6.0823869705200195 0.1406661868095398 6933851 4 -1
-0.6069392561912537 6.0627570152282715 0.8484864830970764 4456788 4 -1
-0.7040767073631287 6.085197925567627 0.5656576752662659 4456788 4 -1
-0.8816062808036804 5.9910478591918945 1.0841771364212036 2977934 4 -1
-0.9869906306266785 6.053839683532715 -0.47138139605522156 2588302 4 -1
-0.8955983519554138 6.086132526397705 0.047138139605522156 2458766 4 -1
-0.657585620880127 6.0945916175842285 0.5185195207595825 6343264 4 -1
-0.6586928963661194 6.104854106903076 0.37710511684417725 6933851 4 -1
-0.8879936337471008 6.034453868865967 -0.8013483881950378 8705099 4 -1
-0.8997023701667786 6.1140217781066895 -0.2369377315044403 2523534 4 -1
-1.1372677087783813 6.078753471374512 -0.04738754779100418 2458766 4 -1
-0.852349579334259 6.120802879333496 0.2369377315044403 2458766 4 -1
-0.5672968029975891 6.143545150756836 0.42648792266845703 2072968 4 -1
-0.7216428518295288 5.84181022644043 2.0007522106170654 3432845 0 -1
-1.0956177711486816 6.119466781616211 0.047636955976486206 2523534 4 -1
-0.9046769142150879 6.147826671600342 -0.19054782390594482 2523534 4 -1
-3.8396105766296387 4.754030704498291 -1.143286943435669 8705099 0 -1
-1.1983110904693604 5.894347190856934 1.5720194578170776 8705099 0 -1
-0.5126696825027466 6.060807704925537 1.2861977815628052 8705099 0 -1
-3.775113344192505 4.769144535064697 -1.2861977815628052 9360965 0 -1
-0.9427369236946106 6.079020977020264 -1.101386308670044 4147337 0 -1
-0.6819283366203308 5.893773555755615 1.9633408784866333 3432845 0 -1
-1.0474207401275635 6.124521255493164 -0.670409083366394 2134668 4 -1
-3.8704874515533447 4.792261123657227 -1.0534999370574951 8705099 0 -1
-1.2139177322387695 5.971114158630371 1.388704538345337 8705099 0 -1
-0.856571614742279 5.820922374725342 2.1069998741149902 11918891 0 -1
-3.8082032203674316 4.810947418212891 -1.3478015661239624 9360965 0 -1
6.517271518707275 1.758680820465088 -0.5187689065933228 4456788 0 -1
-6.198855400085449 2.6502010822296143 0.6225227117538452 4657508 0 -1
-5.120713233947754 4.398417949676514 0.5187689065933228 4657508 0 -1
-4.773148536682129 4.699195384979248 0.985660970211029 4657508 0 -1
6.5364885330200195 1.7638665437698364 0 4657508 0 -1
-5.365067481994629 4.174545764923096 -0.2606315016746521 4456788 0 -1
-3.9038448333740234 5.559277057647705 0.3648841083049774 4456788 0 -1
-5.418588638305664 4.107813358306885 -0.20850521326065063 4456788 0 -1
-6.340712547302246 2.408808469772339 0.5212630033493042 4657508 0 -1
-5.145332336425781 4.419564247131348 0.5212630033493042 4657508 0 -1
-4.790482997894287 4.716261386871338 1.0425260066986084 4657508 0 -1
-5.569660186767578 3.7784523963928223 0.9903997182846069 4724328 0 -1
-5.317696571350098 4.137686729431152 0.9382734298706055 4724328 0 -1
-5.1734161376953125 3.9219491481781006 2.032925844192505 4664956 0 -1
2.8655996322631836 6.166325569152832 0.20850521326065063 7589974 5 -1
2.8655996322631836 6.166325569152832 0.20850521326065063 8180304 5 -1
-5.692168235778809 3.748002529144287 -0.5237571001052856 4456788 0 -1
-5.393272399902344 4.1964921951293945 -0.15712712705135345 4456788 0 -1
-5.444514751434326 4.127468109130859 -0.20950284600257874 4456788 0 -1
-6.426875114440918 2.279407501220703 0.47138139605522156 4657508 0 -1
-5.227721214294434 4.3838324546813965 0.41900569200515747 4657508 0 -1
-4.813404083251953 4.738827228546143 1.0475142002105713 4657508 0 -1
-4.501733303070068 4.930146217346191 1.466519832611084 4657508 0 -1
-5.671118259429932 3.734142303466797 0.7856356501579285 4724328 0 -1
-5.419982433319092 4.108870029449463 0.6808842420578003 4724328 0 -1
-6.040523052215576 3.114006280899048 0.733259916305542 4664956 0 -1
-5.198169231414795 3.9407145977020264 2.0426526069641113 4664956 0 -1
2.8793106079101562 6.195829391479492 0.20950284600257874 4505456 5 -1
2.8793106079101562 6.195829391479492 0.20950284600257874 7589974 5 -1
2.9326953887939453 6.173406600952148 0.10475142300128937 8180304 5 -1
2.98506498336792 6.148254871368408 0.10475142300128937 8705099 5 -1
2.893021583557129 6.2253336906433105 0.21050047874450684 4045940 5 -1
2.9466605186462402 6.202804088592529 0.10525023937225342 7589974 5 -1
2.999279499053955 6.177532196044922 0.10525023937225342 8180304 5 -1
2.9988391399383545 6.1766252517700195 0.15787535905838013 8705099 5 -1
2.999279499053955 6.177532196044922 0.10525023937225342 9360965 5 -1
2.781209707260132 6.258273601531982 -0.8459924459457397 4726897 5 -1
2.783778190612793 6.264052867889404 -0.793117880821228 4728182 5 -1
2.7861788272857666 6.2694549560546875 -0.7402433753013611 4729209 5 -1
2.830897092819214 6.228553295135498 -0.8988669514656067 4341894 5 -1
2.788412094116211 6.274479866027832 -0.6873688101768494 4147337 5 -1
2.7861788272857666 6.2694549560546875 -0.7402433753013611 3692940 5 -1
2.7861788272857666 6.2694549560546875 -0.7402433753013611 3238030 5 -1
2.788412094116211 6.274479866027832 -0.6873688101768494 3107982 5 -1
2.7861788272857666 6.2694549560546875 -0.7402433753013611 2912910 5 -1
2.9073305130004883 6.256124019622803 0.1586235761642456 3257723 5 -1
2.907757520675659 6.257042407989502 0.10574905574321747 4045940 5 -1
3.0130515098571777 6.205898284912109 0.1586235761642456 8180304 5 -1
3.0134940147399902 6.206809997558594 0.10574905574321747 8705099 5 -1
3.0134940147399902 6.206809997558594 0.10574905574321747 9360965 5 -1
2.799321174621582 6.299027919769287 -0.7437350749969482 4725613 5 -1
2.799321174621582 6.299027919769287 -0.7437350749969482 4726897 5 -1
2.799321174621582 6.299027919769287 -0.7437350749969482 4728182 5 -1
2.801564931869507 6.304076671600342 -0.6906111240386963 4729209 5 -1
2.841275930404663 6.251389026641846 -0.9562308192253113 4341894 5 -1
2.801564931869507 6.304076671600342 -0.6906111240386963 3692940 5 -1
2.801564931869507 6.304076671600342 -0.6906111240386963 3238030 5 -1
2.803640842437744 6.3087477684021 -0.6374872326850891 3107982 5 -1
2.801564931869507 6.304076671600342 -0.6906111240386963 2912910 5 -1
2.803640842437744 6.3087477684021 -0.6374872326850891 2718350 5 -1
2.803640842437744 6.3087477684021 -0.6374872326850891 2588302 5 -1
2.803640842437744 6.3087477684021 -0.6374872326850891 2523534 5 -1
2.805549383163452 6.313042163848877 -0.5843632817268372 2328718 5 -1
2.745175838470459 6.177189826965332 1.5405941009521484 2134668 0 -1
2.868692398071289 6.311710834503174 0 2994813 5 -1
2.762120246887207 6.35818338394165 0.10624786466360092 3651704 5 -1
2.815568447113037 6.335587501525879 0 4045940 5 -1
2.815485954284668 6.3354010581970215 0.05312393233180046 4505456 5 -1
2.7090024948120117 6.380995750427246 0.10624786466360092 4899181 5 -1
3.0810978412628174 6.210564136505127 -0.05312393233180046 8705099 5 -1
3.0810978412628174 6.210564136505127 0.05312393233180046 9360965 5 -1
2.8124635219573975 6.328600883483887 -0.7472267746925354 4725613 5 -1
2.814718008041382 6.333673000335693 -0.6938534379005432 4726897 5 -1
2.814718008041382 6.333673000335693 -0.6938534379005432 4728182 5 -1
2.814718008041382 6.333673000335693 -0.6938534379005432 4729209 5 -1
2.804685115814209 6.311097145080566 -0.9073468446731567 4341894 5 -1
2.8017520904541016 6.304497241973877 -0.9607201814651489 4212104 5 -1
2.807447671890259 6.3173136711120605 -0.8539734482765198 4017546 5 -1
2.8124635219573975 6.328600883483887 -0.7472267746925354 3887499 5 -1
2.8124635219573975 6.328600883483887 -0.7472267746925354 3692940 5 -1
2.814718008041382 6.333673000335693 -0.6938534379005432 3238030 5 -1
2.814718008041382 6.333673000335693 -0.6938534379005432 2912910 5 -1
2.814718008041382 6.333673000335693 -0.6938534379005432 2718350 5 -1
2.816803455352783 6.338366508483887 -0.640480101108551 2588302 5 -1
2.814718008041382 6.333673000335693 -0.6938534379005432 2523534 5 -1
2.816803455352783 6.338366508483887 -0.640480101108551 2328718 5 -1
2.7746803760528564 6.387095928192139 -0.16012002527713776 2139270 5 -1
2.7741098403930664 6.385782718658447 -0.21349336206912994 3651704 5 -1
2.828787088394165 6.365331649780273 0 4045940 5 -1
2.828787088394165 6.365331649780273 0 4505456 5 -1
2.77533221244812 6.388596534729004 0.053373340517282486 4899181 5 -1
2.827458143234253 6.362341403961182 -0.21349336206912994 5424489 5 -1
2.775413751602173 6.388784408569336 0 6933851 5 -1
2.9889070987701416 6.291734218597412 0 6933851 5 -1
3.04219126701355 6.265916347503662 0.053373340517282486 8705099 5 -1
3.0955629348754883 6.239721775054932 0.053373340517282486 9360965 5 -1
2.8808064460754395 6.338364124298096 -0.21349336206912994 10016830 5 -1
3.0941994190216064 6.236973285675049 0.21349336206912994 10016830 5 -1
2.8205666542053223 6.3468337059021 -0.8579639792442322 4212104 5 -1
2.825605869293213 6.358173370361328 -0.7507185339927673 3887499 5 -1
2.8278708457946777 6.363269805908203 -0.6970957517623901 2912910 5 -1
2.8205666542053223 6.3468337059021 -0.8579639792442322 2718350 5 -1
2.7876462936401367 6.416942119598389 -0.16086825728416443 2072968 5 -1
3.054252862930298 6.290759563446045 -0.26811376214027405 2072968 5 -1
2.7870728969573975 6.415622711181641 -0.21449099481105804 2139270 5 -1
2.7817447185516357 6.40335750579834 -0.4826047420501709 2271109 5 -1
2.841671943664551 6.394325256347656 0.10724549740552902 4045940 5 -1
2.842005729675293 6.395076274871826 0 4505456 5 -1
2.7883830070495605 6.418638229370117 0 4899181 5 -1
2.7870728969573975 6.415622711181641 -0.21449099481105804 6933851 5 -1
2.7863359451293945 6.413926124572754 -0.26811376214027405 7589974 5 -1
2.7876462936401367 6.416942119598389 -0.16086825728416443 8705099 5 -1
2.783139228820801 6.406567573547363 -0.4289819896221161 10016830 5 -1
3.011167526245117 6.338593006134033 0.4309772551059723 2199437 5 -1
2.800611972808838 6.446788311004639 -0.1616164743900299 2072968 5 -1
3.0160436630249023 6.348857402801514 -0.1616164743900299 2072968 5 -1
2.7454628944396973 6.4668779373168945 -0.2693607807159424 2139270 5 -1
2.787419557571411 6.4164204597473145 -0.7003380656242371 2271109 5 -1
2.962620735168457 6.375100135803223 0.10774431377649307 2994813 5 -1
2.724754571914673 6.131237983703613 -2.1010141372680664 3257723 0 -1
2.7454628944396973 6.4668779373168945 -0.2693607807159424 3651704 5 -1
2.962620735168457 6.375100135803223 -0.10774431377649307 3651704 5 -1
2.909011125564575 6.400420665740967 -0.053872156888246536 4045940 5 -1
2.854889154434204 6.424066543579102 0.10774431377649307 4505456 5 -1
2.801270008087158 6.44830322265625 -0.053872156888246536 4899181 5 -1
2.79608416557312 6.436365604400635 -0.4309772551059723 7589974 5 -1
2.799295663833618 6.443758010864258 -0.2693607807159424 8180304 5 -1
2.799295663833618 6.443758010864258 -0.2693607807159424 10016830 5 -1
2.7158424854278564 6.111184120178223 2.2731058597564697 2264205 0 -1
3.030451774597168 6.379187107086182 0.10824313014745712 2139270 5 -1
2.9225645065307617 6.430240631103516 0 2994813 5 -1
2.698848009109497 6.212535858154297 -2.002497911453247 4505456 0 -1
2.804306745529175 6.455293655395508 -0.5953372120857239 4899181 5 -1
2.7572813034057617 6.494715690612793 -0.32472941279411316 10016830 5 -1
2.802399158477783 6.450902462005615 -0.6494588255882263 11918891 5 -1
2.23417592048645 6.572947025299072 1.468016266822815 3238030 0 -1
2.779836416244507 6.116209506988525 2.283581018447876 2264205 0 -1
2.935946464538574 6.459683418273926 -0.05437097325921059 2994813 5 -1
2.768928050994873 6.522149562835693 -0.3805968165397644 6933851 5 -1
2.7725939750671387 6.530784606933594 -0.10874194651842117 10016830 5 -1
2.9491543769836426 6.488743782043457 0.10924076288938522 4456788 5 -1
2.8217008113861084 6.208319664001465 2.0755746364593506 2264205 0 -1
2.7309389114379883 6.584240913391113 0.05462038144469261 4505456 5 -1
2.7835943698883057 6.556695461273193 0.27310192584991455 4899181 5 -1
2.782694101333618 6.554574966430664 0.32772231101989746 10016830 5 -1
3.112022876739502 6.4097466468811035 0.71330726146698 4456788 5 -1
-5.090742111206055 5.011868476867676 -0.4938281178474426 4456788 0 -1
-4.373963356018066 5.637596607208252 0.6035677194595337 4456788 0 -1
0.3691864609718323 6.873149871826172 1.9753124713897705 4456788 0 -1
1.3614252805709839 6.696685791015625 2.1399219036102295 4456788 0 -1
-5.7586212158203125 4.2507004737854 0.21947915852069855 4456788 0 -1
-4.7724103927612305 5.3362298011779785 -0.1646093726158142 4456788 0 -1
-5.815515041351318 4.176851749420166 0.10973957926034927 4456788 0 -1
-4.004436492919922 5.9342851638793945 0.1646093726158142 4725613 0 -1
-0.9662884473800659 6.9390082359313965 -1.4814844131469727 4725613 0 -1
0.27077388763427734 7.062386989593506 -1.1522656679153442 4725613 0 -1
2.6334407329559326 6.658174991607666 0.10973957926034927 2072968 5 -1
2.6883039474487305 6.636213302612305 0.10973957926034927 4045940 5 -1
2.7434089183807373 6.6143059730529785 0.05486978963017464 4505456 5 -1
2.6883039474487305 6.636213302612305 0.10973957926034927 4899181 5 -1
3.066929817199707 6.455974102020264 0.4389583170413971 9360965 5 -1
3.0704524517059326 6.4633893966674805 0.2743489444255829 10016830 5 -1
2.952937364578247 6.082082748413086 -2.359400987625122 10672695 0 -1
-6.0016398429870605 3.9517738819122314 -0.33071520924568176 4456788 0 -1
-5.096505641937256 5.017542362213135 -0.7716687917709351 4456788 0 -1
-4.462557792663574 5.637600898742676 0.22047679126262665 4456788 0 -1
-5.783267021179199 4.268892288208008 0.2755959928035736 4456788 0 -1
-4.226198673248291 5.7833662033081055 0.6614304184913635 4456788 0 -1
-6.216756343841553 3.5920846462249756 -0.4409535825252533 4729209 0 -1
-4.955482482910156 5.203786373138428 -0.33071520924568176 4729209 0 -1
-3.3618762493133545 6.358553886413574 0.11023839563131332 4729209 0 -1
2.7558791637420654 6.644371032714844 -0.05511919781565666 2199437 5 -1
2.755636215209961 6.64378547668457 0.11023839563131332 2468738 5 -1
2.6995718479156494 6.664028167724609 -0.22047679126262665 2666112 5 -1
2.7552316188812256 6.642810344696045 0.16535760462284088 4045940 5 -1
2.755959987640381 6.644566059112549 0 4505456 5 -1
2.700523614883423 6.666377544403076 0.11023839563131332 4899181 5 -1
2.700761556625366 6.666965007781982 0.05511919781565666 5424489 5 -1
2.755636215209961 6.64378547668457 0.11023839563131332 5949540 5 -1
2.7552316188812256 6.642810344696045 0.16535760462284088 6343264 5 -1
2.6969528198242188 6.657563209533691 0.38583439588546753 8180304 5 -1
2.753936529159546 6.639687538146973 0.2755959928035736 8705099 5 -1
3.079326629638672 6.482069969177246 0.49607279896736145 10016830 5 -1
-6.230147838592529 3.5998220443725586 -0.6644232869148254 4456788 0 -1
-4.871150016784668 5.334718704223633 -0.16610582172870636 4456788 0 -1
-4.474180221557617 5.652283668518066 0.4983174800872803 4456788 0 -1
-4.416466236114502 5.692378997802734 -0.5536860823631287 4456788 0 -1
-6.63557243347168 2.6815693378448486 -0.9966349601745605 4729209 0 -1
-5.137021541595459 5.057430744171143 -0.4983174800872803 4729209 0 -1
-4.872437477111816 5.3361287117004395 0 4729209 0 -1
-4.387155532836914 5.654600143432617 0.9966349601745605 4729209 0 -1
-3.019326686859131 6.497122287750244 0.9412662982940674 4729209 0 -1
2.7127432823181152 6.696542263031006 0.11073721200227737 4899181 5 -1
2.7127432823181152 6.696542263031006 0.11073721200227737 5424489 5 -1
2.768430471420288 6.6746320724487305 0 5949540 5 -1
2.7091562747955322 6.687687873840332 0.3875802457332611 8180304 5 -1
2.76712965965271 6.6714959144592285 0.22147442400455475 8705099 5 -1
-4.396883010864258 5.66713809967041 -1.1123603582382202 4456788 0 -1
