VERSION .7
FIELDS x y z rgb label object
SIZE 4 4 4 4 4 4
TYPE F F F I I I
COUNT 1 1 1 1 1 1
WIDTH 683
HEIGHT 1
POINTS 683
VIEWPOINT 0 0 0 1 0 0 0
DATA ascii
0.49990537762641907 1.7419408559799194 -0.19553598761558533 4724328 0 -1
-0.16541823744773865 1.7913981676101685 -0.2933039665222168 4725613 0 -1
1.4104868173599243 1.154228925704956 0.02793371118605137 4725613 0 -1
-2.3081634044647217 0.876861035823822 0.1516401469707489 4456788 0 -1
-1.933411955833435 1.5431840419769287 0 4456788 0 -1
-1.745969295501709 1.718917965888977 0.3411903381347656 4456788 0 -1
-0.7244269251823425 2.3134005069732666 0.4928304851055145 4456788 0 -1
-2.3624114990234375 0.7089295983314514 0.18955019116401672 4456788 0 -1
-1.5555391311645508 1.81230628490448 0.6444706320762634 4456788 0 -1
1.2953965663909912 2.079671859741211 -0.3411903381347656 4456788 0 -1
-2.194108486175537 1.0842885971069336 0.36014536023139954 4456788 0 -1
-1.8229711055755615 1.640865445137024 -0.3222353160381317 4456788 0 -1
-1.5954960584640503 1.7839902639389038 0.6255156397819519 4456788 0 -1
-1.8264518976211548 1.6439985036849976 0.2843252718448639 4456788 0 -1
-1.8567191362380981 1.6328942775726318 -0.07582007348537445 4456788 0 -1
-1.8571009635925293 1.633230209350586 -0.05686505511403084 4456788 0 -1
-1.8571009635925293 1.633230209350586 -0.05686505511403084 4523353 0 -1
-1.8435786962509155 1.6213380098342896 0.3032802939414978 4590430 0 -1
-1.8259111642837524 1.6058001518249512 0.4549204409122467 4724328 0 -1
-1.852130651473999 1.6288589239120483 0.18955019116401672 4471684 0 -1
-2.0082881450653076 1.4424039125442505 -0.07582007348537445 3302798 0 -1
-1.8022907972335815 1.6597696542739868 0.3411903381347656 3302798 0 -1
-1.240412712097168 2.073448657989502 0.53074049949646 3302798 0 -1
2.3180136680603027 0.8221253752708435 -0.26537024974823 3302798 0 -1
-2.3290021419525146 0.8260226249694824 -0.11373011022806168 2588302 0 -1
-1.9587939977645874 1.5634431838989258 0.019204426556825638 4456788 0 -1
-1.812329888343811 1.7070664167404175 0.28806641697883606 4456788 0 -1
-1.7269595861434937 1.7752982378005981 0.38408854603767395 4456788 0 -1
-1.416070580482483 2.0571134090423584 0.21124869585037231 4456788 0 -1
-1.3109872341156006 2.1047017574310303 0.3648841083049774 4456788 0 -1
-2.2991156578063965 0.754533052444458 -0.6529505252838135 4456788 0 -1
-2.123150587081909 1.2267708778381348 0.5185195207595825 4456788 0 -1
-1.5505831241607666 1.8437222242355347 0.6913593411445618 4456788 0 -1
-1.8711735010147095 1.645606279373169 -0.2688619792461395 4456788 0 -1
-1.8695613145828247 1.644188404083252 0.28806641697883606 4456788 0 -1
-1.8806520700454712 1.6539422273635864 -0.09602213650941849 4456788 0 -1
-1.8811496496200562 1.6543797254562378 -0.07681770622730255 4456788 0 -1
-1.8815364837646484 1.6547200679779053 -0.05761327967047691 4523353 0 -1
-1.8695613145828247 1.644188404083252 0.28806641697883606 4590430 0 -1
-1.8499362468719482 1.6269291639328003 0.4609062373638153 4724328 0 -1
-1.897662878036499 1.629990577697754 0.1536354124546051 4471684 0 -1
-2.34183931350708 0.8896543383598328 0.07681770622730255 4147337 0 -1
-1.977997899055481 1.5390753746032715 0.019204426556825638 4147337 0 -1
-1.77712881565094 1.7495946884155273 0.2496575564146042 4147337 0 -1
-1.4184550046920776 2.060577392578125 0.1536354124546051 4147337 0 -1
2.2176382541656494 1.095916509628296 -0.4032929539680481 4147337 0 -1
-1.8886384963989258 1.622239112854004 0.28806641697883606 3302798 0 -1
-1.8106577396392822 1.705491304397583 0.3072708249092102 3302798 0 -1
-2.361034631729126 0.8373836278915405 -0.07681770622730255 2588302 0 -1
-2.0143325328826904 1.4868706464767456 -0.11522655934095383 2588302 0 -1
-1.7360212802886963 1.7846134901046753 0.28806641697883606 2588302 0 -1
2.3179774284362793 0.8805893063545227 -0.3648841083049774 2588302 0 -1
-1.9190763235092163 1.648383617401123 -0.213992178440094 4456788 0 -1
-1.9064757823944092 1.6766529083251953 0 4456788 0 -1
-1.9055801630020142 1.6758651733398438 -0.07781533896923065 4456788 0 -1
-1.9059721231460571 1.6762099266052246 -0.05836150422692299 4456788 0 -1
-1.9059721231460571 1.6762099266052246 -0.05836150422692299 4523353 0 -1
-1.9064198732376099 1.6766036748886108 0.019453834742307663 4590430 0 -1
-1.8969937562942505 1.668313980102539 -0.2528998553752899 4724328 0 -1
-1.9304076433181763 1.697699785232544 -0.059109728783369064 4523353 0 -1
-2.1572470664978027 1.7653175592422485 -0.49906569719314575 4456788 0 -1
-1.0187515020370483 2.639000415802002 -0.13019104301929474 4456788 0 -1
0.36359572410583496 2.767498254776001 0.47736719250679016 4456788 0 -1
0.6638883352279663 2.714911937713623 0.45566868782043457 4456788 0 -1
0.7879767417907715 2.6653244495391846 -0.5424627065658569 4456788 0 -1
1.3338451385498047 2.4706106185913086 -0.3688746392726898 4456788 0 -1
-1.6912410259246826 2.2687134742736816 -0.10849253833293915 4456788 0 -1
-2.034803867340088 1.9597357511520386 -0.1952865719795227 4456788 0 -1
-2.034803867340088 1.9597357511520386 -0.1952865719795227 4456788 0 -1
-1.6896506547927856 2.221785068511963 -0.47736719250679016 4456788 0 -1
-1.410361647605896 2.4555115699768066 0.02169850841164589 4456788 0 -1
-1.7110387086868286 2.2053561210632324 -0.47736719250679016 4456788 0 -1
-1.5576995611190796 2.3549134731292725 -0.2169850766658783 4456788 0 -1
-1.7648741006851196 2.1415109634399414 -0.5641612410545349 4456788 0 -1
-1.6366463899612427 2.284728765487671 -0.34717613458633423 4456788 0 -1
-1.1433846950531006 2.5728423595428467 -0.30377912521362305 4456788 0 -1
-1.5532773733139038 2.3482282161712646 -0.30377912521362305 4456788 0 -1
-1.517578125 2.2942583560943604 -0.6726537346839905 4456788 0 -1
-1.5456472635269165 2.336693048477173 -0.412271648645401 4590430 0 -1
-1.7648741006851196 2.1415109634399414 -0.5641612410545349 4726897 0 -1
-1.6350358724594116 2.282480478286743 -0.3688746392726898 4726897 0 -1
-1.4748053550720215 2.415894031524658 -0.08679403364658356 4726897 0 -1
-1.4411393404006958 2.360745429992676 0.6075582504272461 4729209 0 -1
-1.6490130424499512 2.256601572036743 -0.45566868782043457 4341894 0 -1
-1.3595945835113525 2.3193044662475586 0.8896388411521912 4341894 0 -1
-1.7388532161712646 2.196713447570801 -0.412271648645401 3757452 0 -1
-1.6421005725860596 2.2923426628112793 -0.2603820860385895 3757452 0 -1
-1.4319334030151367 2.4427058696746826 0.04339701682329178 3757452 0 -1
-1.7695387601852417 2.1471710205078125 -0.680385410785675 4456788 0 -1
-1.6776202917099 2.2504420280456543 -0.570645809173584 4456788 0 -1
-0.96817946434021 2.570544958114624 0.8120729327201843 4456788 0 -1
-2.1086013317108154 1.8979625701904297 -0.39506250619888306 4456788 0 -1
-1.7043144702911377 2.2410671710968018 -0.5267499685287476 4456788 0 -1
-1.5746266841888428 2.3805038928985596 -0.24142707884311676 4456788 0 -1
-1.6973512172698975 2.2769100666046143 -0.37311458587646484 4456788 0 -1
-1.5341426134109497 2.4139881134033203 -0.1536354124546051 4456788 0 -1
-2.058192491531372 1.9822614192962646 -0.19753125309944153 4456788 0 -1
-1.6554584503173828 2.3109898567199707 -0.35116666555404663 4456788 0 -1
-1.448562502861023 2.4710731506347656 0 4456788 0 -1
-1.448562502861023 2.4710731506347656 0 4456788 0 -1
-1.5746266841888428 2.3805038928985596 -0.24142707884311676 4456788 0 -1
-1.6554584503173828 2.3109898567199707 -0.35116666555404663 4456788 0 -1
-1.4701218605041504 2.457425832748413 -0.06584374606609344 4456788 0 -1
-1.5711311101913452 2.3752193450927734 -0.3072708249092102 4456788 0 -1
-1.5532993078231812 2.3482613563537598 -0.5267499685287476 4456788 0 -1
-1.5651472806930542 2.366173028945923 -0.39506250619888306 4590430 0 -1
-1.4877296686172485 2.249133825302124 -0.965708315372467 4657508 0 -1
-1.749955415725708 2.2107388973236084 -0.5048021078109741 4726897 0 -1
-1.6538294553756714 2.3087158203125 -0.37311458587646484 4726897 0 -1
-1.4701218605041504 2.457425832748413 -0.06584374606609344 4726897 0 -1
-1.659745454788208 2.316974639892578 -0.285322904586792 4729209 0 -1
-1.771559715270996 2.193464517593384 -0.5048021078109741 4341894 0 -1
-1.6755903959274292 2.29297137260437 -0.37311458587646484 4341894 0 -1
-1.448392391204834 2.47078275680542 -0.04389583319425583 4341894 0 -1
-1.6584162712097168 2.3151190280914307 -0.3072708249092102 3757452 0 -1
-1.448562502861023 2.4710731506347656 0 3757452 0 -1
-2.1603052616119385 1.8555864095687866 -0.3072708249092102 2134668 0 -1
-1.5779752731323242 2.385565996170044 -0.1536354124546051 2134668 0 -1
-1.6520999670028687 2.3063015937805176 -0.39506250619888306 3257723 0 -1
-1.3430893421173096 2.3383870124816895 0.965708315372467 3257723 0 -1
-2.2350881099700928 1.649820327758789 -0.8213009834289551 4456788 0 -1
-1.7183302640914917 2.3050522804260254 -0.35515719652175903 4456788 0 -1
-2.225098133087158 1.7313435077667236 -0.6659197211265564 4456788 0 -1
-1.7184364795684814 2.259636640548706 -0.5771304368972778 4456788 0 -1
-1.5914368629455566 2.4059174060821533 -0.2663678824901581 4456788 0 -1
-1.4639478921890259 2.4973185062408447 -0.1109866201877594 4456788 0 -1
-1.1652146577835083 2.6219639778137207 -0.3995518386363983 4456788 0 -1
-1.0191566944122314 2.7058911323547363 -0.17757859826087952 4456788 0 -1
-1.708829402923584 2.2923073768615723 -0.46614381670951843 4456788 0 -1
-1.5304908752441406 2.4571001529693604 -0.1109866201877594 4456788 0 -1
-1.7864723205566406 2.211928367614746 -0.5549331307411194 4456788 0 -1
-1.6928589344024658 2.3166027069091797 -0.3995518386363983 4456788 0 -1
-1.5308958292007446 2.457750082015991 -0.08878929913043976 4456788 0 -1
-1.5925202369689941 2.407555103302002 -0.24417057633399963 4456788 0 -1
-1.7526456117630005 2.2589831352233887 -0.46614381670951843 4456788 0 -1
-1.7526456117630005 2.2589831352233887 -0.46614381670951843 4456788 0 -1
-1.4205870628356934 2.5245792865753174 0.02219732478260994 4456788 0 -1
-1.5889849662780762 2.4022104740142822 -0.31076255440711975 4456788 0 -1
-1.5731922388076782 2.3783352375030518 -0.5105384588241577 4456788 0 -1
-1.564121127128601 2.412353515625 -0.35515719652175903 4590430 0 -1
-1.503994107246399 2.3196194171905518 -0.8656956553459167 4657508 0 -1
-1.7673192024230957 2.2326748371124268 -0.5327357649803162 4726897 0 -1
-1.6726229190826416 2.334951162338257 -0.37735453248023987 4726897 0 -1
-1.4870461225509644 2.4857161045074463 -0.04439464956521988 4726897 0 -1
-1.7526456117630005 2.2589831352233887 -0.46614381670951843 4729209 0 -1
-2.269150495529175 1.7202353477478027 -0.5327357649803162 4341894 0 -1
-1.7767449617385864 2.244582414627075 -0.4439464807510376 4341894 0 -1
-1.7767449617385864 2.244582414627075 -0.4439464807510376 4341894 0 -1
-1.420461893081665 2.5243570804595947 -0.04439464956521988 4341894 0 -1
-1.6946312189102173 2.319027900695801 -0.37735453248023987 3757452 0 -1
-1.5722579956054688 2.424903154373169 -0.19977591931819916 3757452 0 -1
-1.4427837133407593 2.51196026802063 0.02219732478260994 3757452 0 -1
-2.311509847640991 1.6141668558120728 -0.6659197211265564 2134668 0 -1
-2.182971715927124 1.8750556707382202 -0.3329598605632782 2134668 0 -1
-1.6165469884872437 2.3956058025360107 -0.19977591931819916 2134668 0 -1
-1.4872207641601562 2.4860079288482666 0 2134668 0 -1
-1.7746738195419312 2.1973202228546143 -0.643722414970398 3257723 0 -1
-1.6506147384643555 2.3505606651306152 -0.37735453248023987 3257723 0 -1
-2.0153963565826416 2.1163816452026367 -0.20202060043811798 4456788 0 -1
-1.6291558742523193 2.4142911434173584 -0.3142542541027069 4456788 0 -1
-1.481092929840088 2.5265660285949707 -0.0673401951789856 4456788 0 -1
-1.5729501247406006 2.4259707927703857 -0.47138139605522156 4456788 0 -1
-1.970850944519043 2.2036900520324707 -0.18156912922859192 4456788 0 -1
-1.7260392904281616 2.3153936862945557 -0.6581881046295166 4456788 0 -1
-1.9513523578643799 2.2273433208465576 -0.06808841973543167 4657508 0 -1
-2.1398682594299316 2.015580654144287 -0.36313825845718384 3887499 0 -1
-1.989159107208252 2.224161148071289 -0.25240105390548706 4456788 0 -1
-1.4451875686645508 2.621840476989746 -0.06883664429187775 4456788 0 -1
-1.9712306261062622 2.250033140182495 -0.1376732885837555 4456788 0 -1
-1.8585349321365356 2.3479087352752686 0.022945549339056015 4456788 0 -1
-1.8814797401428223 2.3295624256134033 -0.022945549339056015 4456788 0 -1
-1.8531253337860107 2.3410747051239014 -0.22945548593997955 4523353 0 -1
-2.1477444171905518 2.068509578704834 -0.275346577167511 4657508 0 -1
-1.9727957248687744 2.251819610595703 -0.06883664429187775 4657508 0 -1
-1.7863870859146118 2.3963470458984375 0.18356439471244812 4657508 0 -1
-1.9727957248687744 2.251819610595703 -0.06883664429187775 4724328 0 -1
-1.8559139966964722 2.344597816467285 -0.1606188416481018 4724328 0 -1
-1.8801536560058594 2.327920436859131 0.11472774296998978 4341894 0 -1
-2.5606579780578613 1.531663179397583 -0.5102890729904175 4456788 0 -1
-1.9447122812271118 2.312361717224121 -0.18555966019630432 4456788 0 -1
-1.9645556211471558 2.2888376712799072 0.25514453649520874 4456788 0 -1
-1.8511790037155151 2.3859827518463135 0.20875461399555206 4456788 0 -1
-1.8787915706634521 2.3734991550445557 0 4456788 0 -1
-1.8782950639724731 2.3728718757629395 -0.06958486884832382 4456788 0 -1
-1.8768049478530884 2.3709893226623535 -0.13916973769664764 4523353 0 -1
-1.9710503816604614 2.2964046001434326 -0.06958486884832382 4657508 0 -1
-1.8768049478530884 2.3709893226623535 -0.13916973769664764 4341894 0 -1
-1.9880268573760986 2.31618332862854 0.2109992951154709 4456788 0 -1
-2.1492063999176025 2.1623787879943848 -0.2578880190849304 4456788 0 -1
-2.0387015342712402 2.2795565128326416 -0.09377746284008026 4456788 0 -1
-1.923956274986267 2.241536855697632 0.7971084117889404 4456788 0 -1
-2.130366086959839 2.1899964809417725 -0.16411055624485016 4456788 0 -1
-1.8710840940475464 2.4116384983062744 0.2109992951154709 4456788 0 -1
-1.992771029472351 2.3217105865478516 0 4456788 0 -1
-1.9922444820404053 2.3210971355438232 -0.0703330934047699 4456788 0 -1
-1.9880268573760986 2.31618332862854 -0.2109992951154709 4523353 0 -1
-1.8981014490127563 2.3978934288024902 0.09377746284008026 4523353 0 -1
-1.9918348789215088 2.320619821548462 -0.09377746284008026 4724328 0 -1
-1.992771029472351 2.3217105865478516 0 4341894 0 -1
-2.0865485668182373 2.237809658050537 0 3302798 0 -1
-1.3740507364273071 2.711050033569336 0.3516654670238495 3302798 0 -1
-2.6256918907165527 1.5705633163452148 -0.023444365710020065 2588302 0 -1
-1.9155970811843872 2.37180495262146 0.2578880190849304 2588302 0 -1
-1.3782954216003418 2.7194249629974365 0.2578880190849304 2588302 0 -1
-2.085052013397217 2.2834784984588623 0 4456788 0 -1
-1.5630543231964111 2.666382312774658 -0.09477509558200836 4456788 0 -1
-2.033832550048828 2.3214893341064453 -0.18955019116401672 4456788 0 -1
-2.060389757156372 2.303807258605957 0.09477509558200836 4456788 0 -1
-1.9155864715576172 2.419982671737671 0.18955019116401672 4456788 0 -1
-1.42058265209198 2.744016408920288 0.11846886575222015 4456788 0 -1
-2.149794340133667 2.2099685668945312 -0.2369377315044403 4456788 0 -1
-1.9902185201644897 2.3664710521698 -0.02369377389550209 4456788 0 -1
-2.69720196723938 1.503100037574768 -0.16585642099380493 4456788 0 -1
-2.037604808807373 2.3257949352264404 -0.02369377389550209 4456788 0 -1
-2.0137343406677246 2.3461341857910156 0.04738754779100418 4456788 0 -1
-2.130873918533325 2.237645387649536 -0.11846886575222015 4456788 0 -1
-1.8691136837005615 2.4577677249908447 0.16585642099380493 4456788 0 -1
-2.0137343406677246 2.3461341857910156 -0.04738754779100418 4456788 0 -1
-2.0124921798706055 2.344686985015869 -0.11846886575222015 4456788 0 -1
-2.008049726486206 2.3395113945007324 -0.2369377315044403 4523353 0 -1
-2.128429412841797 2.2350783348083496 -0.18955019116401672 4657508 0 -1
-1.8941102027893066 2.441316843032837 0.11846886575222015 4657508 0 -1
-2.011841297149658 2.343928575515747 -0.14216263592243195 4724328 0 -1
-2.0361685752868652 2.324155569076538 0.11846886575222015 4725613 0 -1
-2.0139708518981934 2.346409559249878 0 4341894 0 -1
-2.218695878982544 2.089829921722412 0.5212630033493042 3887499 0 -1
-2.0543229579925537 2.1572587490081787 0.8292820453643799 3887499 0 -1
-2.1323769092559814 2.2392237186431885 0.02369377389550209 2588302 0 -1
-2.0828120708465576 2.32887864112854 -0.04788636416196823 4456788 0 -1
-2.0825064182281494 2.3285365104675293 -0.07182954251766205 4456788 0 -1
-2.0581462383270264 2.3492417335510254 -0.09577272832393646 4523353 0 -1
-2.8906571865081787 1.729053020477295 0.3371998071670532 4523353 0 -1
-2.830064296722412 1.7499797344207764 0.6225227117538452 4471684 0 -1
-3.0042731761932373 1.1413099765777588 1.063476324081421 3887499 0 -1
3.114959716796875 1.1833593845367432 0.5965842604637146 3887499 0 -1
-2.925532341003418 1.6903927326202393 0.20750758051872253 2070155 0 -1
-2.664613723754883 1.9668725728988647 0.7003380656242371 2070155 0 -1
-2.916114568710327 1.744280457496643 0.366629958152771 4523353 0 -1
-2.887131690979004 1.7269442081451416 0.602320671081543 4471684 0 -1
-2.7525486946105957 1.8673266172409058 0.7856356501579285 3887499 0 -1
-2.5426025390625 2.029419422149658 1.0475142002105713 3887499 0 -1
-3.2292513847351074 0.6422473192214966 0.9165748953819275 3887499 0 -1
-2.8948190212249756 1.7315424680709839 0.5499449372291565 2134668 0 -1
-1.8949224948883057 2.9816787242889404 -0.3262258470058441 4456788 0 -1
-2.055821180343628 2.8698890209198 -0.35341134667396545 4456788 0 -1
-2.055821180343628 2.8698890209198 -0.35341134667396545 4456788 0 -1
3.4460458755493164 0.8154129981994629 -0.865945041179657 4456788 0 -1
-2.2553937435150146 2.6817777156829834 -1.0056136846542358 4456788 0 -1
-2.6048851013183594 2.3988964557647705 -0.865945041179657 4456788 0 -1
-2.306408643722534 2.687119245529175 -0.865945041179657 4456788 0 -1
-2.282243490219116 2.6589653491973877 -1.0056136846542358 4523353 0 -1
-2.6432597637176514 2.434236526489258 -0.6145416498184204 4726897 0 -1
-2.731755495071411 2.458866834640503 0.14091560244560242 4456788 0 -1
-2.9020943641662598 2.2581124305725098 -0.08454935997724533 4456788 0 -1
-2.611703395843506 2.5712387561798096 0.3100143074989319 4456788 0 -1
-2.7240347862243652 2.4519171714782715 -0.3100143074989319 4456788 0 -1
-2.6909737586975098 2.42215895652771 -0.6482117772102356 4456788 0 -1
-2.8256514072418213 2.2553393840789795 0.6763948798179626 4456788 0 -1
-2.729320764541626 2.4003050327301025 -0.5636624097824097 4456788 0 -1
-2.7502453327178955 2.4187073707580566 0.3381974399089813 4523353 0 -1
-2.869272232055664 2.2901558876037598 0.22546495497226715 4726897 0 -1
-2.5868754386901855 2.54679536819458 0.5918455123901367 4726897 0 -1
-2.8739185333251953 2.2938647270202637 0.08454935997724533 4147337 0 -1
-2.7861125469207764 2.3931212425231934 0.1972818374633789 3887499 0 -1
-3.234410047531128 1.6674007177352905 0.5354793071746826 2588302 0 -1
-2.5522637367248535 2.567906379699707 0.6482117772102356 2588302 0 -1
-2.779754161834717 2.4446587562561035 0.2558927536010742 4456788 0 -1
-2.8379058837890625 2.3797948360443115 0.22746022045612335 4456788 0 -1
-2.6310737133026123 2.5903091430664062 -0.3696228563785553 4456788 0 -1
-2.7679219245910645 2.434252977371216 0.42648792266845703 4456788 0 -1
-2.6160523891448975 2.5755205154418945 0.5402180552482605 4456788 0 -1
-2.812753677368164 2.4160044193267822 0.14216263592243195 4456788 0 -1
-2.739677906036377 2.4659976959228516 0.42648792266845703 4456788 0 -1
-2.663147211074829 2.5648980140686035 0.31275781989097595 4456788 0 -1
-2.7703089714050293 2.436352252960205 0.39805540442466736 4456788 0 -1
-2.7745378017425537 2.383178949356079 0.6255156397819519 4456788 0 -1
-2.7626469135284424 2.4296138286590576 0.48335298895835876 4456788 0 -1
-2.8008205890655518 2.405754566192627 0.3696228563785553 4523353 0 -1
-2.7703089714050293 2.436352252960205 0.39805540442466736 4590430 0 -1
-2.9548120498657227 2.240032911300659 0.14216263592243195 4726897 0 -1
-2.6378300189971924 2.5405149459838867 0.5970830917358398 4726897 0 -1
-2.9568960666656494 2.2416129112243652 0.02843252755701542 4147337 0 -1
-2.652495861053467 2.5546398162841797 0.4549204409122467 4147337 0 -1
-2.8107683658599854 2.414299249649048 0.19902770221233368 3887499 0 -1
-2.9566357135772705 2.241415500640869 -0.05686505511403084 3692940 0 -1
-2.808119058609009 2.4120235443115234 0.2558927536010742 2070922 0 -1
-2.84116530418396 2.382528305053711 0.14216263592243195 2994813 0 -1
-2.806544780731201 2.4106714725494385 0.2843252718448639 3257723 0 -1
-2.9000327587127686 2.3147079944610596 0.02843252755701542 5949540 0 -1
-2.918450355529785 2.2124671936035156 0.5970830917358398 10016830 0 -1
-2.7626469135284424 2.4296138286590576 0.48335298895835876 13164576 0 -1
-2.834171772003174 2.434401512145996 0.22945548593997955 4456788 0 -1
-2.8231263160705566 2.4249141216278076 0.4015471041202545 4456788 0 -1
-2.8374269008636475 2.43719744682312 0.14340968430042267 4456788 0 -1
-2.8206937313079834 2.4228246212005615 0.4302290380001068 4456788 0 -1
-2.8206937313079834 2.4228246212005615 0.4302290380001068 4456788 0 -1
-2.8025097846984863 2.407205581665039 0.602320671081543 4456788 0 -1
-2.809258460998535 2.4130022525787354 0.5449568033218384 4456788 0 -1
-2.81809139251709 2.4205892086029053 0.4589109718799591 4523353 0 -1
-2.8206937313079834 2.4228246212005615 0.4302290380001068 4590430 0 -1
-2.9828338623046875 2.2612762451171875 0.028681935742497444 4147337 0 -1
-2.6757633686065674 2.5770487785339355 0.4589109718799591 4147337 0 -1
-2.834171772003174 2.434401512145996 0.22945548593997955 3887499 0 -1
-2.9825711250305176 2.2610769271850586 -0.05736387148499489 3692940 0 -1
-2.834171772003174 2.434401512145996 0.22945548593997955 2070922 0 -1
-2.8381776809692383 2.43784236907959 0.11472774296998978 2994813 0 -1
-2.832751750946045 2.4331817626953125 0.25813743472099304 3257723 0 -1
-2.9829213619232178 2.2613425254821777 0 5949540 0 -1
-2.9829213619232178 2.2613425254821777 0 5949540 0 -1
-2.6188323497772217 2.634882926940918 0.4589109718799591 5949540 0 -1
-2.832751750946045 2.4331817626953125 0.25813743472099304 6933851 0 -1
-2.8153181076049805 2.4182074069976807 0.4875929057598114 13164576 0 -1
-2.847675323486328 2.446000337600708 0.40503883361816406 4456788 0 -1
-2.829939842224121 2.4887945652008057 0.23145075142383575 4456788 0 -1
-2.8425965309143066 2.4416377544403076 0.4629015028476715 4456788 0 -1
-2.839799165725708 2.439235210418701 0.4918328523635864 4456788 0 -1
-2.8268795013427734 2.42813777923584 0.6075582504272461 4456788 0 -1
-2.8303701877593994 2.431136131286621 0.5786268711090088 4456788 0 -1
-2.8303701877593994 2.431136131286621 0.5786268711090088 4456788 0 -1
-2.833686590194702 2.4339847564697266 0.5496955513954163 4523353 0 -1
-2.839799165725708 2.439235210418701 0.4918328523635864 4590430 0 -1
-2.9785284996032715 2.3175857067108154 0.11572537571191788 4147337 0 -1
-2.857384204864502 2.4543397426605225 0.2603820860385895 3887499 0 -1
-2.9798409938812256 2.3186070919036865 0.02893134392797947 3692940 0 -1
-2.864119052886963 2.4601244926452637 -0.02893134392797947 2994813 0 -1
-3.0085065364837646 2.280738592147827 -0.05786268785595894 5949540 0 -1
-2.8109421730041504 2.4720871448516846 0.7003380656242371 4456788 0 -1
-2.8067541122436523 2.4684040546417236 0.7295188307762146 4456788 0 -1
-2.814953565597534 2.4756147861480713 0.6711573004722595 4456788 0 -1
-2.876314878463745 2.412003755569458 0.641976535320282 4456788 0 -1
-2.782258987426758 2.5043253898620605 0.7003380656242371 4456788 0 -1
-2.814953565597534 2.4756147861480713 0.6711573004722595 4523353 0 -1
-2.930248975753784 2.3978800773620605 0.4085305333137512 4590430 0 -1
-2.930248975753784 2.3978800773620605 0.4085305333137512 4590430 0 -1
-2.7547333240509033 2.4795491695404053 0.8754225969314575 4724328 0 -1
-2.729038953781128 2.400057315826416 1.1380493640899658 4471684 0 -1
-3.4789795875549316 1.5664865970611572 -0.44145241379737854 4456788 0 -1
-2.017223358154297 3.2385165691375732 -0.44145241379737854 4456788 0 -1
-3.655132532119751 0.9863348007202148 -0.6474635601043701 4456788 0 -1
-2.7334814071655273 2.5173237323760986 0.9711952805519104 4456788 0 -1
-3.3035688400268555 1.9088248014450073 -0.44145241379737854 4456788 0 -1
-2.8546416759490967 2.5694773197174072 0.02943016029894352 4456788 0 -1
3.1724228858947754 2.0254099369049072 -0.7651841640472412 4456788 0 -1
-2.821228504180908 2.5981318950653076 -0.20601113140583038 4523353 0 -1
-2.6184122562408447 2.57784366607666 -1.118346095085144 4657508 0 -1
-3.664397716522217 0.9888349771499634 -0.5886031985282898 4724328 0 -1
-3.0010831356048584 2.3953630924224854 -0.08829048275947571 4724328 0 -1
-2.8546416759490967 2.5694773197174072 -0.02943016029894352 4724328 0 -1
3.373572587966919 1.7391417026519775 -0.5886031985282898 4724328 0 -1
-3.6853597164154053 1.1059296131134033 -0.4451935291290283 4456788 0 -1
-3.6704187393188477 1.1014460325241089 -0.5639117956161499 4456788 0 -1
-3.559643507003784 0.9605671167373657 -1.1871827840805054 4523353 0 -1
-2.927821636199951 2.5148415565490723 -0.32647526264190674 4523353 0 -1
-3.530808925628662 0.9527861475944519 -1.276221513748169 4657508 0 -1
-2.9542577266693115 2.537548780441284 -0.2992897629737854 4456788 0 -1
-2.5053014755249023 3.2943148612976074 0.4788636267185211 4456788 0 -1
-2.536938428878784 3.3359158039093018 0.2573891878128052 4456788 0 -1
-2.5417184829711914 3.342200994491577 0 4456788 0 -1
-2.5416438579559326 3.3421027660369873 -0.03217364847660065 4523353 0 -1
-2.55871319770813 3.3645479679107666 0.19453835487365723 4456788 0 -1
-2.5614216327667236 3.3681094646453857 0 4456788 0 -1
-2.5611207485198975 3.3677139282226562 0.06484611332416534 4523353 0 -1
-4.2075324058532715 3.10577130317688 -0.894377589225769 4456788 0 -1
-4.526920795440674 2.7077877521514893 -0.569149374961853 4456788 0 -1
-4.975798606872559 1.3427155017852783 1.3906997442245483 4456788 0 -1
-4.301972389221191 3.004140853881836 0.9816704392433167 4456788 0 -1
-3.0533807277679443 4.178416728973389 1.3088939189910889 4456788 0 -1
4.99310827255249 1.770896077156067 0.6544469594955444 4456788 0 -1
-4.710738658905029 2.3279612064361572 0.9407675266265869 4456788 0 -1
4.275487899780273 2.8151910305023193 -1.5134086608886719 4456788 0 -1
-4.53231954574585 2.711016893386841 -0.7771557569503784 4456788 0 -1
-4.863857746124268 1.596240520477295 1.5134086608886719 4724328 0 -1
5.024919033050537 1.3559706211090088 1.1861851215362549 4536450 0 -1
-4.342177391052246 2.9457292556762695 0.9816704392433167 3887499 0 -1
-3.9130637645721436 3.2813947200775146 1.5543115139007568 3887499 0 -1
4.768613815307617 2.356562376022339 0.4499322772026062 3887499 0 -1
4.965500831604004 1.7611045837402344 0.8589616417884827 3887499 0 -1
-4.71065616607666 2.32792067527771 -1.1111133098602295 4456788 0 -1
-4.533451080322266 2.8032748699188232 -0.6584374904632568 4456788 0 -1
-4.564096450805664 2.6371662616729736 1.02880859375 4724328 0 -1
-4.1230621337890625 3.1256794929504395 1.440332055091858 4724328 0 -1
-4.055031776428223 3.155210256576538 1.5637890100479126 4536450 0 -1
5.032752513885498 1.5102649927139282 1.1111133098602295 4536450 0 -1
3.8799808025360107 3.6546242237091064 0.6584374904632568 4471684 0 -1
-4.623363494873047 2.765475034713745 0.41401752829551697 4456788 0 -1
-4.346643447875977 3.121870517730713 0.7452315092086792 4456788 0 -1
-3.9480819702148438 3.230792760848999 1.7802753448486328 4456788 0 -1
4.792395114898682 2.368314504623413 0.7866332530975342 4456788 0 -1
-3.0906171798706055 4.229372978210449 1.3248560428619385 4456788 0 -1
4.864710807800293 2.2983717918395996 0.49682101607322693 4456788 0 -1
-4.572737693786621 2.8275678157806396 -0.5382227897644043 4456788 0 -1
-4.1570940017700195 3.1514787673950195 1.4076595306396484 4724328 0 -1
-4.319231986999512 3.0161938667297363 1.2006508111953735 4536450 0 -1
5.022747993469238 1.6483856439590454 1.1178473234176636 4536450 0 -1
4.930731773376465 2.108039140701294 0.6624280214309692 4471684 0 -1
5.107532024383545 1.2085585594177246 1.2834542989730835 4471684 0 -1
-4.138724327087402 3.1375527381896973 1.4904630184173584 3887499 0 -1
-4.535175800323486 2.98618221282959 -0.24990695714950562 4456788 0 -1
-3.7910799980163574 3.8143153190612793 -0.7913720607757568 4456788 0 -1
4.433582782745361 2.741520643234253 -1.541092872619629 4456788 0 -1
-4.392895221710205 3.067633867263794 0.9163255095481873 4456788 0 -1
-3.7760510444641113 3.5567309856414795 1.6243952512741089 4456788 0 -1
-4.616623401641846 2.8547046184539795 0.2915581166744232 4456788 0 -1
-4.190952301025391 3.1771464347839355 1.3744882345199585 4724328 0 -1
5.107507228851318 1.378256916999817 1.2495348453521729 4724328 0 -1
-4.4081525802612305 2.9904866218566895 1.0829302072525024 4536450 0 -1
5.085155963897705 1.525990605354309 1.1662324666976929 4536450 0 -1
-4.620346546173096 2.7636704444885254 0.7497208714485168 4471684 0 -1
-3.66316556930542 3.9287209510803223 0.833023190498352 4471684 0 -1
-0.9372509717941284 5.23492431640625 -1.1245813369750977 4471684 0 -1
4.938850402832031 2.223825454711914 0.45816275477409363 4471684 0 -1
-4.4013848304748535 2.898087739944458 1.3328371047973633 3887499 0 -1
-4.094034194946289 3.1855580806732178 1.6243952512741089 3887499 0 -1
-4.560587406158447 3.0029144287109375 -0.2933039665222168 4456788 0 -1
-3.794516086578369 3.817772388458252 -0.9637130498886108 4456788 0 -1
-4.647548198699951 2.8738272190093994 0.20950284600257874 4456788 0 -1
-4.393487930297852 3.0680480003356934 1.0894147157669067 4724328 0 -1
5.156530857086182 1.3914859294891357 1.1732158660888672 4724328 0 -1
-4.1386799812316895 3.220296859741211 1.5503209829330444 4536450 0 -1
-1.0113412141799927 5.181711196899414 -1.4246193170547485 4536450 0 -1
5.138091087341309 1.3865100145339966 1.2570170164108276 4536450 0 -1
-4.678097724914551 2.8927175998687744 0.0842999517917633 4456788 0 -1
-4.533926486968994 2.8035688400268555 -1.4839783906936646 4456788 0 -1
-4.39085578918457 3.32869291305542 -0.5087926387786865 4456788 0 -1
-4.49257230758667 3.9509990215301514 -0.275346577167511 4456788 0 -1
-4.494025707244873 3.952277421951294 -0.22945548593997955 4523353 0 -1
-5.272490978240967 2.7180709838867188 0.8260397911071777 4471684 0 -1
-4.240379810333252 4.174681186676025 0.9228101372718811 4456788 0 -1
-5.352442741394043 2.645080089569092 0.7843886017799377 4456788 0 -1
-3.839132070541382 4.382122993469238 1.5226366519927979 4456788 0 -1
-4.487658977508545 3.9466779232025146 -0.7382481098175049 4456788 0 -1
-4.511004447937012 3.967209577560425 0.4152645468711853 4456788 0 -1
-4.5217695236206055 3.9766769409179688 0 4456788 0 -1
-4.516988277435303 3.9724719524383545 -0.27684304118156433 4456788 0 -1
-4.516988277435303 3.9724719524383545 -0.27684304118156433 4523353 0 -1
-4.511004447937012 3.967209577560425 0.4152645468711853 4590430 0 -1
-4.491803169250488 3.9503228664398193 0.692107617855072 4724328 0 -1
-4.520574569702148 3.975625991821289 0.13842152059078217 4725613 0 -1
-4.5084757804870605 3.9649856090545654 0.46140506863594055 4471684 0 -1
-5.340921878814697 2.6393866539001465 0.8766696453094482 3107982 0 -1
-4.263237953186035 4.105957984924316 1.1073721647262573 3107982 0 -1
-5.79805850982666 1.7399235963821411 0.09277983009815216 4456788 0 -1
-4.26330041885376 4.19724702835083 0.9277982711791992 4456788 0 -1
-4.298247337341309 4.139675617218018 -1.020578145980835 4456788 0 -1
-4.519977569580078 3.9751009941101074 0.6494588255882263 4456788 0 -1
-4.352451324462891 4.191880226135254 0.37111932039260864 4456788 0 -1
-4.539667129516602 3.992417097091675 -0.32472941279411316 4456788 0 -1
-4.356040954589844 4.195337295532227 -0.2783394753932953 4456788 0 -1
-4.685243606567383 3.83402681350708 -0.04638991504907608 4456788 0 -1
-4.342178821563721 4.1819868087768555 -0.5566789507865906 4456788 0 -1
-4.539667129516602 3.992417097091675 -0.32472941279411316 4523353 0 -1
-4.356040954589844 4.195337295532227 -0.2783394753932953 4523353 0 -1
-4.507476329803467 3.964106798171997 0.7886285185813904 4590430 0 -1
-4.354374885559082 4.193732738494873 0.32472941279411316 4590430 0 -1
-4.4925103187561035 3.950944662094116 0.9277982711791992 4724328 0 -1
-4.4925103187561035 3.950944662094116 0.9277982711791992 4724328 0 -1
-4.591387748718262 3.943755865097046 0.13916973769664764 4725613 0 -1
-4.579099655151367 3.9332008361816406 0.4638991355895996 4471684 0 -1
-4.77816104888916 3.7178754806518555 0 4147337 0 -1
-4.327756404876709 4.168096542358398 0.7422386407852173 4147337 0 -1
-4.373796463012695 4.119758129119873 0.7422386407852173 3302798 0 -1
-3.3696208000183105 4.993534564971924 0.6030688881874084 3302798 0 -1
-5.3111066818237305 2.737977981567383 0.9741882085800171 3107982 0 -1
-5.466130256652832 2.582517385482788 0.32472941279411316 2588302 0 -1
2.4585933685302734 5.532322406768799 -0.04638991504907608 2070155 0 -1
-5.733941555023193 2.0336458683013916 0.18655729293823242 4456788 0 -1
-5.078310489654541 3.343808650970459 -0.27983593940734863 4456788 0 -1
-4.177748203277588 4.294686317443848 1.0727044343948364 4456788 0 -1
5.665893077850342 2.152447462081909 -0.5596718788146973 4456788 0 -1
-4.337386131286621 4.177371025085449 -0.886147141456604 4456788 0 -1
-4.644174575805664 3.8944852352142334 0.5596718788146973 4456788 0 -1
-4.392984390258789 4.137831687927246 -0.7928684949874878 4456788 0 -1
-4.414968967437744 4.158539295196533 0.5130325555801392 4456788 0 -1
-4.659000873565674 3.9069180488586426 -0.27983593940734863 4456788 0 -1
-4.420187473297119 4.163454532623291 -0.41975390911102295 4456788 0 -1
-4.661741256713867 3.9092161655426025 -0.18655729293823242 4456788 0 -1
-4.4243574142456055 4.167382717132568 -0.32647526264190674 4456788 0 -1
-4.660508155822754 3.908182144165039 -0.23319661617279053 4523353 0 -1
-4.426050662994385 4.1689772605896 -0.27983593940734863 4523353 0 -1
-4.420187473297119 4.163454532623291 0.41975390911102295 4590430 0 -1
-4.38839054107666 4.133504390716553 0.8395078182220459 4724328 0 -1
-4.6502203941345215 3.899555206298828 0.46639323234558105 4471684 0 -1
-4.803850173950195 3.7378640174865723 0 4147337 0 -1
-4.383528709411621 4.128925323486328 0.886147141456604 3302798 0 -1
-4.638576507568359 3.984288215637207 -0.23444364964962006 4456788 0 -1
-4.449719429016113 4.1912713050842285 -0.2813323736190796 4456788 0 -1
-4.637075901031494 3.982999563217163 -0.2813323736190796 4523353 0 -1
-4.4511590003967285 4.192627429962158 -0.23444364964962006 4523353 0 -1
-5.492741107940674 3.616690158843994 1.608183741569519 4456788 0 -1
-5.287045478820801 4.008091449737549 1.348799228668213 4456788 0 -1
-5.3945631980896 4.089600086212158 -0.10375379025936127 4456788 0 -1
-5.549862861633301 3.654301881790161 1.2969223260879517 4590430 0 -1
-5.375998497009277 4.075526237487793 0.570645809173584 4590430 0 -1
-5.966446876525879 3.0758185386657715 0.8819071650505066 4471684 0 -1
-4.796710968017578 4.722393035888672 0.7262765169143677 4471684 0 -1
-4.422817230224609 4.9453349113464355 1.348799228668213 4471684 0 -1
-5.420976161956787 4.109623432159424 -0.05212630331516266 4456788 0 -1
-5.457785129547119 3.702556610107422 1.668041706085205 4456788 0 -1
-5.303850173950195 4.0208306312561035 1.4074101448059082 4456788 0 -1
-5.413331508636475 4.103828430175781 0.3648841083049774 4456788 0 -1
-5.413331508636475 4.103828430175781 -0.3648841083049774 4456788 0 -1
-5.4171552658081055 4.106727123260498 -0.2606315016746521 4456788 0 -1
-5.4171552658081055 4.106727123260498 -0.2606315016746521 4523353 0 -1
-5.410940647125244 4.102015495300293 0.41701042652130127 4590430 0 -1
-6.461953639984131 2.1207098960876465 0.15637890994548798 4471684 0 -1
-6.052770137786865 2.991168975830078 0.8340208530426025 4471684 0 -1
-5.212018013000488 4.370664119720459 0.10425260663032532 4471684 0 -1
-4.451003551483154 4.976851463317871 1.3031575679779053 4471684 0 -1
-5.43410587310791 4.119577407836914 -0.47138139605522156 4456788 0 -1
-5.498803615570068 4.05891752243042 -0.10475142300128937 4456788 0 -1
-5.885383129119873 3.279813289642334 -1.1522656679153442 4456788 0 -1
-5.483899116516113 3.7202720642089844 1.6760227680206299 4456788 0 -1
-4.3327155113220215 5.047901153564453 1.571271300315857 4456788 0 -1
-5.431059837341309 4.117268085479736 0.5237571001052856 4456788 0 -1
-5.43923282623291 4.123464107513428 -0.366629958152771 4456788 0 -1
-5.441314220428467 4.125041961669922 -0.3142542541027069 4456788 0 -1
-5.441314220428467 4.125041961669922 -0.3142542541027069 4523353 0 -1
-5.431059837341309 4.117268085479736 0.5237571001052856 4590430 0 -1
-6.546963691711426 1.9646605253219604 0 4471684 0 -1
-6.144670009613037 2.9030990600585938 0.733259916305542 4471684 0 -1
-5.2369561195373535 4.391576766967773 0.10475142300128937 4471684 0 -1
-4.898829936981201 4.718101978302002 0.6808842420578003 4471684 0 -1
-5.184915065765381 3.930666446685791 2.0950284004211426 4212104 0 -1
-5.517683029174805 4.072853088378906 -0.36837583780288696 4456788 0 -1
-5.519794464111328 4.074411869049072 -0.31575071811676025 4456788 0 -1
-5.519794464111328 4.074411869049072 -0.31575071811676025 4523353 0 -1
-5.505974769592285 4.064210414886475 0.5788763165473938 4590430 0 -1
-5.92108678817749 3.299710273742676 1.1051274538040161 4724328 0 -1
-5.633743762969971 3.5968220233917236 1.5787535905838013 4724328 0 -1
-6.2358598709106445 2.8078322410583496 0.6315014362335205 4471684 0 -1
-5.869147300720215 3.3912336826324463 1.1051274538040161 4471684 0 -1
-5.315136909484863 4.349480628967285 0 4471684 0 -1
-4.9221577644348145 4.740569114685059 0.6841265559196472 4471684 0 -1
-5.841385841369629 4.780120372772217 0.23145075142383575 4471684 0 -1
-4.721354007720947 5.6139302253723145 1.793743371963501 4471684 0 -1
-6.012823581695557 4.920411109924316 -1.081932544708252 4456788 0 -1
-4.703099727630615 6.184282302856445 -1.081932544708252 4456788 0 -1
-6.270692348480225 4.378931999206543 -1.7431135177612305 4456788 0 -1
-5.953290939331055 4.992276668548584 -1.081932544708252 4456788 0 -1
-4.36924934387207 6.474911212921143 -0.7212883234024048 4456788 0 -1
-4.36924934387207 6.474911212921143 -0.7212883234024048 4456788 0 -1
-4.722614765167236 6.2099432945251465 -1.0864218473434448 4456788 0 -1
-6.279740810394287 4.2601704597473145 -2.1124870777130127 4456788 0 -1
-6.00879430770874 4.917113780975342 -1.3278489112854004 4456788 0 -1
-4.662834644317627 6.254954814910889 -1.0864218473434448 4456788 0 -1
-4.380619049072266 6.491760730743408 -0.8449947834014893 4456788 0 -1
-6.05247163772583 5.1987481117248535 -0.6748984456062317 4456788 0 -1
-4.64922571182251 6.490234851837158 -0.6135440468788147 4456788 0 -1
-4.392025947570801 6.639817714691162 -0.8589616417884827 4456788 0 -1
-2.268446207046509 7.672999858856201 0.30677202343940735 4456788 0 -1
-4.875796794891357 6.284409523010254 -1.1704723834991455 4456788 0 -1
-4.536008834838867 6.589420795440674 -0.8008495569229126 4456788 0 -1
-3.1284847259521484 7.369077205657959 -0.7392457127571106 4456788 0 -1
-6.101505279541016 5.116565704345703 -1.1088685989379883 4456788 0 -1
3.1898369789123535 6.864034175872803 2.7105677127838135 4456788 0 -1
-4.37374210357666 6.745649337768555 -0.061603810638189316 4456788 0 -1
-4.493776321411133 6.659451961517334 -0.3080190420150757 4456788 0 -1
-0.7105429172515869 8.40007495880127 -0.06459670513868332 9360965 4 -1
-0.7132235169410706 8.431764602661133 -0.1296922266483307 9360965 4 -1
-0.7780620455741882 8.426029205322266 -0.1296922266483307 10016830 4 -1
-0.7809398770332336 8.457195281982422 -0.1952865719795227 5949540 4 -1
-0.7809398770332336 8.457195281982422 -0.1952865719795227 9360965 4 -1
-0.7809398770332336 8.457195281982422 -0.1952865719795227 10016830 4 -1
-0.7160508036613464 8.465188980102539 0 11197490 4 -1
-0.7809398770332336 8.457195281982422 -0.1952865719795227 11918891 4 -1
-0.653430163860321 8.502647399902344 -0.0653449296951294 2070155 4 -1
-0.718604326248169 8.495377540588379 -0.19603480398654938 2070922 4 -1
-0.7187098264694214 8.496624946594238 0.1306898593902588 2666112 4 -1
-0.7184565663337708 8.493630409240723 0.2613797187805176 2994813 4 -1
-0.7162364721298218 8.467384338378906 0.7187942862510681 3257723 4 -1
-0.7180342078208923 8.48863697052002 0.39206960797309875 3651704 4 -1
-0.7187731862068176 8.497373580932617 -0.0653449296951294 7589974 4 -1
-0.783310055732727 8.48286247253418 -0.39206960797309875 9360965 4 -1
-0.7841161489486694 8.491592407226562 0.0653449296951294 11197490 4 -1
-0.7215377688407898 8.53005599975586 0 2718350 4 -1
-0.7215165495872498 8.529806137084961 -0.06559433788061142 2264205 4 -1
-0.7215165495872498 8.529806137084961 0.06559433788061142 2070155 4 -1
-0.7214530110359192 8.529054641723633 -0.13118867576122284 2070922 4 -1
-0.7211987376213074 8.52604866027832 0.2623773515224457 2468738 4 -1
-0.7213470935821533 8.527802467346191 0.19678302109241486 2666112 4 -1
-0.7211987376213074 8.52604866027832 0.2623773515224457 2994813 4 -1
-0.7211987376213074 8.52604866027832 0.2623773515224457 3257723 4 -1
-0.786554217338562 8.51799488067627 0.3279716968536377 3651704 4 -1
-0.7862997651100159 8.515240669250488 0.3935660421848297 4045940 4 -1
-0.8518247604370117 8.50893497467041 0.3935660421848297 4505456 4 -1
-0.7871090173721313 8.524003028869629 0.06559433788061142 5949540 4 -1
-0.7215377688407898 8.53005599975586 0 7589974 4 -1
-0.7215165495872498 8.529806137084961 0.06559433788061142 8180304 4 -1
-0.7213470935821533 8.527802467346191 0.19678302109241486 10672695 4 -1
-0.7869241237640381 8.522001266479492 0.19678302109241486 11918891 4 -1
-0.7235153913497925 8.553436279296875 -0.39506250619888306 2458766 4 -1
-0.7240898609161377 8.560227394104004 -0.19753125309944153 2328718 4 -1
-0.724196195602417 8.561484336853027 -0.1316874921321869 2264205 4 -1
-0.724196195602417 8.561484336853027 -0.1316874921321869 2070922 4 -1
-0.6579540967941284 8.561514854431152 -0.3292187452316284 2006409 4 -1
-0.7239409685134888 8.558466911315918 0.2633749842643738 2994813 4 -1
-0.7240898609161377 8.560227394104004 0.19753125309944153 3257723 4 -1
-0.789753794670105 8.552645683288574 0.2633749842643738 3651704 4 -1
-0.7239409685134888 8.558466911315918 0.2633749842643738 4505456 4 -1
-0.9208377599716187 8.53444766998291 0.39506250619888306 4899181 4 -1
-0.7899162173271179 8.554404258728027 0.19753125309944153 5949540 4 -1
-0.9876272678375244 8.535869598388672 0.06584374606609344 7589974 4 -1
-0.8550636768341064 8.541288375854492 -0.39506250619888306 9360965 4 -1
-0.724196195602417 8.561484336853027 0.1316874921321869 10672695 4 -1
-0.7899162173271179 8.554404258728027 0.19753125309944153 11918891 4 -1
-0.6559457182884216 8.535381317138672 -1.0574904680252075 4729209 4 -1
-0.7262560129165649 8.585835456848145 -0.396558940410614 4600703 4 -1
-0.6571176648139954 8.550630569458008 -0.9253042340278625 4536450 4 -1
-0.5930896401405334 8.57978343963623 -0.6609315872192383 3692940 4 -1
-0.6607569456100464 8.597986221313477 -0.198279470205307 3562893 4 -1
-0.6599801778793335 8.587878227233887 -0.4626521170139313 2718350 4 -1
-0.6606210470199585 8.59621810913086 -0.2643726170063019 2458766 4 -1
-0.6609121561050415 8.600006103515625 -0.06609315425157547 2264205 4 -1
-0.7259781956672668 8.582551002502441 -0.4626521170139313 2134668 4 -1
-0.7270033955574036 8.594671249389648 -0.06609315425157547 2070922 4 -1
-0.7269393801689148 8.593914031982422 -0.13218630850315094 2006409 4 -1
-0.7262560129165649 8.585835456848145 0.396558940410614 2994813 4 -1
-0.7266831398010254 8.590886116027832 0.2643726170063019 3257723 4 -1
-0.7268326282501221 8.592652320861816 0.198279470205307 4505456 4 -1
-0.7269393801689148 8.593914031982422 0.13218630850315094 4899181 4 -1
-0.9250596761703491 8.573576927185059 0.198279470205307 5424489 4 -1
-0.7927452921867371 8.585041999816895 0.2643726170063019 5949540 4 -1
-0.925277054309845 8.575592041015625 0.06609315425157547 6343264 4 -1
-0.9913973808288574 8.56845474243164 0 6933851 4 -1
-0.8585802316665649 8.576416015625 -0.33046579360961914 9360965 4 -1
-0.5286055207252502 8.607121467590332 0.198279470205307 13164576 4 -1
-0.7261386513710022 8.584447860717773 -0.8624533414840698 4725613 4 -1
-0.7283958196640015 8.611132621765137 -0.53074049949646 4600703 4 -1
-0.661064863204956 8.601993560791016 -0.7297682166099548 3692940 4 -1
-0.6629385948181152 8.626374244689941 -0.33171284198760986 3562893 4 -1
-0.7957367897033691 8.617438316345215 -0.26537024974823 2977934 4 -1
-0.5291801691055298 8.616477966308594 -0.6634256839752197 2977934 4 -1
-0.6621780395507812 8.616477966308594 -0.53074049949646 2718350 4 -1
-0.6621780395507812 8.616477966308594 -0.53074049949646 2134668 4 -1
-0.7952690124511719 8.612372398376465 0.39805540442466736 2994813 4 -1
-0.7289965748786926 8.618234634399414 0.39805540442466736 3257723 4 -1
-0.7289965748786926 8.618234634399414 0.39805540442466736 4045940 4 -1
-0.7295753955841064 8.625077247619629 0.19902770221233368 4505456 4 -1
-0.7957367897033691 8.617438316345215 0.26537024974823 4899181 4 -1
-0.8620481491088867 8.61105728149414 0.26537024974823 5424489 4 -1
-0.8612118363380432 8.602703094482422 0.46439796686172485 5949540 4 -1
-0.9285504817962646 8.60593032836914 0.19902770221233368 6343264 4 -1
-0.9287959337234497 8.60820484161377 0 8180304 4 -1
-0.9286868572235107 8.607193946838379 0.132685124874115 9360965 4 -1
-0.5306003093719482 8.63960075378418 0.19902770221233368 13164576 4 -1
-0.6608962416648865 8.599799156188965 -1.0654715299606323 4456788 4 -1
-5.605229377746582 6.267439365386963 -2.1975350379943848 4456788 0 -1
-5.2511186599731445 6.768161773681641 -1.465023398399353 4456788 0 -1
-4.7191386222839355 7.278356552124023 -0.5327357649803162 4456788 0 -1
-0.7962601184844971 8.623106002807617 0.7325116991996765 4456788 4 -1
-0.7276572585105896 8.602401733398438 -0.998879611492157 4724328 4 -1
-0.7294085621833801 8.623106002807617 -0.7991036772727966 4725613 4 -1
-0.6643343567848206 8.644536972045898 -0.5993277430534363 4600703 4 -1
-0.6630986928939819 8.628458023071289 -0.7991036772727966 3692940 4 -1
-0.6639619469642639 8.639691352844238 -0.6659197211265564 3432845 4 -1
-0.5990461707115173 8.665953636169434 -0.2663678824901581 2782862 4 -1
-0.6654308438301086 8.658803939819336 -0.3329598605632782 2718350 4 -1
-0.6652156114578247 8.656003952026367 -0.3995518386363983 2134668 4 -1
-0.6649611592292786 8.652692794799805 0.46614381670951843 2070155 4 -1
-0.6935422420501709 8.199091911315918 -2.796862840652466 3257723 0 -1
-0.7323181629180908 8.657503128051758 0.19977591931819916 3651704 4 -1
-0.7317371368408203 8.650633811950684 0.3995518386363983 4045940 4 -1
-0.8652889728546143 8.64342975616455 0.2663678824901581 5424489 4 -1
-0.998762309551239 8.632107734680176 0.13318394124507904 9360965 4 -1
-0.7344777584075928 8.68303394317627 0.40104830265045166 4456788 4 -1
-0.7310124039649963 8.64206600189209 -0.935779333114624 4724328 4 -1
-0.7321404218673706 8.655402183532715 -0.8020966053009033 4725613 4 -1
-0.7297086715698242 8.626653671264648 -1.0694620609283447 4664956 4 -1
-0.6674516201019287 8.685099601745605 -0.467889666557312 4600703 4 -1
-0.6677070260047913 8.688423156738281 -0.40104830265045166 4017546 4 -1
-0.6650893688201904 8.654361724853516 -0.8689379692077637 3692940 4 -1
-0.6605182886123657 8.594881057739258 -1.3368276357650757 3562893 4 -1
-0.6645567417144775 8.647430419921875 -0.935779333114624 3238030 4 -1
-0.7347154021263123 8.685843467712402 -0.3342069089412689 2718350 4 -1
-0.7128101587295532 8.426877975463867 -2.1389241218566895 2264205 0 -1
-0.6627187132835388 8.623513221740723 -1.1363035440444946 2199437 4 -1
-0.7265701293945312 8.58954906463623 -1.3368276357650757 2134668 4 -1
-0.8020023703575134 8.685291290283203 0.1336827576160431 4045940 4 -1
-0.4643600583076477 8.644997596740723 1.0694620609283447 4045940 0 -1
-0.9983733296394348 8.628746032714844 0.8020966053009033 4899181 0 -1
-0.7335047721862793 8.671530723571777 0.6015724539756775 4899181 4 -1
-0.7343282103538513 8.681265830993652 -0.8721802830696106 4724328 4 -1
-0.666461706161499 8.672218322753906 -1.0063618421554565 4664956 4 -1
