VERSION .7
FIELDS x y z rgb label object
SIZE 4 4 4 4 4 4
TYPE F F F I I I
COUNT 1 1 1 1 1 1
WIDTH 678
HEIGHT 1
POINTS 678
VIEWPOINT 0 0 0 1 0 0 0
DATA ascii
0.4633019268512726 0.4266650378704071 -0.1646093726158142 4456788 0 -1
0.5224995613098145 0.3752725422382355 -0.09976325929164886 4456788 0 -1
-0.6316821575164795 0.125631645321846 -0.09477509558200836 4456788 0 -1
-0.6104925274848938 0.2165221869945526 0.06484611332416534 4456788 0 -1
-0.6113607883453369 0.21683013439178467 -0.05486978963017464 4523353 0 -1
0.39565297961235046 0.5099567174911499 0.08479876816272736 4590430 0 -1
0.48334017395973206 0.4350568950176239 0.02992897666990757 4590430 0 -1
0.5148555040359497 0.3903101980686188 0.07981060445308685 4590430 0 -1
0.4854060113430023 0.4169377386569977 -0.11971590667963028 4726897 0 -1
0.5990307331085205 0.227569118142128 -0.11472774296998978 4726897 0 -1
0.4854060113430023 0.4169377386569977 -0.11971590667963028 4728182 0 -1
0 0.6477522253990173 -0.06484611332416534 4471684 0 -1
0.49370527267456055 0.404008686542511 -0.1296922266483307 4471684 0 -1
-0.6300890445709229 0.25463175773620605 0.0733259916305542 4456788 0 -1
0.534216582775116 0.4263935983181 0.0052375709637999535 4456788 0 -1
-0.6697002053260803 0.13319283723831177 0.03142542764544487 4456788 0 -1
0.4919702112674713 0.47382038831710815 -0.026187855750322342 4456788 0 -1
0.5183824896812439 0.44526275992393494 0.015712713822722435 4456788 0 -1
0.5801951885223389 0.2867219150066376 0.2199779748916626 4456788 0 -1
-0.6226118803024292 0.2803446054458618 -0.03142542764544487 4456788 0 -1
0.5544491410255432 0.3871813416481018 -0.09951385110616684 4456788 0 -1
0.5544491410255432 0.3871813416481018 -0.09951385110616684 4456788 0 -1
0.6281148791313171 0.2227722853422165 -0.15188956260681152 4456788 0 -1
-0.6127238273620605 0.30279698967933655 -0.010475141927599907 4456788 0 -1
0.5852113962173462 0.35004550218582153 -0.047138139605522156 4456788 0 -1
-0.6399518847465515 0.22697049379348755 0.07856356352567673 4456788 0 -1
0.5697993040084839 0.31753847002983093 0.2042652666568756 4523353 0 -1
-0.6292195320129395 0.22316408157348633 0.1466519832611084 4590430 0 -1
-0.578317403793335 0.2981337904930115 0.20950284600257874 4590430 0 -1
0.5354002118110657 0.41659361124038696 0.08380113542079926 4590430 0 -1
0.5776070356369019 0.309906005859375 0.19379012286663055 4590430 0 -1
0.5522632598876953 0.3303374946117401 0.23045311868190765 4724328 0 -1
-0.5818488001823425 0.2748991847038269 0.23045311868190765 4728182 0 -1
0.5413022637367249 0.38877713680267334 0.15188956260681152 4728182 0 -1
0.6922282576560974 0.16379699110984802 0.0823046863079071 4456788 0 -1
0.5945708155632019 0.3556438386440277 0.18107031285762787 4456788 0 -1
-0.6249720454216003 0.335318922996521 0.09876562654972076 4456788 0 -1
-0.6471593379974365 0.3057556450366974 -0.021947916597127914 4456788 0 -1
0.6568251252174377 0.23295488953590393 -0.1646093726158142 4456788 0 -1
0.6568251252174377 0.23295488953590393 -0.1646093726158142 4456788 0 -1
-0.6381651759147644 0.25789546966552734 0.19753125309944153 4456788 0 -1
0.5892621278762817 0.36437222361564636 0.18107031285762787 4456788 0 -1
-0.6704257726669312 0.23777861893177032 0.0823046863079071 4456788 0 -1
0.5938459038734436 0.3309391736984253 0.2249661386013031 4657508 0 -1
-0.6130186319351196 0.2896255850791931 0.23045311868190765 4728182 0 -1
0.5680758953094482 0.4080066382884979 0.1536354124546051 4728182 0 -1
-0.6977817416191101 0.2650841772556305 0.05736387148499489 4456788 0 -1
-0.6371767520904541 0.31488117575645447 0.23519188165664673 4523353 0 -1
0.60963374376297 0.4014127552509308 0.16635523736476898 4523353 0 -1
0.633395254611969 0.32652747631073 0.22945548593997955 4523353 0 -1
0.6104968190193176 0.3897671699523926 0.1893007755279541 4590430 0 -1
0.6023611426353455 0.3966240882873535 0.20077355206012726 4657508 0 -1
-0.6589605808258057 0.2662993371486664 0.23519188165664673 4724328 0 -1
0.6014894247055054 0.4200303852558136 0.14914606511592865 4725613 0 -1
-0.642622709274292 0.30361229181289673 0.23519188165664673 4728182 0 -1
-0.642622709274292 0.30361229181289673 0.23519188165664673 4728182 0 -1
0.5949018597602844 0.4272737205028534 0.15488246083259583 4728182 0 -1
0.6215967535972595 0.3718094825744629 0.1893007755279541 4728182 0 -1
0.9995673894882202 0.472253680229187 0.05087926238775253 4456788 0 -1
-1.0519883632659912 0.3156883418560028 -0.1356780230998993 4456788 0 -1
0.43608567118644714 1.5195585489273071 0.386582612991333 4657508 0 -1
1.0188432931900024 1.2362717390060425 -0.28681936860084534 4657508 0 -1
1.3555413484573364 0.8654353022575378 -0.24940814077854156 4657508 0 -1
-0.06422637403011322 1.6751670837402344 0.23344601690769196 4456788 0 -1
-0.012598030269145966 1.6440824270248413 -0.40204593539237976 4657508 0 -1
0.0506688617169857 1.6523830890655518 -0.36313825845718384 4657508 0 -1
-1.2646580934524536 1.0348944664001465 0.4409535825252533 4724328 0 -1
-0.012621916830539703 1.6471996307373047 -0.38907670974731445 4724328 0 -1
0.7910994291305542 1.4962620735168457 0.012969223782420158 4724328 0 -1
-0.026262642815709114 1.7135276794433594 -0.3905731439590454 4456788 0 -1
0.3025515675544739 1.68987238407135 0.37710511684417725 4456788 0 -1
0.3835846781730652 1.6239962577819824 0.5521896481513977 4456788 0 -1
0.03946324810385704 1.7162892818450928 0.37710511684417725 4456788 0 -1
0.26550599932670593 1.7120540142059326 0.2962968647480011 4456788 0 -1
0.3624739944934845 1.6501357555389404 0.4848494231700897 4456788 0 -1
-1.7166061401367188 0.3414059579372406 0.1616164743900299 4456788 0 -1
-1.6451349258422852 0.32719144225120544 -0.5252535343170166 4456788 0 -1
-0.22841159999370575 1.7385482788085938 0.12121235579252243 4456788 0 -1
-0.01300295814871788 1.6969268321990967 0.457913339138031 4456788 0 -1
0.040402933955192566 1.7571569681167603 0.013468039222061634 4523353 0 -1
-1.649213194847107 0.32800257205963135 0.5117855072021484 4523353 0 -1
0.03959418460726738 1.721983790397644 -0.35016903281211853 4590430 0 -1
-1.6745688915252686 0.33304542303085327 0.4175092279911041 4590430 0 -1
-0.12679514288902283 1.649899959564209 -0.5925937294960022 4724328 0 -1
-0.03917070850729942 1.7035664319992065 -0.4309772551059723 4724328 0 -1
0.3963708281517029 1.6209229230880737 0.5521896481513977 4724328 0 -1
-0.040050312876701355 1.7418211698532104 -0.4115234315395355 4456788 0 -1
0.39068809151649475 1.654070258140564 0.562415361404419 4456788 0 -1
-1.6448379755020142 0.3892061710357666 -0.5898502469062805 4456788 0 -1
0.2813583314418793 1.725749135017395 0.38408854603767395 4456788 0 -1
0.3796282112598419 1.6657055616378784 0.5349804759025574 4456788 0 -1
0.6545314192771912 1.5780624151229858 0.5349804759025574 4456788 0 -1
1.601375699043274 0.5255459547042847 -0.6035677194595337 4456788 0 -1
-1.3750606775283813 1.0699313879013062 -0.4115234315395355 4456788 0 -1
0.6844589710235596 1.5401684045791626 0.6035677194595337 4456788 0 -1
-1.7350928783416748 0.34508267045021057 0.2743489444255829 4456788 0 -1
0.06675051897764206 1.7410024404525757 0.4115234315395355 4657508 0 -1
0.2808643877506256 1.722719430923462 -0.39780598878860474 4657508 0 -1
-0.03964482992887497 1.7241864204406738 -0.48011067509651184 4724328 0 -1
0.35680344700813293 1.6873297691345215 0.48011067509651184 4724328 0 -1
0.6036616563796997 1.6027395725250244 0.5212630033493042 4725613 0 -1
0.6493841409683228 1.5656524896621704 0.5761328339576721 4725613 0 -1
1.2567064762115479 1.23723566532135 0.4609062373638153 4590430 0 -1
-1.7435392141342163 0.4125611186027527 0.335204541683197 4657508 0 -1
0.7064178586006165 1.5895802974700928 0.5447073578834534 4657508 0 -1
0.2567465007305145 1.7447476387023926 -0.4609062373638153 4724328 0 -1
0.7363510727882385 1.5500397682189941 0.6145416498184204 4724328 0 -1
-2.0840725898742676 1.4968342781066895 -0.6060617566108704 4456788 0 -1
-1.996342658996582 1.674081563949585 -0.40404120087623596 4456788 0 -1
-1.5532101392745972 2.083552122116089 -0.44444531202316284 4456788 0 -1
-1.4483864307403564 2.189655065536499 -0.24242471158504486 4456788 0 -1
-1.413978099822998 2.2249081134796143 0.04040411859750748 4456788 0 -1
-0.2816306948661804 2.6101908683776855 0.24242471158504486 4456788 0 -1
-0.28242170810699463 2.6175222396850586 0.14141441881656647 4456788 0 -1
-1.3129796981811523 2.2859647274017334 0.04040411859750748 4523353 0 -1
-1.9986817836761475 1.676043152809143 -0.38383913040161133 4726897 0 -1
-1.4636253118515015 2.1689867973327637 -0.3232329487800598 4726897 0 -1
-0.9461180567741394 2.4508488178253174 -0.22222265601158142 4726897 0 -1
-2.057832717895508 1.560036063194275 -0.6748984456062317 4456788 0 -1
-1.529983401298523 2.135828971862793 -0.47038376331329346 4456788 0 -1
-1.346583366394043 2.2971091270446777 -0.18406321108341217 4456788 0 -1
-1.4107784032821655 2.2649097442626953 -0.06135440245270729 4456788 0 -1
-1.9706454277038574 1.7737878561019897 -0.30677202343940735 4456788 0 -1
-1.4295419454574585 2.2493979930877686 -0.14316026866436005 4456788 0 -1
-1.9167860746383667 1.846071720123291 -0.20451468229293823 4456788 0 -1
-1.4672658443450928 2.2181968688964844 -0.2249661386013031 4456788 0 -1
-1.349757194519043 2.302523136138916 -0.020451467484235764 4456788 0 -1
-2.0906779766082764 1.5849359035491943 -0.4908352196216583 4456788 0 -1
-1.5284018516540527 2.176523447036743 -0.2249661386013031 4456788 0 -1
-1.4485973119735718 2.234180450439453 -0.18406321108341217 4456788 0 -1
-1.288291096687317 2.3372011184692383 0.04090293496847153 4456788 0 -1
-1.5046755075454712 2.185828924179077 -0.2863205373287201 4456788 0 -1
-1.3496383428573608 2.3023204803466797 -0.04090293496847153 4456788 0 -1
-1.5325919389724731 2.0972843170166016 -0.6135440468788147 4456788 0 -1
-1.5613455772399902 2.1366324424743652 -0.3476749360561371 4523353 0 -1
-1.4493235349655151 2.2353005409240723 -0.1636117398738861 4657508 0 -1
-1.8952183723449707 1.8658546209335327 -0.2249661386013031 4726897 0 -1
-1.537751317024231 2.1466727256774902 -0.3885778784751892 4726897 0 -1
-1.3687994480133057 2.288057327270508 -0.12270880490541458 4726897 0 -1
-1.5522267818450928 2.1241536140441895 -0.4499322772026062 4728182 0 -1
-1.5507516860961914 2.164821147918701 -0.45541927218437195 4456788 0 -1
-1.4281927347183228 2.2928671836853027 -0.04140175133943558 4456788 0 -1
-1.4860811233520508 2.2466416358947754 -0.20700876414775848 4456788 0 -1
-1.9946777820587158 1.795419454574585 -0.31051313877105713 4456788 0 -1
-1.503648042678833 2.228297710418701 -0.26911139488220215 4456788 0 -1
-1.3662177324295044 2.3306026458740234 -0.02070087566971779 4456788 0 -1
-1.996397852897644 1.7969677448272705 -0.28981226682662964 4456788 0 -1
-1.4860811233520508 2.2466416358947754 -0.20700876414775848 4456788 0 -1
-1.304002046585083 2.365703582763672 0.04140175133943558 4456788 0 -1
-1.9946777820587158 1.795419454574585 -0.31051313877105713 4456788 0 -1
-1.862586498260498 1.9559149742126465 -0.062102627009153366 4456788 0 -1
-1.502443790435791 2.226512908935547 -0.28981226682662964 4456788 0 -1
-1.3658968210220337 2.3300552368164062 -0.062102627009153366 4456788 0 -1
-1.564448356628418 2.140878438949585 -0.5175219178199768 4456788 0 -1
-1.5751389265060425 2.155508041381836 -0.41401752829551697 4523353 0 -1
-1.4469753503799438 2.276829481124878 -0.14490613341331482 4657508 0 -1
-1.5751389265060425 2.155508041381836 -0.41401752829551697 4726897 0 -1
-1.57115638256073 2.1500580310821533 -0.45541927218437195 4728182 0 -1
-1.5769846439361572 2.158033847808838 -0.3933166265487671 4471684 0 -1
-1.5562543869018555 2.216186761856079 -0.37710511684417725 4456788 0 -1
-1.445527195930481 2.3206965923309326 -0.020950283855199814 4456788 0 -1
-1.5239285230636597 2.2583518028259277 -0.23045311868190765 4456788 0 -1
-1.8015128374099731 2.0563111305236816 -0.04190056771039963 4456788 0 -1
-2.126997947692871 1.6550120115280151 -0.4609062373638153 4456788 0 -1
-2.0012242794036865 1.8429718017578125 -0.2723536789417267 4456788 0 -1
-1.4649691581726074 2.305143117904663 -0.12570171058177948 4456788 0 -1
-1.9044599533081055 1.9577668905258179 -0.12570171058177948 4456788 0 -1
-1.60100257396698 2.190901279449463 0.335204541683197 4456788 0 -1
-1.5856596231460571 2.169905185699463 -0.5028068423271179 4456788 0 -1
-1.5921504497528076 2.1787877082824707 -0.4399559497833252 4523353 0 -1
-1.6128277778625488 2.1635260581970215 -0.4399559497833252 4726897 0 -1
-1.5900859832763672 2.175962448120117 -0.4609062373638153 4728182 0 -1
-1.5816696882247925 2.207982063293457 -0.3142542541027069 4471684 0 -1
-1.493823528289795 2.3039331436157227 -0.3391950726509094 4456788 0 -1
-1.5665189027786255 2.2756683826446533 0.14839784801006317 4456788 0 -1
-1.5683627128601074 2.2783467769622803 -0.06359907984733582 4456788 0 -1
-1.8229594230651855 2.0807912349700928 0.04239938408136368 4456788 0 -1
-1.8231199979782104 2.0809743404388428 -0.02119969204068184 4456788 0 -1
-1.8229594230651855 2.0807912349700928 0.04239938408136368 4456788 0 -1
-1.5836983919143677 2.2108142375946045 -0.5087926387786865 4456788 0 -1
-1.8231199979782104 2.0809743404388428 0.02119969204068184 4523353 0 -1
-1.9223071336746216 1.9761136770248413 -0.23319661617279053 4657508 0 -1
-1.603163242340088 2.2379868030548096 0.2755959928035736 4657508 0 -1
-2.4258391857147217 1.3015458583831787 -0.2755959928035736 4724328 0 -1
-2.309680700302124 1.5208070278167725 -0.08479876816272736 4724328 0 -1
-1.9421093463897705 1.954012393951416 -0.25439631938934326 4724328 0 -1
-1.8231199979782104 2.0809743404388428 0.02119969204068184 4725613 0 -1
-1.8229594230651855 2.0807912349700928 -0.04239938408136368 4536450 0 -1
-1.5406585931777954 2.329151153564453 0.19304190576076508 4456788 0 -1
-1.543609619140625 2.3336126804351807 0.08579640090465546 4456788 0 -1
-1.5427021980285645 2.3322408199310303 0.1286945939064026 4456788 0 -1
-1.6046167612075806 2.240015745162964 -0.49332931637763977 4456788 0 -1
-1.5224837064743042 2.3481359481811523 -0.0643472969532013 4456788 0 -1
-1.5508198738098145 2.2982029914855957 -0.38608381152153015 4456788 0 -1
-1.5579967498779297 2.308838367462158 -0.27883830666542053 4456788 0 -1
-1.844406008720398 2.105271100997925 -0.04289820045232773 4456788 0 -1
-1.8445684909820557 2.1054563522338867 -0.021449100226163864 4456788 0 -1
-1.8441351652145386 2.10496187210083 -0.0643472969532013 4523353 0 -1
-1.649834394454956 2.257725477218628 0.1286945939064026 4657508 0 -1
-1.559354543685913 2.3574156761169434 -0.17358806729316711 4456788 0 -1
-1.5576995611190796 2.3549134731292725 0.2169850766658783 4456788 0 -1
-1.5618797540664673 2.3612332344055176 0.06509552150964737 4456788 0 -1
-1.5606406927108765 2.3593599796295166 0.13019104301929474 4456788 0 -1
-1.559354543685913 2.3574156761169434 0.17358806729316711 4456788 0 -1
-1.5618797540664673 2.3612332344055176 0.06509552150964737 4456788 0 -1
-1.561145544052124 2.3601231575012207 0.10849253833293915 4456788 0 -1
-1.5688526630401611 2.3249261379241943 -0.3905731439590454 4456788 0 -1
-1.8443191051483154 2.148754119873047 -0.02169850841164589 4456788 0 -1
-1.8651950359344482 2.129000425338745 -0.08679403364658356 4523353 0 -1
-1.5317256450653076 2.3623900413513184 0.5267499685287476 4456788 0 -1
-1.539894938468933 2.3749892711639404 -0.4389583170413971 4456788 0 -1
-1.527064561843872 2.355201244354248 -0.570645809173584 4456788 0 -1
-1.512307047843933 2.379629611968994 0.5048021078109741 4456788 0 -1
-1.5465466976165771 2.3852484226226807 0.35116666555404663 4456788 0 -1
-1.5779752731323242 2.385565996170044 0.1536354124546051 4456788 0 -1
-1.5798324346542358 2.388373851776123 0.06584374606609344 4456788 0 -1
-1.601021647453308 2.372598171234131 -0.10973957926034927 4456788 0 -1
-1.6421748399734497 2.3385419845581055 -0.19753125309944153 4456788 0 -1
-1.5991848707199097 2.3698763847351074 -0.17558333277702332 4523353 0 -1
-1.5573936700820923 2.401978015899658 0.4439464807510376 4456788 0 -1
-1.5491316318511963 2.389235258102417 0.5327357649803162 4456788 0 -1
-1.5366078615188599 2.369919776916504 -0.643722414970398 4456788 0 -1
-1.5491316318511963 2.389235258102417 0.5327357649803162 4456788 0 -1
-1.5773810148239136 2.3846678733825684 0.46614381670951843 4456788 0 -1
-1.5811793804168701 2.3904101848602295 0.42174917459487915 4456788 0 -1
-1.562582015991211 2.409979820251465 0.37735453248023987 4456788 0 -1
-1.5977851152420044 2.4155144691467285 0.06659197062253952 4456788 0 -1
-1.5965174436569214 2.41359806060791 -0.13318394124507904 4456788 0 -1
-1.5935087203979492 2.4090495109558105 -0.2219732403755188 4456788 0 -1
-1.6616685390472412 2.366302013397217 -0.17757859826087952 4456788 0 -1
-1.594402551651001 2.410400629043579 -0.19977591931819916 4523353 0 -1
-1.5421725511550903 2.4266233444213867 0.5611683130264282 4456788 0 -1
-1.5908684730529785 2.4050581455230713 0.5162748694419861 4456788 0 -1
-1.566537618637085 2.4160807132720947 0.5387215614318848 4456788 0 -1
-1.5886015892028809 2.4016308784484863 0.5387215614318848 4456788 0 -1
-1.566537618637085 2.4160807132720947 0.5387215614318848 4456788 0 -1
-1.595104455947876 2.41146183013916 0.47138139605522156 4456788 0 -1
-1.5989454984664917 2.417268753051758 0.42648792266845703 4456788 0 -1
-1.5562543869018555 2.4487812519073486 0.40404120087623596 4456788 0 -1
-1.6149781942367554 2.441506862640381 -0.11223366111516953 4456788 0 -1
-1.7027435302734375 2.3769991397857666 -0.17957386374473572 4456788 0 -1
-1.634710431098938 2.42252254486084 -0.20202060043811798 4456788 0 -1
-1.5839436054229736 2.4429259300231934 -0.5447073578834534 4456788 0 -1
-1.5338674783706665 2.413555145263672 0.7716687917709351 4456788 0 -1
-1.5052739381790161 2.4166159629821777 0.8170610666275024 4456788 0 -1
-1.4900426864624023 2.440854549407959 0.7716687917709351 4456788 0 -1
-1.5268808603286743 2.4513044357299805 0.6581881046295166 4456788 0 -1
-1.61073637008667 2.435094118118286 0.4993151128292084 4456788 0 -1
-1.5593078136444092 2.4535858631134033 0.5674034953117371 4456788 0 -1
-1.61073637008667 2.435094118118286 0.4993151128292084 4456788 0 -1
-1.5839436054229736 2.4429259300231934 0.5447073578834534 4456788 0 -1
-1.6128277778625488 2.438255786895752 0.4766189455986023 4456788 0 -1
-1.5942572355270386 2.4588327407836914 0.4312266707420349 4456788 0 -1
-1.6128277778625488 2.438255786895752 0.4766189455986023 4456788 0 -1
-1.792521357536316 2.357053756713867 -0.06808841973543167 4456788 0 -1
-1.7021605968475342 2.423964738845825 -0.02269614115357399 4456788 0 -1
-1.6128277778625488 2.438255786895752 0.4766189455986023 4456788 0 -1
-1.6550663709640503 2.452688694000244 -0.13617683947086334 4456788 0 -1
-1.594071865081787 2.508287191390991 -0.36712878942489624 4456788 0 -1
-1.51828134059906 2.4374985694885254 0.8489853143692017 4456788 0 -1
-1.51828134059906 2.4374985694885254 0.8489853143692017 4456788 0 -1
-1.65105402469635 2.446742534637451 0.5048021078109741 4456788 0 -1
-1.596476674079895 2.4622557163238525 0.5965842604637146 4456788 0 -1
-1.6262211799621582 2.4585037231445312 0.527747631072998 4456788 0 -1
-1.5156399011611938 2.482785701751709 0.7113119959831238 4456788 0 -1
2.7099220752716064 1.2202017307281494 -0.36712878942489624 4456788 0 -1
-1.6907775402069092 2.4561777114868164 0.275346577167511 4456788 0 -1
-1.8124854564666748 2.383305311203003 -0.04589109867811203 4456788 0 -1
-1.6152533292770386 2.4912149906158447 0.39007434248924255 4456788 0 -1
-1.541823387145996 2.4752936363220215 0.8118234872817993 4456788 0 -1
-1.5347844362258911 2.4639930725097656 0.8582134246826172 4456788 0 -1
-1.5347844362258911 2.4639930725097656 0.8582134246826172 4456788 0 -1
-1.5311055183410645 2.4580867290496826 0.8814083933830261 4456788 0 -1
-1.7000226974487305 2.4696080684661865 0.4175092279911041 4456788 0 -1
-1.6155716180801392 2.5421173572540283 0.3015344440937042 4456788 0 -1
2.771603584289551 1.1849457025527954 -0.2783394753932953 4456788 0 -1
2.7212109565734863 1.2856581211090088 -0.32472941279411316 4456788 0 -1
2.7188663482666016 1.284550428390503 -0.3479243516921997 4456788 0 -1
-1.739417552947998 2.477020502090454 0.04638991504907608 4456788 0 -1
-1.715166687965393 2.491607666015625 0.1159747838973999 4456788 0 -1
-1.629295825958252 2.5128729343414307 0.44070419669151306 4456788 0 -1
-1.7163764238357544 2.4933650493621826 -0.02319495752453804 4456788 0 -1
-1.5512875318527222 2.490487575531006 0.8674415349960327 4456788 0 -1
-1.5512875318527222 2.490487575531006 0.8674415349960327 4456788 0 -1
-1.5475690364837646 2.484517812728882 0.8908858895301819 4456788 0 -1
-1.5737699270248413 2.476341962814331 0.8674415349960327 4456788 0 -1
-1.7340679168701172 2.5190653800964355 -0.09377746284008026 4456788 0 -1
-1.752070426940918 2.4950389862060547 0.2578880190849304 4456788 0 -1
-1.7717849016189575 2.424609422683716 -0.5861091613769531 4456788 0 -1
-1.7763222455978394 2.382845640182495 -0.7267753481864929 4456788 0 -1
-1.7344245910644531 2.5195834636688232 -0.0703330934047699 4456788 0 -1
-1.7775299549102783 2.4813995361328125 0.2109992951154709 4456788 0 -1
-1.7557963132858276 2.500344753265381 0.16411055624485016 4456788 0 -1
-1.7578628063201904 2.5032875537872314 0.0703330934047699 4456788 0 -1
-1.7578628063201904 2.5032875537872314 -0.0703330934047699 4456788 0 -1
-1.7813009023666382 2.486663818359375 -0.0703330934047699 4523353 0 -1
-1.7775299549102783 2.4813995361328125 0.2109992951154709 4590430 0 -1
-1.7581208944320679 2.503655195236206 0.04688873142004013 4657508 0 -1
-1.6901068687438965 2.406799554824829 -0.8439971804618835 4724328 0 -1
-1.5601648092269897 2.50473952293396 0.9240571856498718 4456788 0 -1
-1.6554346084594727 2.4048354625701904 1.0188322067260742 4456788 0 -1
-1.5866996049880981 2.496687173843384 0.9003633856773376 4456788 0 -1
-1.7531332969665527 2.5467615127563477 -0.04738754779100418 4456788 0 -1
-1.781541109085083 2.486999034881592 0.4501816928386688 4456788 0 -1
-1.8028699159622192 2.4671478271484375 0.4738754630088806 4456788 0 -1
-1.766778588294983 2.515984058380127 0.33171284198760986 4456788 0 -1
-1.8217942714691162 2.4930450916290283 0.16585642099380493 4456788 0 -1
-1.7930983304977417 2.5031328201293945 0.2843252718448639 4456788 0 -1
-1.7528759241104126 2.5463876724243164 -0.07108131796121597 4456788 0 -1
-1.8002510070800781 2.513117551803589 -0.07108131796121597 4523353 0 -1
-1.79643976688385 2.5077972412109375 0.21324396133422852 4590430 0 -1
-1.889929175376892 2.4359278678894043 0.2369377315044403 4657508 0 -1
-1.7768243551254272 2.530289649963379 0.04738754779100418 4657508 0 -1
-1.8006739616394043 2.5137081146240234 -0.02369377389550209 4729209 0 -1
-1.8006739616394043 2.5137081146240234 -0.02369377389550209 4729209 0 -1
-1.5389645099639893 2.6794159412384033 -0.11846886575222015 4729209 0 -1
-1.7952641248703003 2.556548833847046 0.07182954251766205 4456788 0 -1
-1.7478522062301636 2.5901906490325928 0 4456788 0 -1
-1.7886476516723633 2.496919631958008 0.5746363401412964 4456788 0 -1
-1.7981871366500854 2.5102365016937256 0.4788636267185211 4456788 0 -1
-1.8002941608428955 2.5131778717041016 0.4549204409122467 4456788 0 -1
-1.8002941608428955 2.5131778717041016 0.4549204409122467 4456788 0 -1
-1.8059546947479248 2.5210800170898438 0.38309091329574585 4456788 0 -1
-1.912697196006775 2.46527361869812 -0.1676022708415985 4590430 0 -1
-1.7226433753967285 2.604274034500122 -0.11971590667963028 4728182 0 -1
-1.5062490701675415 2.7326173782348633 0.1676022708415985 4728182 0 -1
-1.8196005821228027 2.4900429248809814 0.5028068423271179 4729209 0 -1
-1.843408465385437 2.522623062133789 0.04788636416196823 4664956 0 -1
-1.864879846572876 2.501641035079956 0.1676022708415985 4341894 0 -1
-1.7478009462356567 2.5901145935058594 0.023943182080984116 4341894 0 -1
-1.882529616355896 2.5253171920776367 0.21773330867290497 4456788 0 -1
-1.8308478593826294 2.555830240249634 0.2903110682964325 4456788 0 -1
-1.8308478593826294 2.555830240249634 0.2903110682964325 4456788 0 -1
-1.8123242855072021 2.5299718379974365 0.5322369933128357 4456788 0 -1
-1.814677357673645 2.533256769180298 0.5080443620681763 4456788 0 -1
-1.8169182538986206 2.5363848209381104 0.4838517904281616 4456788 0 -1
-1.819047212600708 2.5393569469451904 0.459659218788147 4456788 0 -1
-1.8210647106170654 2.542173385620117 0.43546661734580994 4456788 0 -1
-1.8429820537567139 2.5220394134521484 0.459659218788147 4456788 0 -1
-1.8985487222671509 2.4964730739593506 0.3628888428211212 4456788 0 -1
-1.8169182538986206 2.5363848209381104 0.4838517904281616 4729209 0 -1
-2.1531405448913574 2.3092291355133057 0 4664956 0 -1
-1.8601478338241577 2.545530080795288 -0.16934813559055328 3692940 0 -1
-1.995753288269043 2.471050500869751 0.2933039665222168 4456788 0 -1
-1.8356493711471558 2.562533140182495 0.4888399541378021 4456788 0 -1
-1.8509817123413086 2.583936929702759 0.2688619792461395 4456788 0 -1
-1.7842658758163452 2.644152879714966 0 4456788 0 -1
-1.8069158792495728 2.573141574859619 0.537723958492279 4456788 0 -1
-1.8333854675292969 2.559372663497925 0.5132819414138794 4456788 0 -1
-1.8356493711471558 2.562533140182495 0.4888399541378021 4456788 0 -1
-1.8378002643585205 2.5655357837677 0.46439796686172485 4456788 0 -1
-2.022721529006958 2.4543850421905518 0.24441997706890106 4729209 0 -1
-1.8356493711471558 2.562533140182495 0.4888399541378021 4729209 0 -1
-2.026540756225586 2.459019184112549 0.1466519832611084 3887499 0 -1
-1.9389499425888062 2.449497938156128 -0.7901250123977661 4456788 0 -1
-1.7677865028381348 2.5680480003356934 0.814816415309906 4456788 0 -1
-1.8117908239364624 2.5800838470458984 0.6666679382324219 4456788 0 -1
-1.6881500482559204 2.656320095062256 0.6913593411445618 4456788 0 -1
-1.8496917486190796 2.5821361541748047 0.5432109236717224 4456788 0 -1
-1.8520934581756592 2.585488796234131 0.5185195207595825 4456788 0 -1
-1.8745626211166382 2.6168553829193115 0.14814843237400055 4590430 0 -1
-1.8685972690582275 2.608527898788452 0.2962968647480011 4724328 0 -1
-1.9884628057479858 2.5120482444763184 0.3456796705722809 4728182 0 -1
-1.8787802457809448 2.5710277557373047 0.4938281178474426 4728182 0 -1
-1.885039210319519 2.579592704772949 0.41975390911102295 4729209 0 -1
-2.0174906253814697 2.49796462059021 0.2716054618358612 4664956 0 -1
-1.891782283782959 2.588820457458496 0.320988267660141 4664956 0 -1
-2.0016636848449707 2.4288330078125 -0.6913593411445618 4600703 0 -1
-1.8421493768692017 2.676074504852295 0.19952651858329773 4456788 0 -1
-1.7938107252120972 2.5544791221618652 -0.9228101372718811 4456788 0 -1
-2.825711250305176 1.8040544986724854 0.02568903937935829 4456788 0 -1
-1.8404115438461304 2.7823145389556885 -0.3339574933052063 4456788 0 -1
-2.8217265605926514 1.8015104532241821 0.17982326447963715 4523353 0 -1
-2.8244667053222656 1.8032598495483398 0.10275615751743317 4590430 0 -1
-1.8461323976516724 2.7909634113311768 -0.20551231503486633 4590430 0 -1
-1.859656572341919 2.8114089965820312 -0.3112613558769226 4456788 0 -1
-2.8478634357452393 1.8181973695755005 0.20750758051872253 4523353 0 -1
-2.8502120971679688 1.8196969032287598 0.1556306779384613 4590430 0 -1
-1.8631219863891602 2.816648006439209 -0.23344601690769196 4590430 0 -1
-1.8631219863891602 2.816648006439209 -0.23344601690769196 4657508 0 -1
-1.8661969900131226 2.8212966918945312 -0.1296922266483307 4664956 0 -1
-1.8673489093780518 2.823038101196289 -0.051876895129680634 3757452 0 -1
-1.87881600856781 2.840373992919922 -0.28806641697883606 4456788 0 -1
-2.8999314308166504 1.793182373046875 0.23569069802761078 4523353 0 -1
3.366504669189453 1.515842318534851 -0.9337840676307678 4456788 0 -1
-1.343205451965332 3.396050214767456 1.0796878337860107 4456788 0 -1
3.3916468620300293 1.5271631479263306 -0.8170610666275024 4456788 0 -1
-2.8366200923919678 2.3212616443634033 1.1477762460708618 4456788 0 -1
-2.1234490871429443 2.964296340942383 1.2066365480422974 4456788 0 -1
3.408402919769287 1.5347079038619995 -0.8829048275947571 4456788 0 -1
-1.35468590259552 3.4250762462615967 1.0889159440994263 4456788 0 -1
3.437331199645996 1.5477335453033447 -0.7357540130615234 4456788 0 -1
-2.938779592514038 2.4643850326538086 0.20601113140583038 4456788 0 -1
-2.904665470123291 2.4357776641845703 -0.6180333495140076 4456788 0 -1
-2.9116599559783936 2.441643238067627 -0.559173047542572 4456788 0 -1
-2.824643135070801 2.4262170791625977 -0.9417651295661926 4590430 0 -1
-2.93990421295166 2.4653279781341553 -0.17658096551895142 4725613 0 -1
-3.1990773677825928 2.0424273014068604 0.5886031985282898 4471684 0 -1
-2.5651025772094727 2.809213638305664 0.5297428965568542 4471684 0 -1
-2.306375026702881 2.913670063018799 0.9711952805519104 4471684 0 -1
-2.819227933883667 2.655482053756714 -0.05935913696885109 4456788 0 -1
-2.9623754024505615 2.4841718673706055 0.23743654787540436 4456788 0 -1
-2.95923113822937 2.4815351963043213 0.29679569602012634 4456788 0 -1
-2.9750232696533203 2.4345197677612305 0.4748730957508087 4456788 0 -1
-2.988823413848877 2.445812702178955 0.29679569602012634 4456788 0 -1
-2.9750232696533203 2.4345197677612305 0.4748730957508087 4456788 0 -1
-2.9777705669403076 2.436768054962158 0.4451935291290283 4523353 0 -1
-2.982727527618408 2.440824270248413 0.38583439588546753 4590430 0 -1
-2.963684558868408 2.485269546508789 0.20775698125362396 4724328 0 -1
-2.9968442916870117 2.452376365661621 -0.08903870731592178 4726897 0 -1
-2.8371684551239014 2.612811326980591 0.35615482926368713 4471684 0 -1
-2.957395553588867 2.4799959659576416 0.32647526264190674 4341894 0 -1
-3.5829269886016846 1.5318113565444946 -0.2693607807159424 4456788 0 -1
3.4913954734802246 1.72538423538208 0.2992897629737854 4456788 0 -1
-2.987269401550293 2.50504732131958 0.23943181335926056 4456788 0 -1
-3.0196304321289062 2.471022605895996 0.17957386374473572 4456788 0 -1
-3.010021209716797 2.4631590843200684 0.35914772748947144 4456788 0 -1
-3.002794027328491 2.457245111465454 0.4489346444606781 4456788 0 -1
-3.010021209716797 2.4631590843200684 0.35914772748947144 4456788 0 -1
-2.9970712661743164 2.452562093734741 0.5087926387786865 4456788 0 -1
-3.002794027328491 2.457245111465454 0.4489346444606781 4523353 0 -1
-3.0077922344207764 2.4613354206085205 0.38907670974731445 4590430 0 -1
-3.0171420574188232 2.4689862728118896 0.23943181335926056 4724328 0 -1
-3.580918550491333 1.5309526920318604 0.2992897629737854 4471684 0 -1
-2.856602191925049 2.6307082176208496 0.41900569200515747 4471684 0 -1
-3.010021209716797 2.4631590843200684 0.35914772748947144 4341894 0 -1
-3.799975633621216 0.8991608619689941 0.08978693187236786 2912910 0 -1
-3.606064796447754 1.457283854484558 0.35914772748947144 2912910 0 -1
-2.9970712661743164 2.452562093734741 0.5087926387786865 2912910 0 -1
-2.8812105655670166 2.5933921337127686 0.4788636267185211 2912910 0 -1
-3.741680383682251 1.2279597520828247 0.06035676971077919 4456788 0 -1
-2.5982422828674316 2.8455071449279785 0.814816415309906 4456788 0 -1
3.228234052658081 2.254331111907959 0.09053515642881393 4456788 0 -1
-3.039055824279785 2.4869189262390137 0.30178385972976685 4456788 0 -1
-3.0070996284484863 2.521676540374756 0.3319622278213501 4456788 0 -1
-2.373096227645874 3.0586812496185303 0.7242812514305115 4456788 0 -1
-3.0407605171203613 2.488313913345337 0.2716054618358612 4456788 0 -1
-3.0328571796417236 2.481846570968628 0.392318993806839 4456788 0 -1
-3.0278172492980957 2.47772216796875 0.45267578959465027 4456788 0 -1
-3.030428409576416 2.479858875274658 0.42249739170074463 4456788 0 -1
-3.0220468044281006 2.4730000495910645 0.5130325555801392 4456788 0 -1
-3.0278172492980957 2.47772216796875 0.45267578959465027 4523353 0 -1
-3.030428409576416 2.479858875274658 0.42249739170074463 4590430 0 -1
-3.039055824279785 2.4869189262390137 0.30178385972976685 4657508 0 -1
-3.0407605171203613 2.488313913345337 0.2716054618358612 4724328 0 -1
-3.0949416160583496 2.284517288208008 0.8449947834014893 4471684 0 -1
-3.0155420303344727 2.467677116394043 0.5733892917633057 4471684 0 -1
-2.3551182746887207 3.0355095863342285 1.0041171312332153 4456788 0 -1
-3.0554730892181396 2.5003535747528076 0.4259890913963318 4456788 0 -1
-2.845396041870117 2.6801300048828125 0.6998392343521118 4456788 0 -1
-3.047022581100464 2.493438243865967 0.5172724723815918 4456788 0 -1
-2.8371078968048096 2.67232346534729 0.7606948614120483 4456788 0 -1
-3.0438361167907715 2.490830659866333 0.5477002859115601 4456788 0 -1
-2.8371078968048096 2.67232346534729 0.7606948614120483 4456788 0 -1
-3.029226779937744 2.4788756370544434 0.6694114804267883 4456788 0 -1
-2.828101873397827 2.6638405323028564 0.8215504288673401 4456788 0 -1
-3.047022581100464 2.493438243865967 0.5172724723815918 4523353 0 -1
-2.8669722080230713 2.640258312225342 0.7606948614120483 4523353 0 -1
-3.047022581100464 2.493438243865967 0.5172724723815918 4590430 0 -1
-2.8578712940216064 2.6318771839141846 0.8215504288673401 4590430 0 -1
-2.8906402587890625 2.7227466106414795 0 4725613 0 -1
-3.0068371295928955 2.521456241607666 0.6085558533668518 4726897 0 -1
-2.8990325927734375 2.669783353805542 0.4868446886539459 4471684 0 -1
-2.5758321285247803 2.9401469230651855 0.6998392343521118 4471684 0 -1
-2.944924831390381 2.7120466232299805 -0.030677201226353645 4456788 0 -1
-2.968604326248169 2.67205548286438 -0.27609482407569885 4456788 0 -1
-2.84930682182312 2.623990058898926 1.01234769821167 4456788 0 -1
-3.113511800765991 2.4850997924804688 -0.39880362153053284 4456788 0 -1
-2.965099573135376 2.668900966644287 -0.33744922280311584 4456788 0 -1
-3.115818977355957 2.486941337585449 -0.36812642216682434 4456788 0 -1
-2.983686685562134 2.6240074634552 -0.4908352196216583 4456788 0 -1
-2.96694016456604 2.670557737350464 -0.30677202343940735 4523353 0 -1
-2.837128162384033 2.612774133682251 1.073702096939087 4590430 0 -1
-2.9442331790924072 2.711409568786621 -0.09203160554170609 4724328 0 -1
-2.319427728652954 3.3029849529266357 0.03092660941183567 4456788 0 -1
-3.270416259765625 2.3488965034484863 0.2783394753932953 4456788 0 -1
-3.0276029109954834 2.6626298427581787 -0.18555966019630432 4456788 0 -1
-3.2778356075286865 2.3542253971099854 0.06185321882367134 4456788 0 -1
-2.9667747020721436 2.732168674468994 0.1546330451965332 4456788 0 -1
-3.2778356075286865 2.3542253971099854 -0.06185321882367134 4456788 0 -1
-3.270416259765625 2.3488965034484863 0.2783394753932953 4523353 0 -1
-2.9646806716918945 2.7302403450012207 0.21648626029491425 4590430 0 -1
-3.1202847957611084 2.5533900260925293 0.18555966019630432 4726897 0 -1
-2.865474224090576 2.6990420818328857 1.02880859375 4456788 0 -1
-2.301563262939453 3.2129404544830322 -0.9664565324783325 4456788 0 -1
-2.930201530456543 2.8221001625061035 0.06235203519463539 4456788 0 -1
-2.7883191108703613 2.626368284225464 1.3717447519302368 4456788 0 -1
-2.344132900238037 3.272367238998413 0.592344343662262 4456788 0 -1
-3.226179838180542 2.445755958557129 -0.4052882194519043 4456788 0 -1
-2.2972521781921387 3.33719801902771 0.37411221861839294 4523353 0 -1
-2.1959919929504395 3.190098285675049 1.2470407485961914 4590430 0 -1
-3.164138078689575 2.525507926940918 0.4052882194519043 4724328 0 -1
-2.2228527069091797 3.294106960296631 0.8729285001754761 4724328 0 -1
-3.115229368209839 2.549253225326538 0.592344343662262 4725613 0 -1
-2.3026866912841797 3.345093011856079 0.24940814077854156 4725613 0 -1
-3.1395204067230225 2.5691311359405518 0.31176018714904785 4726897 0 -1
-3.0904648303985596 2.5289878845214844 0.7794004678726196 4728182 0 -1
-3.001260995864868 2.7014501094818115 0.49881628155708313 4728182 0 -1
-2.988008499145508 2.751723289489746 -0.5656576752662659 4456788 0 -1
-2.3096606731414795 3.289076328277588 -0.8170610666275024 4456788 0 -1
-2.8861231803894043 2.6578948497772217 1.1941661834716797 4456788 0 -1
-2.8187129497528076 2.654996871948242 1.3512933254241943 4456788 0 -1
-2.295668601989746 3.204711675643921 1.1313153505325317 4456788 0 -1
-3.022073745727539 2.595799207687378 0.9741882085800171 4456788 0 -1
-3.357680320739746 2.3447256088256836 -0.2199779748916626 4456788 0 -1
-3.1015918254852295 2.6009151935577393 0.6599339246749878 4456788 0 -1
-3.319241523742676 2.3839643001556396 -0.3456796705722809 4456788 0 -1
-2.401503801345825 3.2863519191741943 -0.5028068423271179 4456788 0 -1
-2.4588820934295654 3.2332763671875 0.5656576752662659 4523353 0 -1
-2.3391270637512207 3.331037998199463 0.5028068423271179 4523353 0 -1
-2.343982458114624 3.08219051361084 1.3512933254241943 4590430 0 -1
-2.237577199935913 3.1864256858825684 1.2884424924850464 4590430 0 -1
-2.1597440242767334 3.2005844116210938 1.3827186822891235 4657508 0 -1
-3.0975699424743652 2.5975425243377686 0.6913593411445618 4724328 0 -1
-2.1946561336517334 3.252321720123291 1.1941661834716797 4724328 0 -1
-2.9846982955932617 2.7486748695373535 0.5970830917358398 4725613 0 -1
-3.1188361644744873 2.6153757572174072 0.5028068423271179 4726897 0 -1
-2.313915491104126 3.3614048957824707 0.4085305333137512 4728182 0 -1
-3.2552707195281982 2.4678096771240234 0.6334967017173767 4456788 0 -1
-3.058103084564209 2.5644466876983643 1.076944351196289 4456788 0 -1
-2.9293923377990723 2.697742462158203 1.108619213104248 4456788 0 -1
3.7306015491485596 1.7625527381896973 0.25339868664741516 4456788 0 -1
-3.130068063735962 2.6247944831848145 0.6334967017173767 4456788 0 -1
-2.29728627204895 3.206969738006592 1.2353185415267944 4456788 0 -1
-3.1088240146636963 2.6069798469543457 0.7918708324432373 4456788 0 -1
-3.0819649696350098 2.5220322608947754 1.108619213104248 4456788 0 -1
-3.0819649696350098 2.5220322608947754 1.108619213104248 4456788 0 -1
-3.3876149654388428 2.3656294345855713 -0.12669934332370758 4456788 0 -1
-3.224757194519043 2.573892116546631 -0.25339868664741516 4456788 0 -1
-3.3322043418884277 2.3932743072509766 -0.5067973732948303 4456788 0 -1
-2.4353017807006836 3.2022695541381836 0.9502450227737427 4523353 0 -1
-3.093723773956299 2.5943171977996826 -0.8868953585624695 4590430 0 -1
-2.5020179748535156 3.2899975776672363 0.06334967166185379 4590430 0 -1
-3.1039886474609375 2.6029250621795654 0.8235456943511963 4724328 0 -1
-2.3212270736694336 3.3055474758148193 1.021575689315796 4456788 0 -1
-2.419109344482422 3.37703275680542 0.3192424178123474 4456788 0 -1
-2.3942477703094482 3.4095327854156494 0.03192424029111862 4456788 0 -1
-2.137869119644165 3.363957405090332 1.2131211757659912 4456788 0 -1
-2.360053300857544 3.360837936401367 0.7023333311080933 4456788 0 -1
-3.1584107875823975 2.64856219291687 -0.6065605878829956 4456788 0 -1
-3.306056261062622 2.506309986114502 -0.38309091329574585 4456788 0 -1
-3.123356580734253 2.619166612625122 0.8619545102119446 4724328 0 -1
-2.3298537731170654 3.4526748657226562 0.09577272832393646 4725613 0 -1
-2.440598964691162 3.407032012939453 0.2573891878128052 4456788 0 -1
-2.41125226020813 3.4337477684020996 0.16086825728416443 4456788 0 -1
-3.3549749851226807 2.2090799808502197 -1.222598671913147 4456788 0 -1
-2.5398523807525635 3.339747190475464 0.16086825728416443 4456788 0 -1
-2.4104721546173096 3.4326372146606445 0.19304190576076508 4456788 0 -1
3.715264081954956 1.8360159397125244 -0.6756466627120972 4725613 0 -1
-2.398179054260254 3.483813762664795 0.1296922266483307 4456788 0 -1
-3.1773111820220947 2.6644113063812256 0.8429995179176331 4657508 0 -1
-2.9167044162750244 3.0628511905670166 -0.1296922266483307 4657508 0 -1
-2.4230761528015137 3.4505858421325684 0.35665363073349 4725613 0 -1
-2.48606276512146 3.402066946029663 0.6534493565559387 4657508 0 -1
-3.389359951019287 2.6372528076171875 -0.1316874921321869 4456788 0 -1
-2.4896183013916016 3.475461721420288 0.427984356880188 4456788 0 -1
-2.513385534286499 3.4394571781158447 0.5596718788146973 4657508 0 -1
-3.3818812370300293 2.699303150177002 -0.132685124874115 4456788 0 -1
-2.5150156021118164 3.510916233062744 0.2985415458679199 4456788 0 -1
-3.2886664867401123 2.8922226428985596 0.9981313943862915 4456788 0 -1
-3.242128372192383 2.85129451751709 1.2390596866607666 4456788 0 -1
-3.2886664867401123 2.8922226428985596 0.9981313943862915 4523353 0 -1
-3.3064565658569336 2.9078681468963623 1.040031909942627 4456788 0 -1
-3.2502288818359375 2.8584187030792236 1.3173737525939941 4456788 0 -1
-3.312497615814209 2.9131808280944824 1.005364179611206 4523353 0 -1
-4.37833309173584 2.5298309326171875 -1.4949524402618408 4456788 0 -1
-4.730522632598877 1.6777652502059937 1.6161648035049438 4590430 0 -1
4.9110026359558105 1.7417758703231812 0.8080824017524719 4657508 0 -1
-4.157389163970947 3.068758249282837 1.0505070686340332 4724328 0 -1
-3.8534772396087646 3.3099303245544434 1.4141441583633423 4724328 0 -1
-2.30757212638855 4.457336902618408 1.6161648035049438 4724328 0 -1
3.504823923110962 3.918888807296753 -0.40404120087623596 4724328 0 -1
4.852017879486084 1.9607988595962524 0.6464658975601196 4724328 0 -1
-3.331141710281372 4.124467849731445 0.2032676339149475 4456788 0 -1
-2.520444631576538 4.66848611831665 0.0406535267829895 4456788 0 -1
-4.593713760375977 2.6542794704437256 -0.0406535267829895 4456788 0 -1
-3.1384146213531494 3.8858416080474854 1.788755178451538 4657508 0 -1
-3.023594617843628 3.9758379459381104 1.788755178451538 4724328 0 -1
-3.372657537460327 4.0924072265625 -0.162614107131958 4725613 0 -1
-3.1858363151550293 4.273636817932129 0.2863205373287201 4456788 0 -1
-3.3515782356262207 4.149771213531494 0.20451468229293823 4456788 0 -1
-3.5568835735321045 3.9770987033843994 -0.1636117398738861 4456788 0 -1
-3.3524649143218994 4.150868892669678 -0.1636117398738861 4456788 0 -1
-4.621895790100098 2.670563220977783 -0.04090293496847153 4456788 0 -1
-3.349212646484375 4.146842002868652 -0.2863205373287201 4523353 0 -1
-3.394544839859009 4.1189656257629395 -0.08180586993694305 4725613 0 -1
-4.620810508728027 2.669935941696167 0.12270880490541458 4471684 0 -1
-3.9100472927093506 3.600849151611328 -0.4908352196216583 4471684 0 -1
-3.5585553646087646 3.9789681434631348 0 4471684 0 -1
-3.4972965717315674 3.9919393062591553 -0.823046863079071 4456788 0 -1
-3.3744921684265137 4.178142070770264 0 4456788 0 -1
-3.580148696899414 4.00311279296875 -0.04115234315395355 4456788 0 -1
-3.785015106201172 3.808213233947754 0.12345702946186066 4456788 0 -1
-3.5764682292938232 3.998997211456299 -0.2469140589237213 4456788 0 -1
-4.648985862731934 2.686216115951538 0.12345702946186066 4456788 0 -1
-3.5052778720855713 4.001049518585205 0.7407422065734863 4456788 0 -1
-3.5353593826293945 4.035385608673096 -0.2469140589237213 4523353 0 -1
-3.785015106201172 3.808213233947754 -0.12345702946186066 4657508 0 -1
-2.4644970893859863 4.76045560836792 0.3292187452316284 4657508 0 -1
-3.737820625305176 3.842444658279419 -0.3292187452316284 4724328 0 -1
-2.6336727142333984 4.6803998947143555 0.04115234315395355 4724328 0 -1
-3.790591239929199 3.7318613529205322 -0.7407422065734863 4725613 0 -1
-3.580148696899414 4.00311279296875 0.04115234315395355 4725613 0 -1
-4.177985191345215 3.334726572036743 0.7866332530975342 4456788 0 -1
-3.7069597244262695 3.7296793460845947 1.2420525550842285 4456788 0 -1
-3.519148826599121 4.10004186630249 0 4456788 0 -1
-3.817556619644165 3.758409023284912 0.7038297653198242 4456788 0 -1
-3.850362777709961 3.7907071113586426 0 4456788 0 -1
-4.673450946807861 2.700352191925049 0.24841050803661346 4456788 0 -1
-3.494611978530884 3.988875150680542 1.0350438356399536 4456788 0 -1
-3.8493454456329346 3.789705276489258 0.12420525401830673 4523353 0 -1
-3.9688467979431152 3.654999017715454 0.28981226682662964 4590430 0 -1
-3.9688467979431152 3.654999017715454 0.28981226682662964 4590430 0 -1
-4.050602912902832 3.3967316150665283 1.1178473234176636 4657508 0 -1
-3.038302421569824 4.502544403076172 0.208255797624588 4456788 0 -1
-2.901597261428833 4.299957275390625 -1.6243952512741089 4456788 0 -1
-4.377405643463135 3.1439647674560547 0.7080697417259216 4456788 0 -1
-3.88358211517334 3.6580164432525635 1.0412789583206177 4456788 0 -1
-3.998394012451172 3.6822097301483154 -0.0416511595249176 4456788 0 -1
-4.704370021820068 2.718217134475708 0.1666046380996704 4456788 0 -1
-4.523820877075195 2.978705644607544 0.45816275477409363 4456788 0 -1
-3.9974546432495117 3.681344747543335 -0.12495347857475281 4523353 0 -1
-3.994283437728882 3.678424119949341 0.24990695714950562 4590430 0 -1
-4.253516674041748 3.3096508979797363 0.7080697417259216 4657508 0 -1
-3.216858386993408 4.40212869644165 0.41900569200515747 4456788 0 -1
-3.012498140335083 4.554262638092041 0.2933039665222168 4456788 0 -1
-3.1340458393096924 4.121074676513672 -1.7598237991333008 4456788 0 -1
-4.036564350128174 3.3849589824676514 1.466519832611084 4456788 0 -1
-3.9804370403289795 3.7492458820343018 0.04190056771039963 4456788 0 -1
-4.1889495849609375 3.5127453804016113 0.12570171058177948 4456788 0 -1
-4.022336483001709 3.704258918762207 -0.04190056771039963 4456788 0 -1
-4.569791793823242 2.9175498485565186 -0.7123096585273743 4456788 0 -1
-3.9805538654327393 3.7493560314178467 0 4523353 0 -1
-3.977915048599243 3.3357772827148438 1.7179232835769653 4590430 0 -1
-3.977915048599243 3.3357772827148438 1.7179232835769653 4590430 0 -1
-4.222387790679932 3.2854294776916504 1.1313153505325317 4657508 0 -1
5.0452561378479 1.9166704416275024 0.8799118995666504 4724328 0 -1
-2.960763454437256 4.566403388977051 -0.8008495569229126 4456788 0 -1
-3.3525400161743164 4.321085453033447 -0.5900996923446655 4456788 0 -1
-3.624472141265869 4.137102127075195 -0.0842999517917633 4456788 0 -1
-3.3525400161743164 4.321085453033447 -0.5900996923446655 4456788 0 -1
-3.1532585620880127 4.401891708374023 -0.9694494605064392 4456788 0 -1
-3.6248979568481445 4.137588024139404 0 4456788 0 -1
-3.3144896030426025 4.272042274475098 -1.0115994215011597 4456788 0 -1
-3.5722148418426514 4.161867618560791 0.42149975895881653 4456788 0 -1
-3.3711071014404297 4.3450164794921875 -0.12644992768764496 4456788 0 -1
-4.034508228302002 3.548153877258301 1.180199384689331 4456788 0 -1
-4.172725200653076 3.5841469764709473 -0.04214997589588165 4456788 0 -1
-4.605770587921143 2.9405200481414795 -0.632249653339386 4456788 0 -1
-4.19365930557251 3.179198741912842 1.6016991138458252 4590430 0 -1
-4.4949493408203125 2.9596951007843018 1.1380493640899658 4724328 0 -1
5.088435173034668 1.8047053813934326 1.053749442100525 4724328 0 -1
-3.475116014480591 4.302730083465576 0.1695975363254547 4456788 0 -1
-3.208702325820923 4.479290008544922 0.5087926387786865 4456788 0 -1
-2.974797010421753 4.588047504425049 -0.847987711429596 4456788 0 -1
-3.356689691543579 4.156099796295166 -1.4415791034698486 4456788 0 -1
-2.9929850101470947 4.6160993576049805 0.5935913920402527 4456788 0 -1
-2.9508302211761475 4.643159866333008 0.5935913920402527 4456788 0 -1
-3.3819785118103027 4.3590288162231445 -0.423993855714798 4456788 0 -1
-3.646239995956421 4.1619486808776855 0.04239938408136368 4456788 0 -1
-3.171916961669922 4.427938461303711 0.9751858115196228 4456788 0 -1
-2.93289852142334 4.614943504333496 0.847987711429596 4456788 0 -1
-3.3918511867523193 4.371753692626953 0.04239938408136368 4456788 0 -1
-3.391054391860962 4.370726585388184 -0.12719815969467163 4456788 0 -1
-3.6410980224609375 4.1560797691345215 -0.29679569602012634 4456788 0 -1
-3.4294064044952393 4.332408905029297 -0.29679569602012634 4456788 0 -1
-3.1791136264801025 4.527222156524658 0.12719815969467163 4456788 0 -1
-4.647336006164551 2.967057228088379 -0.46639323234558105 4456788 0 -1
-3.5613765716552734 4.149240493774414 0.847987711429596 4456788 0 -1
-3.5695042610168457 4.158709526062012 0.763188898563385 4456788 0 -1
-4.601954936981201 3.0301525592803955 0.5087926387786865 4456788 0 -1
-4.652828693389893 2.970564126968384 -0.3815944492816925 4523353 0 -1
-3.527510166168213 4.1943888664245605 0.763188898563385 4523353 0 -1
-4.471346378326416 2.9441535472869873 1.3991796970367432 4724328 0 -1
-4.489259719848633 2.9559485912323 1.3143808841705322 4725613 0 -1
-4.4058356285095215 3.0766706466674805 -1.450058937072754 4456788 0 -1
-3.2397854328155518 4.522681713104248 0.1705951690673828 4456788 0 -1
-3.378096103668213 4.099006175994873 -1.6633028984069824 4456788 0 -1
