VERSION .7
FIELDS x y z rgb label object
SIZE 4 4 4 4 4 4
TYPE F F F I I I
COUNT 1 1 1 1 1 1
WIDTH 684
HEIGHT 1
POINTS 684
VIEWPOINT 0 0 0 1 0 0 0
DATA ascii
-1.8660717010498047 2.1300010681152344 0 4657508 0 -1
-1.937981128692627 2.6520416736602783 -0.48335298895835876 4456788 0 -1
-1.9421615600585938 2.657762289047241 -0.43247371912002563 4456788 0 -1
-1.9281915426254272 2.6386449337005615 -0.5851114988327026 4456788 0 -1
-1.8262684345245361 2.7609331607818604 -0.25439631938934326 4456788 0 -1
-1.8303086757659912 2.767040967941284 -0.12719815969467163 4456788 0 -1
-1.9195847511291504 2.6268668174743652 -0.6614304184913635 4456788 0 -1
-1.7244139909744263 2.606950521469116 -1.1193437576293945 4456788 0 -1
-1.8645751476287842 2.551588773727417 1.017585277557373 4523353 0 -1
-1.9132366180419922 2.6181797981262207 -0.7123096585273743 4590430 0 -1
-1.8951945304870605 2.5934898853302 -0.8395078182220459 4724328 0 -1
-1.8596752882003784 2.5448834896087646 -1.0430248975753784 4728182 0 -1
-1.8482528924942017 2.7941689491271973 -0.12844519317150116 4456788 0 -1
-1.8461323976516724 2.7909634113311768 -0.20551231503486633 4456788 0 -1
-1.8404115438461304 2.7823145389556885 -0.3339574933052063 4456788 0 -1
-1.8255083560943604 2.759783983230591 -0.539469838142395 4456788 0 -1
-1.8476550579071045 2.7932651042938232 -0.15413422882556915 4456788 0 -1
-1.846948266029358 2.792196750640869 -0.17982326447963715 4456788 0 -1
-1.8487417697906494 2.794908046722412 -0.10275615751743317 4590430 0 -1
-1.8476550579071045 2.7932651042938232 -0.15413422882556915 4724328 0 -1
-1.846948266029358 2.792196750640869 -0.17982326447963715 4725613 0 -1
-1.8441729545593262 2.78800106048584 -0.2568903863430023 4728182 0 -1
-1.8452074527740479 2.789564847946167 -0.23120135068893433 4729209 0 -1
-1.865593433380127 2.8203842639923096 -0.1556306779384613 4456788 0 -1
-1.865593433380127 2.8203842639923096 -0.1556306779384613 4456788 0 -1
-1.8357173204421997 2.7752180099487305 -0.6225227117538452 4456788 0 -1
-1.8915044069290161 2.803072690963745 -0.1556306779384613 4456788 0 -1
-1.8889987468719482 2.7993595600128174 -0.23344601690769196 4456788 0 -1
-1.8582795858383179 2.8093273639678955 -0.3371998071670532 4456788 0 -1
-1.8907809257507324 2.8020005226135254 -0.18156912922859192 4456788 0 -1
-1.8899457454681396 2.800762891769409 -0.20750758051872253 4456788 0 -1
-1.8926169872283936 2.8047215938568115 -0.10375379025936127 4523353 0 -1
-1.8915044069290161 2.803072690963745 -0.1556306779384613 4590430 0 -1
-1.8915044069290161 2.803072690963745 -0.1556306779384613 4724328 0 -1
-1.8907809257507324 2.8020005226135254 -0.18156912922859192 4725613 0 -1
-1.8915044069290161 2.803072690963745 -0.1556306779384613 4728182 0 -1
-1.8915044069290161 2.803072690963745 -0.1556306779384613 4729209 0 -1
-1.908961534500122 2.8289427757263184 -0.1833149790763855 4456788 0 -1
-1.910309910774231 2.8309409618377686 -0.1309392750263214 4456788 0 -1
-1.908961534500122 2.8289427757263184 -0.1833149790763855 4456788 0 -1
-1.9060930013656616 2.8246920108795166 -0.2618785500526428 4456788 0 -1
-1.8775379657745361 2.838441848754883 -0.3142542541027069 4456788 0 -1
-1.908961534500122 2.8289427757263184 -0.1833149790763855 4456788 0 -1
-1.9081182479858398 2.827693223953247 -0.20950284600257874 4456788 0 -1
-1.881036639213562 2.843731164932251 -0.23569069802761078 4456788 0 -1
-1.9096919298171997 2.8300254344940186 -0.15712712705135345 4523353 0 -1
-1.908961534500122 2.8289427757263184 -0.1833149790763855 4590430 0 -1
-1.9081182479858398 2.827693223953247 -0.20950284600257874 4657508 0 -1
-1.908961534500122 2.8289427757263184 -0.1833149790763855 4724328 0 -1
-1.908961534500122 2.8289427757263184 -0.1833149790763855 4725613 0 -1
-1.9096919298171997 2.8300254344940186 -0.15712712705135345 4728182 0 -1
-2.0255446434020996 2.7718684673309326 -0.3436844050884247 4456788 0 -1
-1.9242463111877441 2.8515939712524414 -0.2643726170063019 4456788 0 -1
-2.020312786102295 2.7647087574005127 -0.4229962229728699 4456788 0 -1
-1.9285032749176025 2.8579025268554688 -0.13218630850315094 4456788 0 -1
-1.9271420240402222 2.8558852672576904 -0.18506084382534027 4456788 0 -1
-1.925325632095337 2.8531932830810547 -0.2379353642463684 4456788 0 -1
-1.9262908697128296 2.854623794555664 -0.21149811148643494 4456788 0 -1
-2.030822992324829 2.7790913581848145 -0.2379353642463684 4456788 0 -1
-1.9285032749176025 2.8579025268554688 -0.13218630850315094 4456788 0 -1
-1.9285032749176025 2.8579025268554688 -0.13218630850315094 4456788 0 -1
-2.950437068939209 1.76481032371521 0.29080989956855774 4456788 0 -1
-1.9278795719146729 2.856977939605713 -0.1586235761642456 4456788 0 -1
-1.9285032749176025 2.8579025268554688 -0.13218630850315094 4523353 0 -1
-1.9285032749176025 2.8579025268554688 -0.13218630850315094 4590430 0 -1
-2.034174680709839 2.7836782932281494 -0.13218630850315094 4657508 0 -1
-1.9278795719146729 2.856977939605713 -0.1586235761642456 4657508 0 -1
-2.0327389240264893 2.7817134857177734 -0.18506084382534027 4724328 0 -1
-1.9285032749176025 2.8579025268554688 -0.13218630850315094 4724328 0 -1
-1.9285032749176025 2.8579025268554688 -0.13218630850315094 4725613 0 -1
-2.0638248920440674 2.7685155868530273 -0.45367342233657837 4456788 0 -1
-1.9653282165527344 2.636387348175049 -1.1475268602371216 4456788 0 -1
-1.9453226327896118 2.8828275203704834 -0.18680669367313385 4456788 0 -1
-2.078563928604126 2.788287401199341 -0.18680669367313385 4456788 0 -1
-1.9315283298492432 2.8623852729797363 -0.45367342233657837 4456788 0 -1
-2.059382438659668 2.762556552886963 -0.5070467591285706 4456788 0 -1
-1.884818434715271 2.7931647300720215 -0.8806601762771606 4456788 0 -1
-2.937932252883911 1.7573306560516357 -0.640480101108551 4456788 0 -1
-2.804978132247925 1.9028947353363037 -0.8006001114845276 4456788 0 -1
-2.0754406452178955 2.784097671508789 -0.2668667137622833 4523353 0 -1
-1.9120491743087769 2.8335187435150146 -0.6671667695045471 4523353 0 -1
-2.0638248920440674 2.7685155868530273 -0.45367342233657837 4590430 0 -1
-1.9913676977157593 2.6713180541992188 1.0140935182571411 4724328 0 -1
-2.033087968826294 2.7272837162017822 0.7472267746925354 4725613 0 -1
-2.078563928604126 2.788287401199341 -0.18680669367313385 4728182 0 -1
-1.9176348447799683 2.8417961597442627 -0.6137934327125549 4728182 0 -1
-2.2245750427246094 2.6993155479431152 0.35016903281211853 4456788 0 -1
-2.326477527618408 2.547879457473755 0.6734020113945007 4456788 0 -1
-2.2007014751434326 2.670346975326538 0.6195298433303833 4456788 0 -1
-2.3451199531555176 2.568296194076538 -0.5117855072021484 4456788 0 -1
-2.2007014751434326 2.670346975326538 0.6195298433303833 4456788 0 -1
-2.3371996879577637 2.6133196353912354 0.5437097549438477 4456788 0 -1
-2.1999826431274414 2.6694750785827637 0.7883791327476501 4456788 0 -1
-2.4304935932159424 2.5522780418395996 0.6310026049613953 4456788 0 -1
-2.3316922187805176 2.716576337814331 0.05486978963017464 4456788 0 -1
-2.9283785820007324 2.455662965774536 0.3825920820236206 4456788 0 -1
-2.941633462905884 2.466778039932251 0.11772064119577408 4456788 0 -1
-2.908252239227295 2.4387855529785156 -0.5886031985282898 4456788 0 -1
-2.914889335632324 2.4443511962890625 -0.5297428965568542 4456788 0 -1
-2.9235122203826904 2.451582193374634 -0.44145241379737854 4456788 0 -1
-2.9008989334106445 2.432619333267212 -0.6474635601043701 4657508 0 -1
-2.930548667907715 2.4574828147888184 0.35316193103790283 4724328 0 -1
-2.941633462905884 2.466778039932251 0.11772064119577408 4728182 0 -1
-2.8371684551239014 2.612811326980591 0.35615482926368713 4456788 0 -1
-2.942668914794922 2.467646598815918 0.5045526623725891 4456788 0 -1
-2.9623754024505615 2.4841718673706055 0.23743654787540436 4456788 0 -1
-2.955383777618408 2.478308916091919 0.35615482926368713 4456788 0 -1
-2.960891008377075 2.482927083969116 0.26711612939834595 4456788 0 -1
-2.9803385734558105 2.4388694763183594 0.4155139625072479 4456788 0 -1
-2.9720957279205322 2.432124137878418 0.5045526623725891 4456788 0 -1
-2.9777705669403076 2.436768054962158 0.4451935291290283 4523353 0 -1
-2.9720957279205322 2.432124137878418 0.5045526623725891 4590430 0 -1
-2.9720957279205322 2.432124137878418 0.5045526623725891 4657508 0 -1
-2.942668914794922 2.467646598815918 0.5045526623725891 4724328 0 -1
-2.957395553588867 2.4799959659576416 0.32647526264190674 4728182 0 -1
-2.9455676078796387 2.4700772762298584 0.4748730957508087 4341894 0 -1
-2.9871201515197754 2.4444189071655273 0.5985795259475708 4456788 0 -1
-2.8610100746154785 2.634767770767212 0.35914772748947144 4456788 0 -1
-2.9871201515197754 2.4444189071655273 0.5985795259475708 4456788 0 -1
-3.002794027328491 2.457245111465454 0.4489346444606781 4456788 0 -1
-3.0120701789855957 2.4648358821868896 0.3292187452316284 4456788 0 -1
-3.002794027328491 2.457245111465454 0.4489346444606781 4456788 0 -1
-3.0077922344207764 2.4613354206085205 0.38907670974731445 4456788 0 -1
-3.002794027328491 2.457245111465454 0.4489346444606781 4456788 0 -1
-3.000023365020752 2.4549779891967773 0.4788636267185211 4456788 0 -1
-3.000023365020752 2.4549779891967773 0.4788636267185211 4523353 0 -1
-3.000023365020752 2.4549779891967773 0.4788636267185211 4590430 0 -1
-2.9939370155334473 2.4499974250793457 0.5387215614318848 4657508 0 -1
-2.9939370155334473 2.4499974250793457 0.5387215614318848 4724328 0 -1
-3.0077922344207764 2.4613354206085205 0.38907670974731445 4728182 0 -1
-3.000023365020752 2.4549779891967773 0.4788636267185211 4341894 0 -1
-3.0278172492980957 2.47772216796875 0.45267578959465027 4456788 0 -1
-3.0250236988067627 2.475435972213745 0.4828541576862335 4456788 0 -1
-3.030428409576416 2.479858875274658 0.42249739170074463 4456788 0 -1
-3.0328571796417236 2.481846570968628 0.392318993806839 4456788 0 -1
-3.0278172492980957 2.47772216796875 0.45267578959465027 4456788 0 -1
-3.0278172492980957 2.47772216796875 0.45267578959465027 4456788 0 -1
-3.0278172492980957 2.47772216796875 0.45267578959465027 4456788 0 -1
-3.0278172492980957 2.47772216796875 0.45267578959465027 4456788 0 -1
-3.0250236988067627 2.475435972213745 0.4828541576862335 4523353 0 -1
-3.0250236988067627 2.475435972213745 0.4828541576862335 4590430 0 -1
-2.9921257495880127 2.5091195106506348 0.5130325555801392 4657508 0 -1
-3.0220468044281006 2.4730000495910645 0.5130325555801392 4724328 0 -1
-3.0278172492980957 2.47772216796875 0.45267578959465027 4341894 0 -1
-2.8529722690582275 2.6872663497924805 0.6389836668968201 4456788 0 -1
-3.0226144790649414 2.534686803817749 0.45641690492630005 4456788 0 -1
-2.8529722690582275 2.6872663497924805 0.6389836668968201 4456788 0 -1
-3.0226144790649414 2.534686803817749 0.45641690492630005 4456788 0 -1
-2.845396041870117 2.6801300048828125 0.6998392343521118 4456788 0 -1
-3.0500237941741943 2.495894193649292 0.4868446886539459 4456788 0 -1
-2.8371078968048096 2.67232346534729 0.7606948614120483 4456788 0 -1
-2.841341257095337 2.6763110160827637 0.7302670478820801 4456788 0 -1
-3.047022581100464 2.493438243865967 0.5172724723815918 4456788 0 -1
-3.0136990547180176 2.5272104740142822 0.5477002859115601 4523353 0 -1
-2.841341257095337 2.6763110160827637 0.7302670478820801 4523353 0 -1
-3.0168540477752686 2.5298562049865723 0.5172724723815918 4590430 0 -1
-2.841341257095337 2.6763110160827637 0.7302670478820801 4590430 0 -1
-3.0103602409362793 2.5244107246398926 0.5781280994415283 4657508 0 -1
-2.828101873397827 2.6638405323028564 0.8215504288673401 4657508 0 -1
-3.2814712524414062 2.226147174835205 -0.2129945456981659 4724328 0 -1
-2.841341257095337 2.6763110160827637 0.7302670478820801 4724328 0 -1
-2.886563539505005 2.6583003997802734 0.6085558533668518 4341894 0 -1
-3.251089572906494 2.270291566848755 -0.5521896481513977 4456788 0 -1
-2.404980182647705 3.09977650642395 0.7976072430610657 4456788 0 -1
-3.2330188751220703 2.3220369815826416 0.42948082089424133 4456788 0 -1
-2.4190547466278076 3.11791729927063 0.6748984456062317 4456788 0 -1
-3.278989791870117 2.2897746562957764 0.18406321108341217 4456788 0 -1
-2.884850025177002 2.596668004989624 0.9816704392433167 4456788 0 -1
-2.688157558441162 2.943979263305664 0.36812642216682434 4456788 0 -1
-2.25818133354187 3.2157669067382812 0.7669300436973572 4456788 0 -1
-2.8661458492279053 2.6394975185394287 0.9203160405158997 4456788 0 -1
-2.361034631729126 3.2309718132019043 0.12270880490541458 4456788 0 -1
-3.08829927444458 2.4649760723114014 0.6442212462425232 4456788 0 -1
-2.983686685562134 2.6240074634552 -0.4908352196216583 4456788 0 -1
-3.2114450931549072 2.2426071166992188 0.8282844424247742 4523353 0 -1
-3.243687152862549 2.265122175216675 0.6135440468788147 4590430 0 -1
-2.8661458492279053 2.6394975185394287 0.9203160405158997 4590430 0 -1
-3.2576987743377686 2.274906873703003 -0.4908352196216583 4657508 0 -1
-2.6967391967773438 2.9533777236938477 0.18406321108341217 4657508 0 -1
-2.3792576789855957 3.0666229724884033 0.9816704392433167 4657508 0 -1
-3.260707139968872 2.277007579803467 -0.46015802025794983 4724328 0 -1
-3.0063657760620117 2.6439526081085205 0 4341894 0 -1
-2.7440149784088135 2.820821523666382 0.7362528443336487 4341894 0 -1
-2.334845781326294 3.259402275085449 0.4638991355895996 4456788 0 -1
-3.2016093730926514 2.235738754272461 -1.020578145980835 4456788 0 -1
-2.3177928924560547 3.300656795501709 0.1546330451965332 4456788 0 -1
-2.319223403930664 3.3026938438415527 -0.06185321882367134 4456788 0 -1
-2.319223403930664 3.3026938438415527 -0.06185321882367134 4456788 0 -1
-2.312676429748535 3.2933709621429443 0.3092660903930664 4456788 0 -1
-2.347038984298706 3.276423692703247 0.21648626029491425 4456788 0 -1
-2.311241865158081 3.291327953338623 0.3401927053928375 4456788 0 -1
-2.312676429748535 3.2933709621429443 0.3092660903930664 4523353 0 -1
-2.3460021018981934 3.2749764919281006 0.24741287529468536 4590430 0 -1
-2.315133810043335 3.296870231628418 0.24741287529468536 4724328 0 -1
-2.3177928924560547 3.300656795501709 0.1546330451965332 4725613 0 -1
-3.310669422149658 2.311897039413452 -0.49881628155708313 4456788 0 -1
-2.578401565551758 3.1286511421203613 -0.3429361879825592 4456788 0 -1
-3.227428913116455 2.2537689208984375 -1.02880859375 4456788 0 -1
-2.526236057281494 3.1278700828552246 -0.6235203742980957 4456788 0 -1
-2.5316269397735596 3.071894407272339 -0.8417524695396423 4456788 0 -1
-2.337583541870117 3.3288397789001465 0.09352805465459824 4456788 0 -1
-2.338132619857788 3.3296217918395996 -0.031176017597317696 4456788 0 -1
-2.328295946121216 3.3156139850616455 0.37411221861839294 4456788 0 -1
-2.527353048324585 3.0667083263397217 -0.8729285001754761 4456788 0 -1
-2.3348355293273926 3.3249263763427734 0.21823212504386902 4456788 0 -1
-3.3037846088409424 2.3728628158569336 -0.09352805465459824 4456788 0 -1
-2.585709810256958 3.137518882751465 0.15588009357452393 4456788 0 -1
-2.328295946121216 3.3156139850616455 0.37411221861839294 4456788 0 -1
-2.5704610347747803 3.11901593208313 -0.4676402509212494 4523353 0 -1
-2.328295946121216 3.3156139850616455 0.37411221861839294 4523353 0 -1
-3.3295605182647705 2.3250892162323 0.24940814077854156 4590430 0 -1
-2.5505783557891846 3.0948903560638428 -0.6858723759651184 4590430 0 -1
-2.3348355293273926 3.3249263763427734 0.21823212504386902 4590430 0 -1
-2.543478488922119 3.086275339126587 -0.7482244372367859 4657508 0 -1
-2.335728883743286 3.3261988162994385 0.18705610930919647 4657508 0 -1
-3.204961061477661 2.1742427349090576 -1.2470407485961914 4725613 0 -1
-2.535738706588745 3.0768837928771973 -0.8105764389038086 4725613 0 -1
-2.3348355293273926 3.3249263763427734 0.21823212504386902 4725613 0 -1
-2.9469573497772217 2.838238000869751 -0.28282883763313293 4456788 0 -1
-2.5743212699890137 3.1237001419067383 0.6599339246749878 4456788 0 -1
-2.8417322635650635 2.6766791343688965 1.2570170164108276 4456788 0 -1
-3.2320597171783447 2.257002592086792 1.1313153505325317 4456788 0 -1
-2.9798011779785156 2.8067288398742676 -0.25140342116355896 4456788 0 -1
-2.6070849895477295 3.1634557247161865 -0.12570171058177948 4456788 0 -1
-3.3302149772644043 2.391845703125 -0.09427627921104431 4456788 0 -1
-3.216824769973755 2.246363878250122 1.1941661834716797 4523353 0 -1
-2.7829525470733643 2.9846982955932617 -0.4085305333137512 4523353 0 -1
-2.6063954830169678 3.162619113922119 -0.15712712705135345 4523353 0 -1
-2.4095070362091064 3.2973039150238037 -0.37710511684417725 4523353 0 -1
-3.2662816047668457 2.280900478363037 0.9741882085800171 4590430 0 -1
-3.1075427532196045 2.4803354740142822 -1.0056136846542358 4590430 0 -1
-2.600641965866089 3.1556379795074463 -0.3142542541027069 4590430 0 -1
-3.3561971187591553 2.3436899185180664 0.25140342116355896 4657508 0 -1
-2.957702398300171 2.8485865592956543 -0.47512251138687134 4456788 0 -1
-2.533912420272827 3.2659571170806885 -0.031674835830926895 4456788 0 -1
-3.322340726852417 2.452371120452881 -0.19004900753498077 4456788 0 -1
-3.083199977874756 2.4609057903289795 1.2353185415267944 4523353 0 -1
-3.2614362239837646 2.34244704246521 0.9819198250770569 4590430 0 -1
-3.075035572052002 2.516361713409424 1.140294075012207 4590430 0 -1
-2.4987099170684814 3.285647392272949 0.22172383964061737 4590430 0 -1
-3.270028591156006 2.875831365585327 1.101386308670044 4456788 0 -1
-3.294450283050537 2.8973090648651123 0.9637130498886108 4523353 0 -1
-3.293724536895752 2.8966708183288574 1.1093673706054688 4456788 0 -1
-3.3064565658569336 2.9078681468963623 1.040031909942627 4523353 0 -1
-2.7526144981384277 3.6924917697906494 0.3895755112171173 4456788 0 -1
-2.798891305923462 3.6803674697875977 0.5349804759025574 4456788 0 -1
-3.2359862327575684 4.006650447845459 1.1313153505325317 4456788 0 -1
-3.1306357383728027 4.199587821960449 0.6060617566108704 4456788 0 -1
-3.3249688148498535 4.034541130065918 -0.6868700385093689 4456788 0 -1
-3.1121232509613037 4.09224796295166 -1.1717194318771362 4456788 0 -1
-3.2740018367767334 4.053719520568848 -0.8080824017524719 4456788 0 -1
-4.35703706741333 2.5175259113311768 -1.5757606029510498 4456788 0 -1
-3.0671257972717285 4.1143927574157715 1.2121235132217407 4523353 0 -1
-3.122868537902832 4.106377124786377 1.0909112691879272 4590430 0 -1
-3.536752939224243 3.954590082168579 0.0406535267829895 4456788 0 -1
-3.536752939224243 3.954590082168579 -0.0406535267829895 4456788 0 -1
-3.173691749572754 4.173206806182861 0.81307053565979 4456788 0 -1
-3.276735782623291 4.057104587554932 0.975684642791748 4456788 0 -1
-3.5331170558929443 3.9505245685577393 -0.243921160697937 4456788 0 -1
-4.593848705291748 2.6543571949005127 0 4456788 0 -1
-3.5368568897247314 3.9547061920166016 0 4523353 0 -1
-3.1421456336975098 4.131725311279297 1.0976452827453613 4523353 0 -1
-3.170971155166626 4.087061405181885 1.1789523363113403 4590430 0 -1
-3.3599483966827393 4.076985836029053 -0.487842321395874 4657508 0 -1
-3.5317654609680176 3.9490134716033936 -0.2845746874809265 4728182 0 -1
-3.558450937271118 3.978851318359375 -0.04090293496847153 4456788 0 -1
-3.557615041732788 3.977916717529297 -0.12270880490541458 4456788 0 -1
-3.331812858581543 4.125298976898193 -0.6135440468788147 4456788 0 -1
-3.5568835735321045 3.9770987033843994 -0.1636117398738861 4456788 0 -1
-3.349212646484375 4.146842002868652 -0.2863205373287201 4456788 0 -1
-4.6220316886901855 2.6706416606903076 0 4456788 0 -1
-3.558450937271118 3.978851318359375 -0.04090293496847153 4523353 0 -1
-3.5581374168395996 3.9785008430480957 -0.08180586993694305 4590430 0 -1
-3.558450937271118 3.978851318359375 -0.04090293496847153 4657508 0 -1
-3.34773325920105 4.145010471343994 -0.3272234797477722 4657508 0 -1
-3.5568835735321045 3.9770987033843994 -0.1636117398738861 4724328 0 -1
-3.536503314971924 4.036691188812256 -0.20576171576976776 4456788 0 -1
-3.5306758880615234 4.0300397872924805 -0.37037110328674316 4456788 0 -1
-3.5324459075927734 4.032060146331787 -0.3292187452316284 4456788 0 -1
-3.5324459075927734 4.032060146331787 -0.3292187452316284 4456788 0 -1
-4.650078296661377 2.68684720993042 0.04115234315395355 4456788 0 -1
-3.5340070724487305 4.033842086791992 -0.28806641697883606 4523353 0 -1
-3.5340070724487305 4.033842086791992 -0.28806641697883606 4590430 0 -1
-3.5785717964172363 4.001349449157715 -0.1646093726158142 4657508 0 -1
-3.5353593826293945 4.035385608673096 -0.2469140589237213 4724328 0 -1
-3.9445853233337402 3.6326560974121094 -0.6624280214309692 4456788 0 -1
-3.847536087036133 3.78792405128479 -0.20700876414775848 4456788 0 -1
-3.850362777709961 3.7907071113586426 0 4456788 0 -1
-4.6778483390808105 2.702893018722534 0.08280350267887115 4456788 0 -1
-3.740161418914795 3.6822128295898438 1.2834542989730835 4523353 0 -1
-3.9745681285858154 3.6602680683135986 0 4657508 0 -1
-3.850249767303467 3.790595769882202 0.04140175133943558 4657508 0 -1
-3.665051221847534 3.6082663536071777 1.6560701131820679 4724328 0 -1
-3.9842827320098877 3.6692144870758057 -0.45816275477409363 4456788 0 -1
-3.9842827320098877 3.6692144870758057 -0.45816275477409363 4456788 0 -1
-3.955909490585327 3.64308500289917 -0.7913720607757568 4456788 0 -1
-3.9909918308258057 3.6753928661346436 -0.3332092761993408 4456788 0 -1
-4.706028461456299 2.7191755771636963 0.0833023190498352 4456788 0 -1
-4.5266289710998535 2.9805545806884766 0.416511595249176 4456788 0 -1
-3.975437879562378 3.661068916320801 -0.5831162333488464 4523353 0 -1
-3.960297107696533 3.647125482559204 -0.7497208714485168 4590430 0 -1
-3.998394012451172 3.6822097301483154 -0.0416511595249176 4657508 0 -1
-3.9909918308258057 3.6753928661346436 -0.3332092761993408 4724328 0 -1
-3.9776315689086914 3.74660325050354 0.20950284600257874 4456788 0 -1
-3.9763450622558594 3.745391368865967 -0.25140342116355896 4456788 0 -1
-4.528248310089111 2.9816207885742188 0.7123096585273743 4456788 0 -1
-3.968851327896118 3.738332986831665 -0.41900569200515747 4523353 0 -1
-4.528598308563232 2.981851100921631 -0.9272994995117188 4456788 0 -1
-4.169784069061279 3.581620693206787 -0.21074987947940826 4523353 0 -1
-4.1263298988342285 3.628906726837158 -0.2528998553752899 4590430 0 -1
-3.959188938140869 3.8131258487701416 0.21074987947940826 4590430 0 -1
-3.5109288692474365 4.090465068817139 1.0958993434906006 4590430 0 -1
-4.1127400398254395 3.7018980979919434 0 4456788 0 -1
-3.5860230922698975 4.177955150604248 0.5511919856071472 4456788 0 -1
-3.6406781673431396 4.070793151855469 0.8903870582580566 4456788 0 -1
-3.5933520793914795 4.186493873596191 0.423993855714798 4456788 0 -1
-4.528890609741211 2.982043504714966 -1.1023839712142944 4456788 0 -1
-3.565549612045288 4.154102325439453 0.8055883049964905 4523353 0 -1
-4.6502203941345215 2.9688987731933594 -0.423993855714798 4590430 0 -1
-3.565549612045288 4.154102325439453 0.8055883049964905 4590430 0 -1
-4.154041767120361 3.65327787399292 0.12719815969467163 4657508 0 -1
-3.5732409954071045 4.163063049316406 0.7207895517349243 4657508 0 -1
-3.683589220046997 4.03414249420166 1.0662198066711426 4456788 0 -1
-4.756512641906738 2.7483458518981934 -0.8956246376037598 4456788 0 -1
-3.5798683166503906 4.256645679473877 -0.21324396133422852 4456788 0 -1
-3.582077741622925 4.259272575378418 0.0852975845336914 4523353 0 -1
-3.5264251232147217 4.193099021911621 0.9809222221374512 4590430 0 -1
-4.53249454498291 2.9844167232513428 1.2368149757385254 4657508 0 -1
-3.858644485473633 3.9666502475738525 0.5970830917358398 4657508 0 -1
-3.5358147621154785 4.204263687133789 0.8956246376037598 4657508 0 -1
-4.555531024932861 2.999584913253784 1.1088685989379883 4724328 0 -1
-4.082247257232666 3.759431838989258 0.42648792266845703 4724328 0 -1
-3.750905990600586 4.02282190322876 0.8529758453369141 4724328 0 -1
-3.74250864982605 4.633803367614746 0.045641690492630005 4456788 0 -1
-3.7421791553497314 4.633395195007324 -0.09128338098526001 4456788 0 -1
-3.7372310161590576 4.6272687911987305 -0.31949183344841003 4456788 0 -1
-3.6732704639434814 4.6404852867126465 -0.9178219437599182 4456788 0 -1
-3.531020164489746 4.832045078277588 0.22945548593997955 4456788 0 -1
-3.677574634552002 4.645922660827637 -0.8719308376312256 4456788 0 -1
-3.7161967754364014 4.694714546203613 0.1376732885837555 4456788 0 -1
-3.716742515563965 4.695403575897217 -0.09178219735622406 4456788 0 -1
-3.708329439163208 4.684775352478027 -0.41301989555358887 4456788 0 -1
-3.521040439605713 4.818387985229492 -0.5048021078109741 4456788 0 -1
-3.7496793270111084 4.64268159866333 -0.5048021078109741 4456788 0 -1
-3.716742515563965 4.695403575897217 -0.09178219735622406 4456788 0 -1
-4.575617790222168 3.8369956016540527 0.4589109718799591 4456788 0 -1
-3.5298781394958496 4.830482482910156 0.275346577167511 4456788 0 -1
-3.6986911296844482 4.6725993156433105 -0.5965842604637146 4523353 0 -1
-3.710188388824463 4.687124252319336 -0.36712878942489624 4590430 0 -1
-3.53351092338562 4.835453510284424 -0.04589109867811203 4590430 0 -1
-3.710188388824463 4.687124252319336 -0.36712878942489624 4657508 0 -1
-3.5326807498931885 4.834317684173584 -0.1376732885837555 4657508 0 -1
-3.6986911296844482 4.6725993156433105 -0.5965842604637146 4724328 0 -1
-3.7161967754364014 4.694714546203613 0.1376732885837555 4725613 0 -1
-3.6838958263397217 4.6539082527160645 -1.0150911808013916 4456788 0 -1
-3.7126128673553467 4.690186977386475 -0.692107617855072 4456788 0 -1
-3.7303526401519775 4.712597846984863 -0.36912405490875244 4456788 0 -1
-3.4892375469207764 4.870912551879883 -0.5998265743255615 4456788 0 -1
-3.7126128673553467 4.690186977386475 -0.692107617855072 4456788 0 -1
-3.4834392070770264 4.862817764282227 -0.692107617855072 4456788 0 -1
-3.7055373191833496 4.681248188018799 -0.7843886017799377 4456788 0 -1
-3.733429193496704 4.716484069824219 -0.27684304118156433 4456788 0 -1
-3.638415575027466 4.689550399780273 1.0150911808013916 4456788 0 -1
-3.491823196411133 4.874521732330322 -0.5536860823631287 4456788 0 -1
-3.7126128673553467 4.690186977386475 -0.692107617855072 4523353 0 -1
-3.726393222808838 4.7075958251953125 -0.46140506863594055 4590430 0 -1
-3.496368885040283 4.8808674812316895 -0.46140506863594055 4590430 0 -1
-3.7158143520355225 4.6942315101623535 -0.6459670662879944 4657508 0 -1
-3.4892375469207764 4.870912551879883 -0.5998265743255615 4657508 0 -1
-3.7055373191833496 4.681248188018799 -0.7843886017799377 4724328 0 -1
-3.7303526401519775 4.712597846984863 -0.36912405490875244 4725613 0 -1
-3.662832260131836 4.7210211753845215 -0.9741882085800171 4456788 0 -1
-3.675724744796753 4.737637996673584 -0.8350184559822083 4456788 0 -1
-3.5080983638763428 4.897241592407227 -0.6030688881874084 4456788 0 -1
-3.683197021484375 4.747269153594971 -0.7422386407852173 4456788 0 -1
-3.50528883934021 4.893319606781006 -0.6494588255882263 4456788 0 -1
-3.675724744796753 4.737637996673584 -0.8350184559822083 4456788 0 -1
-3.50528883934021 4.893319606781006 -0.6494588255882263 4456788 0 -1
-3.675724744796753 4.737637996673584 -0.8350184559822083 4456788 0 -1
-3.686598539352417 4.75165319442749 -0.6958487033843994 4456788 0 -1
-3.679572582244873 4.742597579956055 -0.7886285185813904 4523353 0 -1
-3.686598539352417 4.75165319442749 -0.6958487033843994 4590430 0 -1
-3.510697841644287 4.900870323181152 -0.5566789507865906 4590430 0 -1
-3.679572582244873 4.742597579956055 -0.7886285185813904 4657508 0 -1
-3.510697841644287 4.900870323181152 -0.5566789507865906 4657508 0 -1
-3.675724744796753 4.737637996673584 -0.8350184559822083 4724328 0 -1
-3.686598539352417 4.75165319442749 -0.6958487033843994 4725613 0 -1
-3.515268325805664 4.907250881195068 -0.4638991355895996 4725613 0 -1
-3.9341061115264893 5.1731038093566895 0.7519655227661133 4456788 0 -1
-3.937649965286255 5.177763938903809 -0.957228422164917 4456788 0 -1
-3.4177143573760986 5.598593235015869 -0.45342400670051575 4456788 0 -1
-2.4080169200897217 6.088232040405273 -0.6045653223991394 4456788 0 -1
-3.9781851768493652 5.231065273284912 0.20152178406715393 4456788 0 -1
-3.3691418170928955 5.631789207458496 -0.40304356813430786 4456788 0 -1
-3.942017078399658 5.183506488800049 -0.9068480134010315 4456788 0 -1
-3.9874937534332275 5.139476776123047 -0.957228422164917 4456788 0 -1
-3.7424213886260986 5.32940149307251 -0.9068480134010315 4456788 0 -1
-3.9570882320404053 5.203323841094971 0.7053261995315552 4456788 0 -1
-3.9602599143981934 5.207494735717773 0.6549457907676697 4456788 0 -1
-4.583408832550049 4.711701393127441 0.15114133059978485 4456788 0 -1
-3.9063475131988525 5.136603355407715 1.259511113166809 4456788 0 -1
-3.9683539867401123 5.218137741088867 0.5038044452667236 4523353 0 -1
-3.9365806579589844 5.073854923248291 1.4106523990631104 4590430 0 -1
-3.979938268661499 5.233370304107666 0.05038044601678848 4724328 0 -1
-3.9150800704956055 5.046143054962158 1.5617938041687012 4725613 0 -1
-4.181377410888672 5.073713779449463 0.6581881046295166 4456788 0 -1
-3.9902360439300537 5.246911525726318 0.45566868782043457 4456788 0 -1
-3.6105103492736816 5.458331108093262 -0.9113373756408691 4456788 0 -1
-3.9315435886383057 5.169734477996826 1.2151165008544922 4456788 0 -1
-3.9732513427734375 5.2245774269104 0.7594478130340576 4456788 0 -1
-3.976677656173706 5.229083061218262 0.7088179588317871 4456788 0 -1
-4.606775760650635 4.735722064971924 0.10125970840454102 4456788 0 -1
-3.9315435886383057 5.169734477996826 1.2151165008544922 4456788 0 -1
-3.979865074157715 5.233273983001709 0.6581881046295166 4523353 0 -1
-3.9371540546417236 5.177111625671387 1.1644866466522217 4590430 0 -1
-3.987999200820923 5.243969917297363 0.5062985420227051 4724328 0 -1
-4.151349067687988 5.140010833740234 0.6614304184913635 4456788 0 -1
-3.7032663822174072 5.487973213195801 -0.5087926387786865 4456788 0 -1
-4.169036388397217 5.161910533905029 0.25439631938934326 4456788 0 -1
-3.967533588409424 5.322243690490723 -0.152637779712677 4456788 0 -1
-4.157253265380859 5.1473212242126465 0.5596718788146973 4456788 0 -1
-3.94228196144104 5.288370132446289 0.763188898563385 4456788 0 -1
-3.9386446475982666 5.2834906578063965 0.8140681982040405 4456788 0 -1
-4.62878942489624 4.758351802825928 0.152637779712677 4456788 0 -1
-3.9306540489196777 5.272771835327148 0.915826678276062 4456788 0 -1
-3.996267318725586 5.2548418045043945 0.7123096585273743 4523353 0 -1
-3.9388880729675293 5.179391860961914 1.322860836982727 4590430 0 -1
-3.7306392192840576 5.528537750244141 -0.20451468229293823 4456788 0 -1
-4.051823139190674 5.118715286254883 1.3804740905761719 4456788 0 -1
-3.772397994995117 5.480129718780518 -0.5112866759300232 4456788 0 -1
-4.545639991760254 4.875169277191162 0.30677202343940735 4456788 0 -1
-4.0594377517700195 5.232205390930176 -0.8180587291717529 4456788 0 -1
-3.7830772399902344 5.495643138885498 0.10225734114646912 4456788 0 -1
-3.7235071659088135 5.51796817779541 -0.46015802025794983 4523353 0 -1
-3.727020025253296 5.523174285888672 -0.3579006791114807 4590430 0 -1
-3.7825217247009277 5.494836330413818 -0.15338601171970367 4657508 0 -1
-3.727020025253296 5.523174285888672 -0.3579006791114807 4724328 0 -1
-3.741670608520508 5.544885158538818 -0.46240270137786865 4456788 0 -1
-3.7478461265563965 5.554036617279053 -0.2568903863430023 4456788 0 -1
-4.090649127960205 5.167764186859131 1.2330738306045532 4456788 0 -1
-3.7496085166931152 5.5566487312316895 -0.15413422882556915 4456788 0 -1
-3.7435462474823 5.547665119171143 -0.41102463006973267 4456788 0 -1
-4.507978439331055 4.936985492706299 0.5137807726860046 4456788 0 -1
-3.7504894733428955 5.55795431137085 -0.05137807875871658 4456788 0 -1
-3.7435462474823 5.547665119171143 -0.41102463006973267 4523353 0 -1
-3.7452006340026855 5.550116539001465 -0.3596465289592743 4590430 0 -1
-3.7478461265563965 5.554036617279053 -0.2568903863430023 4657508 0 -1
-3.746633768081665 5.552240371704102 -0.3082684576511383 4725613 0 -1
-3.752840757369995 5.56143856048584 -0.6195298433303833 4456788 0 -1
-3.761718988418579 5.5745954513549805 -0.41301989555358887 4456788 0 -1
-3.9658522605895996 5.427093505859375 -0.4646473824977875 4456788 0 -1
-3.7132484912872314 5.613649368286133 -0.30976492166519165 4456788 0 -1
-4.529861927032471 4.960951328277588 -0.5162748694419861 4456788 0 -1
-4.077275276184082 5.150869369506836 -1.4971970319747925 4456788 0 -1
-3.9041740894317627 5.450156211853027 -0.6711573004722595 4456788 0 -1
-3.9041740894317627 5.450156211853027 -0.6711573004722595 4456788 0 -1
-3.7660393714904785 5.580997943878174 -0.25813743472099304 4456788 0 -1
-4.478385925292969 5.007469177246094 0.5162748694419861 4456788 0 -1
-3.761718988418579 5.5745954513549805 -0.41301989555358887 4523353 0 -1
-3.767035722732544 5.582474708557129 -0.20650994777679443 4590430 0 -1
-3.972397804260254 5.436050891876221 -0.25813743472099304 4657508 0 -1
-3.767035722732544 5.582474708557129 -0.20650994777679443 4657508 0 -1
-4.356507778167725 5.180109024047852 0.1556306779384613 4456788 0 -1
-3.6701526641845703 5.660499095916748 -0.570645809173584 4456788 0 -1
-4.111118316650391 5.193623065948486 -1.4006761312484741 4456788 0 -1
-3.9887707233428955 5.458456516265869 0.36313825845718384 4456788 0 -1
-3.67795729637146 5.672536373138428 0.36313825845718384 4456788 0 -1
-3.7865684032440186 5.611420631408691 -0.10375379025936127 4456788 0 -1
-4.506793022155762 5.039231777191162 0.36313825845718384 4456788 0 -1
-3.7050817012786865 5.490663051605225 1.4006761312484741 4523353 0 -1
-4.6846137046813965 4.919345378875732 -0.3648841083049774 4456788 0 -1
-4.370375156402588 5.196598052978516 0.41701042652130127 4456788 0 -1
-4.781520843505859 4.810826301574707 -0.5212630033493042 4456788 0 -1
-4.042389392852783 5.422658920288086 0.7297682166099548 4456788 0 -1
-6.217019557952881 2.512423515319824 -1.1467785835266113 4456788 0 -1
-4.427482604980469 5.158311367034912 -0.2606315016746521 4456788 0 -1
-4.194249153137207 5.298643589019775 0.7818945050239563 4456788 0 -1
-4.5344557762146 5.070162773132324 0.10425260663032532 4456788 0 -1
-4.584959506988525 5.021292686462402 -0.20850521326065063 4523353 0 -1
-5.879194736480713 3.3970391750335693 -0.41701042652130127 4590430 0 -1
-4.784202575683594 4.8135247230529785 -0.46913671493530273 4590430 0 -1
-4.430605411529541 5.161949634552002 0.05212630331516266 4590430 0 -1
-6.097479820251465 3.013263702392578 -0.6808842420578003 4456788 0 -1
-6.097479820251465 3.013263702392578 -0.6808842420578003 4456788 0 -1
-4.69704008102417 4.932394027709961 -0.5761328339576721 4456788 0 -1
-4.343992233276367 5.271031856536865 0.2618785500526428 4456788 0 -1
-4.240439414978027 5.356996059417725 0.20950284600257874 4456788 0 -1
-6.238266944885254 2.521009922027588 -1.204641342163086 4456788 0 -1
-4.794599533081055 4.823985576629639 -0.6808842420578003 4456788 0 -1
-4.499548435211182 5.1359453201293945 -0.3142542541027069 4456788 0 -1
-4.644850730895996 4.981571674346924 -0.5761328339576721 4523353 0 -1
-4.293673515319824 5.316230297088623 0.15712712705135345 4523353 0 -1
-5.857635498046875 3.5037574768066406 -0.366629958152771 4590430 0 -1
-4.240439414978027 5.356996059417725 0.20950284600257874 4590430 0 -1
-5.377346038818359 4.292015552520752 0.5287452340126038 4456788 0 -1
-5.405741214752197 4.3146796226501465 0.47811540961265564 4456788 0 -1
-4.303220748901367 5.888767242431641 0.9582260847091675 4456788 0 -1
-4.396437644958496 5.897596836090088 0.05636623874306679 4523353 0 -1
-4.805402755737305 5.598613262176514 0.3963095247745514 4456788 0 -1
-4.382707595825195 5.879178524017334 0.905850350856781 4456788 0 -1
-4.509610176086426 5.583593845367432 -1.7550851106643677 4456788 0 -1
-4.4726362228393555 5.881237506866455 0 4456788 0 -1
-4.416020393371582 5.923866271972656 0 4523353 0 -1
-4.549204349517822 5.863465309143066 0 4456788 0 -1
-4.491152286529541 5.905584812164307 -0.1705951690673828 4523353 0 -1
-4.510850429534912 5.9314866065979 0.1713433861732483 4456788 0 -1
-4.529616832733154 5.95616340637207 0.22945548593997955 4456788 0 -1
-4.453431606292725 6.7326507568359375 0 4456788 0 -1
-4.533491611480713 6.718307018280029 0 4456788 0 -1
-4.553643703460693 6.748170375823975 -0.6886158585548401 4456788 0 -1
-4.518747329711914 6.831393718719482 -0.4399559497833252 4456788 0 -1
-4.942612648010254 6.630262851715088 -1.021575689315796 4456788 0 -1
-4.522449970245361 6.975002765655518 -0.5746363401412964 4456788 0 -1
-6.400050163269043 5.23728609085083 -1.021575689315796 4523353 0 -1
-4.891881465911865 6.694323539733887 -0.8300303220748901 4523353 0 -1
-2.130380153656006 8.423190116882324 -0.19977591931819916 2006409 4 -1
-2.1974706649780273 8.40804672241211 -0.06659197062253952 2072968 4 -1
-2.1975350379943848 8.408292770385742 0 2139270 4 -1
-2.130692958831787 8.424427032470703 0.13318394124507904 3257723 4 -1
-2.13088059425354 8.425168991088867 0.06659197062253952 3651704 4 -1
-2.1309430599212646 8.425415992736816 0 4045940 4 -1
-2.13088059425354 8.425168991088867 0.06659197062253952 4505456 4 -1
-2.130692958831787 8.424427032470703 -0.13318394124507904 4899181 4 -1
-1.929125189781189 8.4644775390625 0.3995518386363983 8180304 4 -1
-1.929125189781189 8.4644775390625 0.3995518386363983 8705099 4 -1
-2.1298630237579346 8.42114543914795 -0.8020966053009033 4729209 4 -1
-2.1992807388305664 8.414972305297852 -0.6684138178825378 4212104 4 -1
-2.1326358318328857 8.432108879089355 -0.6684138178825378 4017546 4 -1
-2.2057008743286133 8.439537048339844 -0.06684137880802155 2977934 4 -1
-2.2057008743286133 8.439537048339844 -0.06684137880802155 2070155 4 -1
-2.1386730670928955 8.455978393554688 -0.1336827576160431 2006409 4 -1
-2.1388614177703857 8.4567232131958 -0.06684137880802155 2072968 4 -1
-2.1389241218566895 8.456972122192383 0 2271109 4 -1
-2.1383590698242188 8.454736709594727 0.20052415132522583 3651704 4 -1
-2.1383590698242188 8.454736709594727 0.20052415132522583 4505456 4 -1
-2.1383590698242188 8.454736709594727 0.20052415132522583 4899181 4 -1
-2.1386730670928955 8.455978393554688 0.1336827576160431 5424489 4 -1
-1.93748939037323 8.501177787780762 0.2673655152320862 6343264 4 -1
-1.9363504648208618 8.496180534362793 0.40104830265045166 8180304 4 -1
-1.9363504648208618 8.496180534362793 0.40104830265045166 8705099 4 -1
-1.9378879070281982 8.502925872802734 0.20052415132522583 9360965 4 -1
-2.0042994022369385 8.485673904418945 0.2673655152320862 10016830 4 -1
-2.1326773166656494 8.432272911071777 -1.0063618421554565 4725613 0 -1
-2.206117630004883 8.441131591796875 -0.7379986643791199 4729209 4 -1
-2.2046170234680176 8.435389518737793 -0.8050894737243652 4664956 4 -1
-2.2087252140045166 8.451108932495117 -0.6038171052932739 4212104 4 -1
-2.2087252140045166 8.451108932495117 -0.6038171052932739 4017546 4 -1
-2.2087252140045166 8.451108932495117 -0.6038171052932739 3887499 4 -1
-2.278674840927124 8.44451904296875 -0.4025447368621826 3562893 4 -1
-2.213931083679199 8.471028327941895 -0.06709078699350357 2977934 4 -1
-2.281019926071167 8.45320987701416 -0.06709078699350357 2134668 4 -1
-2.1469051837921143 8.488527297973633 0 2072968 4 -1
-2.1469051837921143 8.488527297973633 0 2994813 4 -1
-2.0795702934265137 8.504216194152832 0.13418157398700714 3651704 4 -1
-2.1458966732025146 8.484539985656738 0.2683631479740143 4505456 4 -1
-2.1458966732025146 8.484539985656738 0.2683631479740143 4899181 4 -1
-2.0795702934265137 8.504216194152832 0.13418157398700714 5424489 4 -1
-2.0112459659576416 8.515084266662598 0.33545395731925964 6343264 4 -1
-2.0089385509490967 8.505315780639648 0.5367262959480286 6933851 4 -1
-2.1463379859924316 8.486284255981445 0.2012723684310913 8180304 4 -1
-1.8771629333496094 8.54564380645752 0.33545395731925964 8180304 4 -1
-2.009826421737671 8.509074211120605 0.4696355164051056 8705099 4 -1
-1.944718837738037 8.53289794921875 0.2683631479740143 9360965 4 -1
-1.94511878490448 8.534653663635254 0.2012723684310913 10016830 4 -1
-2.142451524734497 8.470918655395508 -0.9427627921104431 4725613 4 -1
-2.2143187522888184 8.472511291503906 -0.7407422065734863 4729209 4 -1
-2.2143187522888184 8.472511291503906 -0.7407422065734863 4212104 4 -1
-2.2169361114501953 8.482525825500488 -0.6060617566108704 4017546 4 -1
-2.2169361114501953 8.482525825500488 -0.6060617566108704 3887499 4 -1
-2.2180473804473877 8.486778259277344 -0.5387215614318848 3562893 4 -1
-2.2190277576446533 8.490528106689453 -0.47138139605522156 2588302 4 -1
-2.2895667552948 8.484883308410645 0 2134668 4 -1
-2.2219655513763428 8.50177001953125 -0.1346803903579712 2666112 4 -1
-2.219876766204834 8.49377727508545 0.40404120087623596 4045940 4 -1
-2.153873920440674 8.516080856323242 0.2693607807159424 4505456 4 -1
-2.153873920440674 8.516080856323242 0.2693607807159424 4899181 4 -1
-2.0865654945373535 8.532821655273438 0.2693607807159424 5424489 4 -1
-2.083620309829712 8.52077865600586 0.5387215614318848 6343264 4 -1
-2.0199687480926514 8.552014350891113 0.1346803903579712 8180304 4 -1
-2.019256830215454 8.54900074005127 0.2693607807159424 8705099 4 -1
-1.9514319896697998 8.56235408782959 0.33670100569725037 9360965 4 -1
-2.0869944095611572 8.534576416015625 0.20202060043811798 10016830 4 -1
-2.1503865718841553 8.50229263305664 -0.9462544918060303 4725613 4 -1
-2.2193636894226074 8.491813659667969 -0.8786649107933044 4471684 4 -1
-2.2193636894226074 8.491813659667969 -0.8786649107933044 4212104 4 -1
-2.2238996028900146 8.509169578552246 -0.6758960485458374 4147337 4 -1
-2.2262625694274902 8.518210411071777 -0.540716826915741 4017546 4 -1
-2.2262625694274902 8.518210411071777 -0.540716826915741 3887499 4 -1
-2.295616626739502 8.507303237915039 -0.4055376350879669 3238030 4 -1
-2.294738531112671 8.504049301147461 -0.47312724590301514 3107982 4 -1
-2.2280986309051514 8.525236129760742 -0.4055376350879669 2588302 4 -1
-2.217586040496826 8.485013008117676 -0.9462544918060303 2271109 4 -1
-2.230391502380371 8.53400993347168 0.06758960336446762 2468738 4 -1
-2.229867696762085 8.532005310058594 -0.20276881754398346 2666112 4 -1
-2.161851167678833 8.547621726989746 0.2703584134578705 4505456 4 -1
-2.161851167678833 8.547621726989746 0.2703584134578705 4899181 4 -1
-2.026735544204712 8.580663681030273 0.2703584134578705 8180304 4 -1
-2.026735544204712 8.580663681030273 0.2703584134578705 8705099 4 -1
-2.0274500846862793 8.583688735961914 0.13517920672893524 9360965 4 -1
-1.9600986242294312 8.600380897521973 0 10016830 4 -1
-1.959580659866333 8.598108291625977 -0.20276881754398346 10672695 4 -1
-1.9580260515213013 8.591286659240723 -0.4055376350879669 11918891 4 -1
-1.9600410461425781 8.600128173828125 -0.06758960336446762 12640037 4 -1
-2.161652088165283 8.546833992004395 -0.8140681982040405 4471684 4 -1
-2.229203701019287 8.529464721679688 -0.8140681982040405 4212104 4 -1
-2.2333579063415527 8.54535961151123 -0.610551118850708 4147337 4 -1
-2.4376118183135986 8.493958473205566 -0.5427120923995972 4017546 4 -1
-2.168553113937378 8.574119567871094 -0.40703409910202026 4017546 4 -1
-2.304833173751831 8.541459083557129 -0.3391950726509094 3238030 4 -1
-2.304833173751831 8.541459083557129 -0.3391950726509094 3107982 4 -1
-2.2354648113250732 8.553421020507812 -0.4748730957508087 2588302 4 -1
-2.2344775199890137 8.549643516540527 -0.5427120923995972 2264205 4 -1
-2.2321057319641113 8.540568351745605 -0.6783901453018188 2199437 4 -1
-2.1566786766052246 8.25196647644043 -2.3743655681610107 2139270 0 -1
-2.23842453956604 8.564745903015137 -0.1356780230998993 2666112 4 -1
-2.1702747344970703 8.580926895141602 0.20351704955101013 5424489 4 -1
-2.170593500137329 8.58218765258789 0.1356780230998993 6933851 4 -1
-2.10294771194458 8.59981632232666 0.06783901154994965 7589974 4 -1
-2.0342142581939697 8.612326622009277 0.2713560461997986 8180304 4 -1
-2.0330183506011963 8.607263565063477 0.40703409910202026 8705099 4 -1
-2.0990545749664307 8.583895683288574 0.5427120923995972 9360965 4 -1
-2.035170555114746 8.616374015808105 0 10016830 4 -1
-2.0351107120513916 8.616121292114258 0.06783901154994965 10672695 4 -1
-2.0349314212799072 8.615362167358398 0.1356780230998993 11918891 4 -1
-2.2436835765838623 8.584867477416992 -0.4766189455986023 2588302 4 -1
-2.233952045440674 8.547633171081543 -0.9532378911972046 2523534 4 -1
-2.238922357559204 8.566650390625 -0.7489726543426514 2199437 4 -1
-2.2415688037872314 8.576776504516602 -0.6127958297729492 2134668 4 -1
-2.159740924835205 8.263683319091797 -2.451183319091797 2139270 0 -1
-2.159740924835205 8.263683319091797 -2.451183319091797 2271109 0 -1
-2.244542121887207 8.588152885437012 0.4085305333137512 6933851 4 -1
-2.0426526069641113 8.648052215576172 0 7589974 4 -1
-2.0416929721832275 8.643989562988281 0.2723536789417267 8180304 4 -1
-2.176525592803955 8.605642318725586 0.4085305333137512 9360965 4 -1
-1.9064198732376099 8.678833961486816 0.06808841973543167 9360965 4 -1
-1.958841323852539 8.293216705322266 -2.5192716121673584 10016830 0 -1
-2.2458622455596924 8.593204498291016 0.2723536789417267 13164576 4 -1
-1.9668470621109009 8.629990577697754 1.0934052467346191 4456788 0 -1
-2.2402031421661377 8.571551322937012 -1.0250674486160278 2523534 4 -1
-2.3210294246673584 8.601480484008789 -0.41002699732780457 2199437 4 -1
-2.1818625926971436 8.348325729370117 -2.255148410797119 2139270 0 -1
-2.4575605392456055 8.563470840454102 0.41002699732780457 2271109 0 -1
-2.186232805252075 8.644021987915039 0.20501349866390228 2271109 4 -1
-2.320141553878784 8.598190307617188 0.47836482524871826 4505456 4 -1
-2.039938449859619 8.636560440063477 0.8883917927742004 11197490 0 -1
-2.049894094467163 8.6787109375 0.1366756558418274 11918891 4 -1
-1.6225366592407227 8.672539710998535 1.5089192390441895 4456788 0 -1
-1.6130963563919067 8.622081756591797 1.7832682132720947 4456788 0 -1
-2.2553248405456543 8.629409790039062 -0.7544596195220947 4728182 4 -1
-2.2553248405456543 8.629409790039062 -0.7544596195220947 4664956 4 -1
-2.399425506591797 8.619158744812012 -0.2743489444255829 2264205 4 -1
-2.467327833175659 8.597505569458008 0.3429361879825592 2271109 0 -1
-2.330254077911377 8.635665893554688 0.3429361879825592 4505456 4 -1
-2.057375431060791 8.7103853225708 0.13717447221279144 4505456 4 -1
-1.9880954027175903 8.723223686218262 0.2743489444255829 7589974 4 -1
-1.7109856605529785 8.766411781311035 0.9637130498886108 4456788 0 -1
-2.4081506729125977 8.650501251220703 -0.275346577167511 2264205 4 -1
-2.4780466556549072 8.634855270385742 -0.06883664429187775 2271109 4 -1
-2.064129114151001 8.738978385925293 0.275346577167511 4505456 4 -1
-2.1333720684051514 8.724233627319336 0.20650994777679443 6933851 4 -1
-2.1712491512298584 8.584778785705566 -1.5144062042236328 7589974 0 -1
-2.1233227252960205 8.683137893676758 0.8948764204978943 10672695 0 -1
3.5768775939941406 8.233691215515137 -0.3441832363605499 10672695 5 -1
-2.4154551029205322 8.676740646362305 -0.4145163297653198 2468738 4 -1
-2.0622735023498535 8.731121063232422 -0.8981187343597412 2468738 4 -1
-2.072338342666626 8.773733139038086 0.13817210495471954 4505456 4 -1
-2.2054905891418457 8.720165252685547 0.6217744946479797 6933851 4 -1
-2.207571506500244 8.728391647338867 0.483602374792099 7589974 4 -1
-2.1406614780426025 8.754043579101562 0.2763442099094391 10672695 4 -1
3.453896999359131 8.327279090881348 0.13817210495471954 10672695 5 -1
3.7225096225738525 8.19028377532959 -0.9706965088844299 4017546 5 -1
3.7254931926727295 8.19684886932373 -0.9013610482215881 3887499 5 -1
-2.0623412132263184 8.73140811920166 -1.1787028312683105 2468738 0 -1
-2.2108395099639893 8.741313934326172 0.7626901268959045 6933851 4 -1
3.605020761489868 8.298474311828613 0.1386709213256836 6933851 5 -1
3.6044914722442627 8.297255516052246 0.20800639688968658 7589974 5 -1
3.605020761489868 8.298474311828613 0.1386709213256836 8180304 5 -1
3.6054441928863525 8.29944896697998 0 9360965 5 -1
-2.1491470336914062 8.78874397277832 -0.1386709213256836 10672695 4 -1
3.6053383350372314 8.29920482635498 0.0693354606628418 10672695 5 -1
3.6667165756225586 8.250839233398438 -0.9741882085800171 4729209 5 -1
3.6696555614471436 8.257452011108398 -0.9046033024787903 4536450 5 -1
3.672374725341797 8.263570785522461 -0.8350184559822083 4341894 5 -1
3.6748745441436768 8.269196510314941 -0.7654336094856262 4017546 5 -1
