VERSION .7
FIELDS x y z rgb label object
SIZE 4 4 4 4 4 4
TYPE F F F I I I
COUNT 1 1 1 1 1 1
WIDTH 684
HEIGHT 1
POINTS 684
VIEWPOINT 0 0 0 1 0 0 0
DATA ascii
-1.8733168840408325 2.776120185852051 -0.15413422882556915 4456788 0 -1
-1.8461323976516724 2.7909634113311768 -0.20551231503486633 4456788 0 -1
-1.8185595273971558 2.8047754764556885 -0.2568903863430023 4523353 0 -1
-2.8473784923553467 1.7606861591339111 0.17982326447963715 4590430 0 -1
-1.867355465888977 2.7672858238220215 -0.3082684576511383 4590430 0 -1
-2.7662594318389893 1.8766279220581055 -0.2568903863430023 4657508 0 -1
-1.7956441640853882 2.82546329498291 -0.17982326447963715 4657508 0 -1
-1.8476550579071045 2.7932651042938232 -0.15413422882556915 4600703 0 -1
-2.255584716796875 2.5220625400543213 0.10375379025936127 4456788 0 -1
-1.880958080291748 2.7874438762664795 -0.38907670974731445 4456788 0 -1
-1.9288082122802734 2.74672269821167 -0.4409535825252533 4456788 0 -1
-1.880958080291748 2.7874438762664795 -0.38907670974731445 4456788 0 -1
-2.6912176609039307 1.7720296382904053 -1.0375378131866455 4456788 0 -1
-1.8792226314544678 2.784872055053711 -0.41501516103744507 4456788 0 -1
-1.9545257091522217 2.728482484817505 -0.4409535825252533 4456788 0 -1
-1.9083689451217651 2.772270917892456 -0.36313825845718384 4456788 0 -1
-2.001642942428589 2.6851017475128174 -0.4928304851055145 4456788 0 -1
-1.8711398839950562 2.7728939056396484 -0.5187689065933228 4456788 0 -1
-1.8792226314544678 2.784872055053711 -0.41501516103744507 4456788 0 -1
-2.7313148975372314 1.8529216051101685 -0.7522149682044983 4456788 0 -1
-1.8899457454681396 2.800762891769409 -0.20750758051872253 4456788 0 -1
-2.810781717300415 1.624089002609253 -0.9597225189208984 4456788 0 -1
-1.9324911832809448 2.751967430114746 -0.38907670974731445 4456788 0 -1
-1.7889119386672974 2.8719778060913086 -0.10375379025936127 4456788 0 -1
-1.9158353805541992 2.7831172943115234 -0.20750758051872253 4456788 0 -1
-1.8631219863891602 2.816648006439209 -0.23344601690769196 4456788 0 -1
-1.8631219863891602 2.816648006439209 -0.23344601690769196 4523353 0 -1
-2.8723132610321045 1.77610445022583 0.23344601690769196 4590430 0 -1
-1.8854851722717285 2.7941527366638184 -0.3112613558769226 4590430 0 -1
-2.824301242828369 1.8596583604812622 -0.1556306779384613 4657508 0 -1
-1.813771367073059 2.8539865016937256 -0.1556306779384613 4657508 0 -1
-1.8675681352615356 2.8233697414398193 0 4664956 0 -1
-1.864879846572876 2.819305419921875 -0.18156912922859192 4600703 0 -1
-2.7026185989379883 1.7795366048812866 -1.099889874458313 4456788 0 -1
-2.4296724796295166 2.3920280933380127 -0.23569069802761078 4456788 0 -1
-1.9926457405090332 2.7268476486206055 -0.5237571001052856 4456788 0 -1
-1.8746451139450073 2.834068536758423 -0.366629958152771 4456788 0 -1
-1.9926457405090332 2.7268476486206055 -0.5237571001052856 4456788 0 -1
-1.9971932172775269 2.7330706119537354 -0.47138139605522156 4456788 0 -1
-2.692167282104492 1.8263639211654663 -1.0475142002105713 4456788 0 -1
-2.107239007949829 2.556939125061035 -0.8380113840103149 4456788 0 -1
-1.8972920179367065 2.8116495609283447 -0.41900569200515747 4456788 0 -1
-1.9949805736541748 2.7300426959991455 -0.4975692331790924 4456788 0 -1
-2.0252487659454346 2.7167677879333496 -0.4451935291290283 4456788 0 -1
-1.9473545551300049 2.7731335163116455 -0.4451935291290283 4456788 0 -1
-2.0208895206451416 2.7109198570251465 -0.4975692331790924 4456788 0 -1
-2.0240814685821533 2.6615407466888428 -0.7070720791816711 4456788 0 -1
-2.772778034210205 1.825732946395874 -0.8118234872817993 4456788 0 -1
-2.8310062885284424 1.635774850845337 -0.9951384663581848 4456788 0 -1
-2.929938316345215 1.7525490522384644 0.15712712705135345 4456788 0 -1
-2.8999314308166504 1.793182373046875 0.23569069802761078 4456788 0 -1
-1.9322038888931274 2.8068957328796387 -0.2618785500526428 4456788 0 -1
-1.9081182479858398 2.827693223953247 -0.20950284600257874 4456788 0 -1
-2.8491082191467285 1.8759924173355103 0.20950284600257874 4523353 0 -1
-1.8799822330474854 2.842137098312378 -0.2618785500526428 4523353 0 -1
-2.8999314308166504 1.793182373046875 0.23569069802761078 4590430 0 -1
-2.87219500541687 1.8337316513061523 0.2618785500526428 4657508 0 -1
-2.870413303375244 1.8325941562652588 0.28806641697883606 4724328 0 -1
-3.1464755535125732 0.9442172646522522 0.9427627921104431 4729209 0 -1
-2.8016135692596436 1.844719648361206 0.6546963453292847 4664956 0 -1
-1.9117133617401123 2.8330209255218506 0 4664956 0 -1
-1.9081182479858398 2.827693223953247 -0.20950284600257874 4600703 0 -1
-1.9616692066192627 2.793518304824829 -0.5023080110549927 4456788 0 -1
-2.026937961578369 2.719033718109131 -0.6344943046569824 4456788 0 -1
-2.902630090713501 1.8531626462936401 0.21149811148643494 4456788 0 -1
-2.905963897705078 1.8552911281585693 0.13218630850315094 4456788 0 -1
-2.873189687728882 1.8918489217758179 0.2643726170063019 4456788 0 -1
-2.9259088039398193 1.8092454671859741 0.2643726170063019 4456788 0 -1
-1.9271420240402222 2.8558852672576904 -0.18506084382534027 4456788 0 -1
-2.9275498390197754 1.81026029586792 0.2379353642463684 4523353 0 -1
-2.9259088039398193 1.8092454671859741 0.2643726170063019 4590430 0 -1
-2.902630090713501 1.8531626462936401 0.21149811148643494 4657508 0 -1
-2.9290175437927246 1.81116783618927 0.21149811148643494 4724328 0 -1
-2.966675281524658 1.6532723903656006 0.6080570220947266 4600703 0 -1
-2.150306463241577 2.6091973781585693 0.6873688101768494 4600703 0 -1
-1.8418169021606445 2.675591230392456 1.163239598274231 4600703 0 -1
-2.0168981552124023 2.652095079421997 1.0140935182571411 4456788 0 -1
-2.896524429321289 1.9072136878967285 0.3202400505542755 4456788 0 -1
-2.0398337841033936 2.736332893371582 0.6938534379005432 4456788 0 -1
-2.7941770553588867 1.8955671787261963 -0.8539734482765198 4456788 0 -1
-1.9176348447799683 2.8417961597442627 -0.6137934327125549 4456788 0 -1
-2.923098087310791 1.8662303686141968 0.3202400505542755 4523353 0 -1
-2.8719043731689453 1.948297381401062 0.2935533821582794 4590430 0 -1
-3.2064085006713867 0.9622023701667786 0.9607201814651489 4729209 0 -1
-1.9100415706634521 2.7199981212615967 -1.0407801866531372 4729209 0 -1
3.2246580123901367 1.2250332832336426 0.48036009073257446 4729209 0 -1
-2.3364527225494385 2.5588040351867676 0.5925937294960022 4456788 0 -1
-2.018535614013672 2.7622768878936768 0.8080824017524719 4456788 0 -1
-1.8980345726013184 2.9273505210876465 -0.4309772551059723 4456788 0 -1
-2.100952625274658 2.8183205127716064 -0.026936078444123268 4523353 0 -1
-3.0975582599639893 1.661946177482605 -0.026936078444123268 4590430 0 -1
-1.5456472635269165 3.1155588626861572 0.5117855072021484 4590430 0 -1
-2.083669900894165 2.6856400966644287 1.124830722808838 4456788 0 -1
-2.369560480117798 2.595062494277954 0.6858723759651184 4523353 0 -1
-2.92990779876709 2.3976008892059326 -0.6474635601043701 4456788 0 -1
-2.9918053150177 2.327916383743286 -0.6180333495140076 4523353 0 -1
-2.9259214401245117 2.394338846206665 -0.6768937110900879 4590430 0 -1
-3.0245823860168457 2.2929255962371826 0.5886031985282898 4724328 0 -1
-2.894131660461426 2.54524827003479 0.38583439588546753 4456788 0 -1
-2.8720643520355225 2.5851595401763916 0.26711612939834595 4456788 0 -1
-2.9258298873901367 2.5131309032440186 0.35615482926368713 4456788 0 -1
-3.0393552780151367 2.364914894104004 0.4155139625072479 4456788 0 -1
-2.9016733169555664 2.5518808364868164 0.26711612939834595 4456788 0 -1
-3.0098469257354736 2.402358055114746 0.4155139625072479 4456788 0 -1
-2.986969470977783 2.444295644760132 0.32647526264190674 4456788 0 -1
-2.9508302211761475 2.4744904041290283 0.4155139625072479 4456788 0 -1
-2.9258298873901367 2.5131309032440186 0.35615482926368713 4523353 0 -1
-3.004478931427002 2.398073434829712 0.4748730957508087 4590430 0 -1
-2.898247718811035 2.548868179321289 0.32647526264190674 4657508 0 -1
-2.9623754024505615 2.4841718673706055 0.23743654787540436 4724328 0 -1
-2.95923113822937 2.4815351963043213 0.29679569602012634 3562893 0 -1
-2.92061448097229 2.5685386657714844 0.35914772748947144 4456788 0 -1
-3.0401315689086914 2.304713487625122 0.8380113840103149 4456788 0 -1
-2.890812397003174 2.602034568786621 0.35914772748947144 4456788 0 -1
-2.9482321739196777 2.5323731899261475 0.38907670974731445 4456788 0 -1
-3.0622551441192627 2.3827333450317383 0.4489346444606781 4456788 0 -1
-3.035139799118042 2.422545909881592 0.41900569200515747 4456788 0 -1
-3.010021209716797 2.4631590843200684 0.35914772748947144 4456788 0 -1
-2.9756271839141846 2.4952845573425293 0.41900569200515747 4456788 0 -1
-2.9756271839141846 2.4952845573425293 0.41900569200515747 4523353 0 -1
-3.029726505279541 2.4182252883911133 0.4788636267185211 4590430 0 -1
-2.9504168033599854 2.534249782562256 0.35914772748947144 4657508 0 -1
-2.9840986728668213 2.5023884773254395 0.2992897629737854 4724328 0 -1
-2.9857726097106934 2.5037920475006104 0.2693607807159424 3562893 0 -1
-3.576014280319214 1.6101785898208618 0.36214062571525574 4456788 0 -1
-2.942772388458252 2.5880255699157715 0.392318993806839 4456788 0 -1
-2.4759533405303955 2.9440343379974365 0.8449947834014893 4456788 0 -1
-2.5258395671844482 2.8830838203430176 0.9053515791893005 4456788 0 -1
-3.0716564655303955 2.3900485038757324 0.6035677194595337 4456788 0 -1
-2.9651222229003906 2.5468809604644775 0.4828541576862335 4456788 0 -1
-3.0877740383148193 2.4025893211364746 0.45267578959465027 4456788 0 -1
-3.0604326725006104 2.4427337646484375 0.42249739170074463 4456788 0 -1
-3.0328571796417236 2.481846570968628 0.392318993806839 4456788 0 -1
-2.9651222229003906 2.5468809604644775 0.4828541576862335 4523353 0 -1
-3.030428409576416 2.479858875274658 0.42249739170074463 4590430 0 -1
-3.0849251747131348 2.4003727436065674 0.4828541576862335 4657508 0 -1
-2.9704198837280273 2.551431179046631 0.42249739170074463 4657508 0 -1
-3.002829074859619 2.5180952548980713 0.392318993806839 4724328 0 -1
-3.155306816101074 2.329075574874878 0.36214062571525574 3562893 0 -1
-3.0070996284484863 2.521676540374756 0.3319622278213501 3562893 0 -1
-2.6031494140625 2.910689115524292 0.5130325555801392 3562893 0 -1
-3.5752692222595215 1.6891648769378662 0.36513352394104004 4456788 0 -1
-3.1433448791503906 2.195051431655884 1.0345449447631836 4456788 0 -1
-2.5467143058776855 2.9069108963012695 0.9128338098526001 4456788 0 -1
-3.2557737827301025 2.2735626697540283 0 4456788 0 -1
-3.1073596477508545 2.4178287982940674 0.5172724723815918 4456788 0 -1
-2.9692420959472656 2.550419569015503 0.6694114804267883 4456788 0 -1
-2.7815237045288086 2.7384278774261475 0.7302670478820801 4456788 0 -1
-2.909257411956787 2.6186370849609375 0.6694114804267883 4456788 0 -1
-2.87534761428833 2.6479713916778564 0.6998392343521118 4456788 0 -1
-2.8492727279663086 2.683781623840332 0.6694114804267883 4456788 0 -1
-2.976768732070923 2.556884527206421 0.6085558533668518 4523353 0 -1
-2.8154444694519043 2.7115767002105713 0.6998392343521118 4523353 0 -1
-2.87534761428833 2.6479713916778564 0.6998392343521118 4590430 0 -1
-2.943066120147705 2.5882837772369385 0.6389836668968201 4657508 0 -1
-2.811432361602783 2.7077126502990723 0.7302670478820801 4657508 0 -1
-3.0198254585266113 2.532348155975342 0.4868446886539459 4724328 0 -1
-2.8492727279663086 2.683781623840332 0.6694114804267883 4724328 0 -1
-3.1764819622039795 2.3447060585021973 0.4259890913963318 3562893 0 -1
-2.934797763824463 2.461045980453491 1.1657336950302124 4456788 0 -1
-2.5853536128997803 2.9510152339935303 -0.7976072430610657 4456788 0 -1
-2.860722064971924 2.634502410888672 0.9509932398796082 4456788 0 -1
-2.8661458492279053 2.6394975185394287 0.9203160405158997 4456788 0 -1
-3.1276044845581055 2.4963481426239014 -0.12270880490541458 4456788 0 -1
-3.2402119636535645 2.3272032737731934 -0.33744922280311584 4523353 0 -1
-2.9781839847564697 2.4371063709259033 1.1043792963027954 4523353 0 -1
-2.883012533187866 2.5354695320129395 1.135056495666504 4590430 0 -1
-3.1348471641540527 2.3139734268188477 0.9203160405158997 4657508 0 -1
-2.8535940647125244 2.5685343742370605 1.135056495666504 4657508 0 -1
-2.817382574081421 2.535940170288086 1.2884424924850464 4724328 0 -1
-2.414342164993286 3.1747093200683594 -0.6185321807861328 4456788 0 -1
-2.414342164993286 3.1747093200683594 -0.6185321807861328 4456788 0 -1
-2.349318027496338 3.2796053886413574 0.12370643764734268 4456788 0 -1
-2.3177928924560547 3.300656795501709 0.1546330451965332 4456788 0 -1
-2.4345080852508545 3.201226234436035 0.3401927053928375 4523353 0 -1
-2.286149263381958 3.3210690021514893 0.18555966019630432 4523353 0 -1
-2.2128100395202637 3.0890426635742188 -1.36077082157135 4590430 0 -1
-2.5878515243530273 3.077087163925171 -0.6235203742980957 4456788 0 -1
-2.3649215698242188 3.3013875484466553 0.24940814077854156 4456788 0 -1
-3.2673258781433105 2.411761999130249 -0.24940814077854156 4456788 0 -1
-2.585709810256958 3.137518882751465 -0.15588009357452393 4456788 0 -1
-2.332634687423706 3.3217926025390625 0.2805841565132141 4456788 0 -1
-2.552753448486328 3.16070294380188 -0.21823212504386902 4523353 0 -1
-2.3026866912841797 3.345093011856079 0.24940814077854156 4523353 0 -1
-2.607691526412964 3.100677728652954 -0.37411221861839294 4590430 0 -1
-2.359339952468872 3.293595790863037 0.37411221861839294 4590430 0 -1
-3.0460283756256104 2.7417452335357666 -0.15712712705135345 4456788 0 -1
-2.630342483520508 3.127610921859741 -0.3456796705722809 4456788 0 -1
-2.434938907623291 3.2663462162017822 -0.47138139605522156 4456788 0 -1
-3.2972471714019775 2.4338481426239014 -0.15712712705135345 4456788 0 -1
-2.6070849895477295 3.1634557247161865 -0.12570171058177948 4456788 0 -1
-2.869443655014038 2.7635838985443115 0.9741882085800171 4523353 0 -1
-2.5677151679992676 3.179227828979492 -0.3456796705722809 4523353 0 -1
-2.8771629333496094 2.832585573196411 0.8868953585624695 4523353 0 -1
-2.4306931495666504 3.196209669113159 0.9819198250770569 4523353 0 -1
-1.8354469537734985 4.130119323730469 -0.20800639688968658 4456788 4 -1
-1.8360408544540405 4.131455898284912 -0.1733386516571045 4456788 4 -1
-1.84712815284729 4.156404495239258 -0.2793371081352234 4456788 4 -1
-1.848651647567749 4.15983247756958 -0.20950284600257874 4456788 4 -1
-1.8492497205734253 4.1611785888671875 -0.17458570003509521 4456788 4 -1
-1.8148382902145386 4.177614688873291 -0.1396685540676117 4456788 4 -1
-1.884141206741333 4.145496845245361 -0.17458570003509521 4456788 4 -1
-1.8854701519012451 4.148420810699463 0.034917138516902924 4456788 4 -1
-1.8497389554977417 4.16227912902832 -0.1396685540676117 4456788 4 -1
-1.8846397399902344 4.1465935707092285 -0.1396685540676117 4456788 4 -1
-1.9544411897659302 4.114153861999512 0.1396685540676117 4456788 4 -1
-1.8156379461288452 4.179455757141113 -0.034917138516902924 4456788 4 -1
-1.850608468055725 4.164235591888428 0 4725613 4 -1
-1.85055410861969 4.164113521575928 0.034917138516902924 4726897 4 -1
-1.8962600231170654 4.172160625457764 -0.24616584181785583 4456788 4 -1
-1.86185622215271 4.189545631408691 -0.2109992951154709 4456788 4 -1
-1.8624587059020996 4.190901279449463 -0.17583273351192474 4456788 4 -1
-1.862951397895813 4.192009925842285 -0.1406661868095398 4456788 4 -1
-1.8637722730636597 4.193857192993164 0.03516654670238495 4456788 4 -1
-2.039599895477295 4.111218452453613 0.03516654670238495 4456788 4 -1
-1.8989378213882446 4.1780524253845215 0.03516654670238495 4456788 4 -1
-1.9684014320373535 4.143540859222412 0.1406661868095398 4456788 4 -1
-1.9684014320373535 4.143540859222412 0.1406661868095398 4456788 4 -1
-1.8975993394851685 4.175107479095459 0.17583273351192474 4725613 4 -1
-1.8981014490127563 4.176211833953857 0.1406661868095398 4726897 4 -1
-1.910439372062683 4.203358173370361 -0.21249572932720184 4456788 4 -1
-1.9458179473876953 4.187098026275635 -0.21249572932720184 4456788 4 -1
-1.9476488828659058 4.191038131713867 -0.07083190977573395 4456788 4 -1
-1.9478776454925537 4.191530227661133 0 4456788 4 -1
-1.8770456314086914 4.223724842071533 0 4456788 4 -1
-1.9119563102722168 4.206695556640625 0.10624786466360092 4456788 4 -1
-2.0519535541534424 4.136119365692139 0.21249572932720184 4456788 4 -1
-1.981196403503418 4.170474529266357 0.21249572932720184 4456788 4 -1
-1.946447491645813 4.18845272064209 0.17707978188991547 4456788 4 -1
-1.8062137365341187 4.254497051239014 0 4456788 4 -1
-1.8743436336517334 4.217644691467285 0.24791169166564941 4726897 4 -1
-1.9258731603622437 4.2373151779174805 0.035665363073349 4456788 4 -1
-1.961537480354309 4.220923900604248 0.035665363073349 4456788 4 -1
-1.9546147584915161 4.206027507781982 0.392318993806839 4456788 4 -1
-1.9579061269760132 4.213109970092773 0.285322904586792 4456788 4 -1
-1.9231573343276978 4.231339931488037 0.2496575564146042 4456788 4 -1
-1.8163151741027832 4.278290748596191 0.2496575564146042 4456788 4 -1
-1.8545445203781128 4.269015312194824 0.035665363073349 4456788 4 -1
-1.9238932132720947 4.232959270477295 0.213992178440094 4456788 4 -1
-1.960673451423645 4.219064712524414 0.142661452293396 4657508 4 -1
-1.960673451423645 4.219064712524414 0.142661452293396 4657508 4 -1
-1.93888521194458 4.265944480895996 -0.10774431377649307 4456788 4 -1
-1.9393408298492432 4.266946792602539 -0.035914771258831024 4456788 4 -1
-2.010695695877075 4.232571601867676 -0.10774431377649307 4456788 4 -1
-1.939170002937317 4.266571044921875 -0.07182954251766205 4456788 4 -1
-1.9706099033355713 4.2404465675354 0.3232329487800598 4456788 4 -1
-1.928206443786621 4.2424492835998535 -0.5028068423271179 4456788 4 -1
-1.8315995931625366 4.314292907714844 0.035914771258831024 4456788 4 -1
-1.795685887336731 4.329363822937012 0.035914771258831024 4456788 4 -1
-1.9366059303283691 4.260929584503174 0.25140342116355896 4456788 4 -1
-1.795527696609497 4.328982353210449 -0.07182954251766205 4456788 4 -1
-1.8311693668365479 4.313279151916504 0.10774431377649307 4456788 4 -1
-1.867074728012085 4.297859191894531 0.10774431377649307 4456788 4 -1
-1.9029799699783325 4.2820820808410645 0.10774431377649307 4456788 4 -1
-1.7944202423095703 4.32631254196167 0.17957386374473572 4456788 4 -1
-2.025134563446045 4.262965679168701 0.03616417944431305 4456788 4 -1
-2.0251941680908203 4.263091087341309 0 4456788 4 -1
-2.024956226348877 4.262590408325195 0.0723283588886261 4456788 4 -1
-2.024956226348877 4.262590408325195 0.0723283588886261 4456788 4 -1
-2.025134563446045 4.262965679168701 0.03616417944431305 4456788 4 -1
-1.9831823110580444 4.267500400543213 0.3616417944431305 4456788 4 -1
-1.9819520711898804 4.264853000640869 0.39780598878860474 4456788 4 -1
-1.9415967464447021 4.271910667419434 0.5062985420227051 4456788 4 -1
-1.9459165334701538 4.281414985656738 0.39780598878860474 4456788 4 -1
-1.8077312707901 4.358404636383057 0.10849253833293915 4456788 4 -1
-1.8073594570159912 4.357508659362793 0.1446567177772522 4456788 4 -1
-1.80815589427948 4.359428882598877 -0.03616417944431305 4456788 4 -1
-1.9152944087982178 4.3097920417785645 -0.18082089722156525 4590430 4 -1
-2.1077473163604736 4.071352958679199 -1.1210895776748657 3107982 0 -1
-1.96425461769104 4.321762561798096 0.21848152577877045 4456788 4 -1
-1.9968594312667847 4.296931266784668 0.36413589119911194 4456788 4 -1
-1.9549870491027832 4.301372051239014 0.5097902417182922 4456788 4 -1
-1.9605528116226196 4.313617706298828 0.36413589119911194 4456788 4 -1
-1.9565540552139282 4.304819583892822 0.47337666153907776 4456788 4 -1
-1.8934509754180908 4.358575344085693 0.036413587629795074 4456788 4 -1
-1.893506646156311 4.358703136444092 0 4456788 4 -1
-1.7473903894424438 4.4179582595825195 -0.10924076288938522 4456788 4 -1
-1.8526718616485596 4.363927841186523 0.32772231101989746 4456788 4 -1
-1.5902189016342163 4.222078323364258 -1.4929571151733398 4456788 0 -1
-1.8526718616485596 4.363927841186523 -0.32772231101989746 4456788 4 -1
-1.8447858095169067 4.345352649688721 -0.5462038516998291 4456788 4 -1
-1.8526718616485596 4.363927841186523 -0.32772231101989746 4523353 4 -1
-1.9285032749176025 4.33951473236084 -0.18206794559955597 4590430 4 -1
-1.7445652484893799 4.410815238952637 -0.2913087010383606 4590430 4 -1
-1.9788717031478882 4.353923320770264 0.1466519832611084 4456788 4 -1
-2.0429162979125977 4.300396919250488 0.4766189455986023 4456788 4 -1
-1.9648668766021729 4.3231096267700195 0.5866079330444336 4456788 4 -1
-1.9224358797073364 4.325861930847168 0.6965969204902649 4456788 4 -1
-2.001253128051758 4.306386470794678 0.5866079330444336 4456788 4 -1
-2.001253128051758 4.306386470794678 0.5866079330444336 4456788 4 -1
-1.9362242221832275 4.356888294219971 0.4032929539680481 4456788 4 -1
-1.9429106712341309 4.371933937072754 0.0733259916305542 4456788 4 -1
-1.7964341640472412 4.434587478637695 0.0366629958152771 4456788 4 -1
-1.8698128461837769 4.404303073883057 0 4456788 4 -1
-1.9050761461257935 4.385335445404053 -0.1833149790763855 4456788 4 -1
-1.7962758541107178 4.434196949005127 -0.0733259916305542 4456788 4 -1
-1.9059721231460571 4.387397766113281 -0.1099889874458313 4456788 4 -1
-1.7593588829040527 4.44821834564209 -0.1099889874458313 4456788 4 -1
-1.8266266584396362 4.403961181640625 -0.4032929539680481 4456788 4 -1
-1.8969937562942505 4.366730690002441 -0.4766189455986023 4456788 4 -1
-1.7430049180984497 4.406870365142822 -0.6599339246749878 4456788 4 -1
-1.7875518798828125 4.412661075592041 -0.4766189455986023 4456788 4 -1
-1.861891746520996 4.385645389556885 -0.4399559497833252 4523353 4 -1
-1.8253841400146484 4.400965690612793 -0.4399559497833252 4657508 4 -1
-1.9561277627944946 4.401675224304199 0.07382480800151825 4456788 4 -1
-1.9561277627944946 4.401675224304199 0.07382480800151825 4456788 4 -1
-1.8454035520553589 4.44923210144043 -0.07382480800151825 4456788 4 -1
-1.9434356689453125 4.275956630706787 1.0704597234725952 4456788 0 -1
-2.0215818881988525 4.350130081176758 0.4429488480091095 4456788 4 -1
-2.0215818881988525 4.350130081176758 0.4429488480091095 4456788 4 -1
-2.0900635719299316 4.304845809936523 0.5536860823631287 4456788 4 -1
-1.9126148223876953 4.402688980102539 0.40603646636009216 4456788 4 -1
-1.959275245666504 4.310806751251221 0.885897696018219 4456788 4 -1
-1.9174154996871948 4.4137396812438965 0.22147442400455475 4456788 4 -1
-1.9126148223876953 4.402688980102539 0.40603646636009216 4456788 4 -1
-1.9549211263656616 4.398960113525391 0.18456202745437622 4456788 4 -1
-1.806795358657837 4.460164546966553 0.22147442400455475 4456788 4 -1
-1.8824774026870728 4.434134006500244 0.036912404000759125 4456788 4 -1
-1.918035864830017 4.415167808532715 -0.18456202745437622 4456788 4 -1
-1.7715873718261719 4.479135990142822 -0.07382480800151825 4456788 4 -1
-1.839052677154541 4.433920383453369 -0.40603646636009216 4456788 4 -1
-1.9466273784637451 4.3802971839904785 -0.4798612594604492 4456788 4 -1
-1.7600535154342651 4.449974536895752 -0.5536860823631287 4456788 4 -1
-1.8010456562042236 4.445971488952637 -0.4429488480091095 4456788 4 -1
-1.839052677154541 4.433920383453369 -0.40603646636009216 4590430 4 -1
-1.836440920829773 4.427623271942139 -0.4798612594604492 4657508 4 -1
-1.6597117185592651 4.299360275268555 -1.4026713371276855 4725613 0 -1
-1.8070656061172485 4.159722805023193 1.6241458654403687 4726897 0 -1
-1.9174154996871948 4.4137396812438965 -0.22147442400455475 4600703 4 -1
-1.7323856353759766 4.487617015838623 -0.2583868205547333 4600703 4 -1
-2.118161201477051 4.362717628479004 0.03716181218624115 4456788 4 -1
-1.9315063953399658 4.446176052093506 0.1486472487449646 4456788 4 -1
-2.078065872192383 4.374387264251709 0.26013270020484924 4456788 4 -1
-1.8567265272140503 4.476531505584717 0.18580906093120575 4456788 4 -1
-1.893248438835144 4.459505081176758 0.2229708731174469 4456788 4 -1
-1.8575996160507202 4.478636741638184 0.11148543655872345 4456788 4 -1
-2.006679058074951 4.415104866027832 -0.03716181218624115 4456788 4 -1
-1.8575996160507202 4.478636741638184 -0.11148543655872345 4456788 4 -1
-2.040957450866699 4.391823768615723 0.26013270020484924 4456788 4 -1
-1.8943620920181274 4.462128162384033 0.1486472487449646 4456788 4 -1
-1.9359855651855469 4.356351375579834 0.8918834924697876 4456788 4 -1
-1.9665111303329468 4.326727390289307 0.9662071466445923 4456788 4 -1
-1.8947516679763794 4.463046073913574 0.11148543655872345 4456788 4 -1
-1.8144491910934448 4.479058742523193 0.40877994894981384 4456788 4 -1
-1.9637856483459473 4.4189066886901855 -0.3716181218624115 4456788 4 -1
-1.8502192497253418 4.460842609405518 -0.4459417462348938 4456788 4 -1
-1.9582107067108154 4.406362056732178 -0.5202654004096985 4456788 4 -1
-1.773473858833313 4.48390531539917 -0.5202654004096985 4456788 4 -1
-1.813214898109436 4.476011753082275 -0.4459417462348938 4590430 4 -1
-1.8104212284088135 4.469115257263184 -0.5202654004096985 4657508 4 -1
-1.8747835159301758 4.218634605407715 1.486472487449646 2199437 0 -1
-2.307689666748047 4.186580657958984 -0.8175598978996277 2134668 0 -1
-1.9059548377990723 4.489434719085693 0.22446732223033905 4456788 4 -1
-1.9122055768966675 4.40174674987793 0.8978692889213562 4456788 4 -1
-1.9593733549118042 4.408978462219238 0.7482244372367859 4456788 4 -1
-1.8831093311309814 4.435622692108154 0.7856356501579285 4456788 4 -1
-1.8781086206436157 4.423843860626221 0.8604580760002136 4456788 4 -1
-1.8831093311309814 4.435622692108154 0.7856356501579285 4456788 4 -1
-1.8484654426574707 4.456614017486572 0.7482244372367859 4456788 4 -1
-1.795527696609497 4.5396647453308105 0.07482244074344635 4456788 4 -1
-1.8612576723098755 4.48745584487915 -0.48634588718414307 4456788 4 -1
-1.9696544408798218 4.432113170623779 -0.5611683130264282 4456788 4 -1
-1.8225716352462769 4.499109268188477 -0.5237571001052856 4456788 4 -1
-1.935707926750183 4.455847263336182 -0.48634588718414307 4590430 4 -1
-1.7881313562393188 4.5209641456604 -0.4489346444606781 4590430 4 -1
-1.9713530540466309 4.435935020446777 -0.5237571001052856 4657508 4 -1
-1.9713530540466309 4.435935020446777 -0.5237571001052856 4657508 4 -1
-2.320016622543335 4.208943843841553 -0.8604580760002136 2134668 0 -1
-2.330199956893921 4.141087055206299 -1.1223366260528564 2072968 0 -1
-2.1961100101470947 4.242035388946533 -1.0101029872894287 4899181 0 -1
-2.1039743423461914 4.428925514221191 -0.3389456570148468 4456788 4 -1
-1.9569149017333984 4.504664421081543 0.188303142786026 4456788 4 -1
-1.8736660480499268 4.5173726081848145 0.4895881712436676 4456788 4 -1
-1.906203031539917 4.49001932144165 0.6025700569152832 4456788 4 -1
-1.722392201423645 4.573001861572266 0.5272487998008728 4456788 4 -1
-1.9647717475891113 4.421125888824463 0.866194486618042 4456788 4 -1
-2.036008596420288 4.381174564361572 0.9038550853729248 4456788 4 -1
-1.850916862487793 4.462524890899658 0.9038550853729248 4456788 4 -1
-1.856083631515503 4.474981307983398 0.8285338282585144 4456788 4 -1
-1.8607884645462036 4.486324787139893 0.753212571144104 4456788 4 -1
-1.8072324991226196 4.569258213043213 -0.1129818856716156 4456788 4 -1
-1.8361927270889282 4.53273344039917 -0.4895881712436676 4456788 4 -1
-1.7566968202590942 4.550593376159668 -0.6025700569152832 4456788 4 -1
-1.9111393690109253 4.501646995544434 -0.4895881712436676 4590430 4 -1
-1.9435795545578003 4.4739670753479 -0.6025700569152832 4657508 4 -1
-2.1107115745544434 4.443107604980469 -0.53074049949646 4456788 4 -1
-2.115407705307007 4.452992916107178 -0.41701042652130127 4456788 4 -1
-1.9480360746383667 4.484225749969482 -0.7582007646560669 4456788 4 -1
-1.980478048324585 4.456468105316162 -0.8340208530426025 4456788 0 -1
-1.9265319108963013 4.537903785705566 0.41701042652130127 4456788 4 -1
-2.0384697914123535 4.485051155090332 0.4549204409122467 4456788 4 -1
-1.8435786962509155 4.550966262817383 0.6065605878829956 4456788 4 -1
-1.6961075067520142 4.617307186126709 0.53074049949646 4456788 4 -1
-1.7397100925445557 4.618981838226318 0.3411903381347656 4456788 4 -1
-2.017845630645752 4.43967342376709 0.8340208530426025 4456788 4 -1
-2.017845630645752 4.43967342376709 0.8340208530426025 4456788 4 -1
-1.9169386625289917 4.5153069496154785 0.6444706320762634 4456788 4 -1
-1.9431105852127075 4.4728875160217285 0.8340208530426025 4456788 4 -1
-1.7765334844589233 4.601978302001953 0.37910038232803345 4456788 4 -1
-1.873111605644226 4.516035556793213 0.7582007646560669 4456788 4 -1
-1.8333854675292969 4.525803565979004 0.7961108088493347 4456788 4 -1
-2.1293249130249023 4.482288837432861 -0.41975390911102295 4456788 4 -1
-2.0009026527404785 4.502427577972412 -0.725029468536377 4456788 4 -1
-2.003121852874756 4.507421016693115 -0.6868700385093689 4456788 4 -1
-2.0009026527404785 4.502427577972412 -0.725029468536377 4456788 4 -1
-2.036269426345825 4.480209827423096 0.763188898563385 4456788 4 -1
-1.9043841361999512 4.591433525085449 0.305275559425354 4456788 4 -1
-1.8238940238952637 4.611383438110352 0.457913339138031 4456788 4 -1
-1.8238940238952637 4.611383438110352 0.457913339138031 4456788 4 -1
-1.7511556148529053 4.649369716644287 0.34343501925468445 4456788 4 -1
-1.9023629426956177 4.586560249328613 0.3815944492816925 4456788 4 -1
-1.7478983402252197 4.640721797943115 0.457913339138031 4456788 4 -1
-1.8765007257461548 4.632236003875732 0.38408854603767395 4456788 4 -1
-1.8358148336410522 4.641523361206055 0.4609062373638153 4456788 4 -1
-1.8358148336410522 4.641523361206055 0.4609062373638153 4456788 4 -1
-1.867836356163025 4.610847473144531 0.6145416498184204 4456788 4 -1
-1.8329863548278809 4.634371757507324 0.537723958492279 4456788 4 -1
-1.884833574295044 4.652805805206299 0.5025573968887329 4456788 4 -1
-1.878115177154541 4.636221408843994 0.6571904420852661 4456788 4 -1
-1.9164440631866455 4.620509624481201 0.6571904420852661 4456788 4 -1
-1.7707467079162598 4.701385021209717 0.4638991355895996 4456788 4 -1
-1.9505654573440552 4.594513893127441 0.7345069646835327 4456788 4 -1
-3.110567569732666 3.9296159744262695 0.5798739194869995 4456788 0 -1
-1.9433563947677612 4.57753324508667 0.8504817485809326 4456788 4 -1
-1.8358262777328491 4.641552448272705 0.7345069646835327 4456788 4 -1
-1.8920940160751343 4.67072868347168 0.6225227117538452 4456788 4 -1
-1.779425024986267 4.724425792694092 0.5447073578834534 4456788 4 -1
-3.1333353519439697 3.958379030227661 0.5447073578834534 4456788 0 -1
-2.9639711380004883 4.056063652038574 0.7392457127571106 4456788 0 -1
-1.953233003616333 4.600797653198242 0.8948764204978943 4456788 4 -1
-3.0919859409332275 3.985257625579834 0.5836150646209717 4456788 0 -1
-2.928722620010376 4.088443756103516 0.7003380656242371 4456788 0 -1
-3.6335153579711914 3.896921396255493 -0.3272234797477722 4456788 0 -1
-3.416019916534424 4.061821460723877 -0.5726410746574402 4456788 0 -1
-3.5568835735321045 3.9770987033843994 -0.1636117398738861 4523353 0 -1
-3.4978652000427246 3.9111080169677734 0.9816704392433167 4726897 0 -1
-3.617577075958252 3.961848020553589 -0.2469140589237213 4456788 0 -1
-3.45029616355896 4.102577209472656 -0.3292187452316284 4456788 0 -1
-4.6496686935424805 2.686610460281372 0.0823046863079071 4456788 0 -1
-3.5353593826293945 4.035385608673096 -0.2469140589237213 4523353 0 -1
-4.6778483390808105 2.702893018722534 0.08280350267887115 4456788 0 -1
-3.765789270401001 3.8711960315704346 -0.1656070053577423 4523353 0 -1
-4.706442832946777 2.7194149494171143 0.0416511595249176 4456788 0 -1
-3.8263907432556152 3.8498423099517822 -0.2915581166744232 4523353 0 -1
-2.0395214557647705 5.034660816192627 -0.6285085082054138 4456788 0 -1
-4.690659046173096 2.805727958679199 -0.1676022708415985 4456788 0 -1
-4.10613489151001 3.6111464500427246 0.04190056771039963 4523353 0 -1
-4.955998420715332 2.341501474380493 -0.4636497497558594 4456788 0 -1
-5.013490676879883 2.2574336528778076 -0.1685999035835266 4456788 0 -1
-4.669848918914795 2.8876166343688965 -0.3371998071670532 4456788 0 -1
-3.5229885578155518 4.18901252746582 0.5479496717453003 4523353 0 -1
-4.985323905944824 2.355356454849243 -0.46639323234558105 4456788 0 -1
-4.939713001251221 2.4411163330078125 -0.5087926387786865 4456788 0 -1
-5.036038398742676 2.2675862312316895 -0.3391950726509094 4456788 0 -1
-4.855273246765137 2.605020761489868 -0.5087926387786865 4456788 0 -1
-3.580063819885254 4.171011924743652 0.6359907388687134 4456788 0 -1
-3.5409963130950928 4.210424423217773 0.5935913920402527 4523353 0 -1
-5.0075273513793945 2.365846872329712 -0.5544342994689941 4456788 0 -1
-5.06312370300293 2.2797820568084717 -0.38383913040161133 4456788 0 -1
-4.844661235809326 2.699838638305664 -0.46913671493530273 4456788 0 -1
-3.7282214164733887 4.083022117614746 0.6397318840026855 4523353 0 -1
-3.948664665222168 4.415165424346924 0.09078456461429596 4523353 0 -1
-3.4416003227233887 4.804411888122559 0.4085305333137512 4523353 0 -1
-3.97036075592041 4.439424991607666 -0.09128338098526001 4456788 0 -1
-3.3675553798675537 4.8920183181762695 0.45641690492630005 4456788 0 -1
-3.6426424980163574 4.694998264312744 0.41077521443367004 4456788 0 -1
-4.016468524932861 4.398700714111328 0 4523353 0 -1
-3.686107873916626 4.656702995300293 -0.45641690492630005 4523353 0 -1
-3.4564249515533447 4.825106620788574 0.5020585656166077 4523353 0 -1
-3.787259340286255 4.595487594604492 0.13692507147789001 4590430 0 -1
-3.7878153324127197 4.596162796020508 0.09128338098526001 4657508 0 -1
-4.010686874389648 4.392368793487549 -0.31949183344841003 3562893 0 -1
-2.782835006713867 5.263372421264648 0.18256676197052002 3562893 0 -1
-3.9895942211151123 4.460930824279785 -0.22945548593997955 4456788 0 -1
-3.7590909004211426 4.654335021972656 0.275346577167511 4456788 0 -1
-3.3950438499450684 4.931950569152832 0.1376732885837555 4456788 0 -1
-3.6891376972198486 4.6605305671691895 0.7342575788497925 4456788 0 -1
-3.3452277183532715 4.957385540008545 0.3212376832962036 4456788 0 -1
-3.6660029888153076 4.725107669830322 0.3212376832962036 4456788 0 -1
-3.607365369796753 4.743460178375244 0.5965842604637146 4456788 0 -1
-3.6252903938293457 4.767030239105225 -0.04589109867811203 4523353 0 -1
-3.5781538486480713 4.70504903793335 -0.9637130498886108 4590430 0 -1
-3.6557352542877197 4.711873531341553 0.550693154335022 4657508 0 -1
-3.522547960281372 4.820451259613037 -0.7843886017799377 4456788 0 -1
-3.7076776027679443 4.590677261352539 -1.199653148651123 4456788 0 -1
-3.7549798488616943 4.649244785308838 -0.7382481098175049 4456788 0 -1
-3.5108518600463867 4.804445743560791 -0.9228101372718811 4456788 0 -1
-3.7091872692108154 4.685859203338623 0.7382481098175049 4456788 0 -1
-3.5292739868164062 4.829655647277832 -0.692107617855072 4456788 0 -1
-3.721548318862915 4.701475143432617 -0.5536860823631287 4456788 0 -1
-3.522547960281372 4.820451259613037 -0.7843886017799377 4456788 0 -1
-3.643139600753784 4.695639133453369 -0.968950629234314 4456788 0 -1
-3.6140427589416504 4.7522406578063965 -0.7843886017799377 4523353 0 -1
-3.5775954723358154 4.704314708709717 -1.1535125970840454 4590430 0 -1
-3.6803884506225586 4.743649005889893 0.46140506863594055 4657508 0 -1
-4.152523517608643 4.360593795776367 -0.046140506863594055 4724328 0 -1
-3.9209067821502686 4.568116664886475 0.13842152059078217 4724328 0 -1
-3.7369420528411865 4.720922470092773 0.09228101372718811 4724328 0 -1
-3.546137571334839 4.8527326583862305 -0.36912405490875244 4724328 0 -1
-3.3539879322052 4.970367908477783 -0.5536860823631287 4724328 0 -1
-3.5022685527801514 4.889103412628174 -0.6958487033843994 4456788 0 -1
-3.675724744796753 4.737637996673584 -0.8350184559822083 4456788 0 -1
-3.6371572017669678 4.782634258270264 -0.7422386407852173 4523353 0 -1
-5.5042033195495605 2.6005053520202637 -2.014469623565674 4456788 0 -1
-5.8263630867004395 2.4909491539001465 0.9826681017875671 4456788 0 -1
-2.505730152130127 5.902192115783691 0.04913340508937836 4456788 0 -1
-5.729669570922852 2.579908847808838 1.2774684429168701 4725613 0 -1
-2.391300678253174 5.632656574249268 1.9162027835845947 4725613 0 -1
-5.700695991516113 2.5668628215789795 -1.4248687028884888 4728182 0 -1
-2.468275308609009 5.6817755699157715 1.7777812480926514 4456788 0 -1
-2.4208083152770996 5.702160835266113 1.7777812480926514 4456788 0 -1
-2.377891778945923 5.601071834564209 2.1234610080718994 4456788 0 -1
-5.758754253387451 2.5930049419403076 1.283953070640564 4725613 0 -1
-2.4093973636627197 5.675282955169678 1.876546859741211 4725613 0 -1
-5.677818298339844 2.6825311183929443 -1.588231086730957 4456788 0 -1
-2.550206422805786 5.738470077514648 1.588231086730957 4456788 0 -1
-2.3308048248291016 5.893015384674072 1.3400698900222778 4456788 0 -1
-2.497004270553589 5.747907638549805 1.637863278388977 4456788 0 -1
-2.4489850997924805 5.76853084564209 1.637863278388977 4456788 0 -1
-5.745100021362305 2.8391239643096924 -0.9430121779441833 4456788 0 -1
-5.4589033126831055 3.485196352005005 -0.09926444292068481 4456788 0 -1
-2.4502062797546387 5.640182018280029 2.0349209308624268 4456788 0 -1
-5.699429035186768 2.816554307937622 -1.2408055067062378 4725613 0 -1
-5.6464924812316895 2.790393829345703 -1.646093726158142 4456788 0 -1
-5.792124271392822 2.8623626232147217 -0.7981060743331909 4456788 0 -1
-5.792124271392822 2.8623626232147217 -0.7981060743331909 4456788 0 -1
-5.85096549987793 2.6345250606536865 -1.0973957777023315 4456788 0 -1
-5.670278072357178 2.923137903213501 -1.2969223260879517 4456788 0 -1
-5.690239429473877 2.8120129108428955 -1.446567177772522 4657508 0 -1
-3.779409170150757 5.069884300231934 1.546330451965332 4657508 0 -1
-2.496103286743164 5.616727352142334 2.1449100971221924 4657508 0 -1
-5.538297176361084 2.9714863300323486 -1.695975422859192 4471684 0 -1
-5.586456298828125 2.8799259662628174 -1.695975422859192 4341894 0 -1
-5.662788391113281 2.7984471321105957 -1.7044552564620972 4456788 0 -1
-3.9962117671966553 5.1507134437561035 0.5514414310455322 4456788 0 -1
-3.8963065147399902 5.226696014404297 0.5514414310455322 4456788 0 -1
-3.8008882999420166 5.305971145629883 0.4511793255805969 4523353 0 -1
-5.6684041023254395 3.0412933826446533 -1.3602720499038696 4456788 0 -1
-4.75442361831665 4.478278160095215 -0.7557066679000854 4456788 0 -1
-3.5718624591827393 5.508905410766602 -0.3526630997657776 4456788 0 -1
-3.1664116382598877 5.744462966918945 0.45342400670051575 4456788 0 -1
-4.010389804840088 5.168987274169922 0.6549457907676697 4456788 0 -1
-3.819798231124878 5.332368850708008 0.45342400670051575 4456788 0 -1
-3.7463390827178955 5.334980487823486 0.8564675450325012 4456788 0 -1
-3.8126933574676514 5.322450637817383 0.6045653223991394 4523353 0 -1
-3.9069983959198 5.241038799285889 0.7053261995315552 4590430 0 -1
-3.7123594284057617 5.392911911010742 0.6045653223991394 4590430 0 -1
-4.047414302825928 5.216708660125732 0.25314927101135254 4456788 0 -1
-3.842329740524292 5.3638224601745605 0.35440897941589355 4456788 0 -1
-3.9940006732940674 5.251861572265625 0.35440897941589355 4456788 0 -1
-3.8315680027008057 5.348799705505371 0.6075582504272461 4456788 0 -1
-3.8341763019561768 5.352440357208252 0.5569283962249756 4523353 0 -1
-3.9294872283935547 5.271206378936768 0.6581881046295166 4590430 0 -1
-4.049317836761475 5.2191619873046875 0.15188956260681152 4657508 0 -1
-4.049317836761475 5.2191619873046875 0.15188956260681152 4657508 0 -1
-4.070341110229492 5.24625825881958 0 4456788 0 -1
-4.019461631774902 5.285341262817383 0 4456788 0 -1
-4.016510486602783 5.281460762023926 0.25439631938934326 4523353 0 -1
-4.016510486602783 5.281460762023926 0.25439631938934326 4523353 0 -1
-3.632094383239746 5.49096155166626 0.8649474382400513 4523353 0 -1
-4.081836700439453 5.053944110870361 1.3737400770187378 4590430 0 -1
-3.951770305633545 5.301097869873047 0.610551118850708 4590430 0 -1
-4.026973724365234 5.190362453460693 -0.9667059779167175 4657508 0 -1
-3.9807581901550293 5.130795478820801 1.5338600873947144 4456788 0 -1
-3.7284462451934814 5.525287628173828 -0.30677202343940735 4456788 0 -1
-3.6681644916534424 5.545492172241211 -0.562415361404419 4523353 0 -1
-4.1210479736328125 5.102493762969971 1.2270880937576294 4590430 0 -1
-4.008300304412842 5.166294097900391 1.3293453454971313 4657508 0 -1
-5.790038585662842 3.1065542697906494 -1.3358299732208252 4456788 0 -1
-2.4254589080810547 5.847734451293945 2.2092573642730713 4456788 0 -1
-5.543548583984375 3.3158857822418213 -1.7982326745986938 4456788 0 -1
-3.8001914024353027 5.520504951477051 -0.20551231503486633 4456788 0 -1
-3.741670608520508 5.544885158538818 -0.46240270137786865 4456788 0 -1
-3.8954379558563232 5.437960624694824 -0.46240270137786865 4456788 0 -1
-3.695310115814209 5.5865302085876465 -0.3082684576511383 4456788 0 -1
-3.904275417327881 5.4502973556518555 -0.10275615751743317 4523353 0 -1
-3.790800094604492 5.506862163543701 -0.5137807726860046 4590430 0 -1
-5.755917549133301 3.088247299194336 -1.6520795822143555 4456788 0 -1
-5.5943708419799805 3.346285343170166 -1.703706979751587 4456788 0 -1
-3.9695940017700195 5.43221378326416 -0.36139240860939026 4456788 0 -1
-3.763381242752075 5.577058792114258 -0.36139240860939026 4456788 0 -1
-3.9235737323760986 5.477237701416016 -0.05162748694419861 4523353 0 -1
-3.8702423572540283 5.511425018310547 -0.20650994777679443 4590430 0 -1
-3.9926440715789795 5.463757038116455 -0.20750758051872253 4456788 0 -1
-3.733381509780884 5.6440863609313965 0.20750758051872253 4456788 0 -1
-4.118844032287598 5.308773994445801 -0.8300303220748901 4523353 0 -1
-3.7830088138580322 5.60614538192749 -0.3112613558769226 4523353 0 -1
-6.5824480056762695 3.2529261112213135 -0.4509299099445343 4456788 0 -1
-5.83293342590332 4.421926975250244 0.7327611446380615 4456788 0 -1
-4.786064147949219 5.576082706451416 0.3381974399089813 4456788 0 -1
-4.509166717529297 5.81186056137085 -0.05636623874306679 4456788 0 -1
-5.510740756988525 4.846428871154785 -0.5072961449623108 4590430 0 -1
-4.842370986938477 5.527255535125732 0.3381974399089813 4590430 0 -1
-3.428231954574585 6.4840569496154785 0.5636624097824097 4590430 0 -1
-3.089111566543579 6.6472883224487305 0.6200286149978638 4590430 0 -1
-4.566440582275391 5.768836975097656 0.6793878078460693 4456788 0 -1
-2.9245033264160156 6.731976509094238 -0.8492347002029419 4456788 0 -1
-4.363857269287109 5.853891372680664 1.1323130130767822 4456788 0 -1
-4.529252052307129 5.837748050689697 0 4456788 0 -1
-3.042039394378662 6.69310998916626 0.7360033988952637 4590430 0 -1
-6.510608196258545 3.4931647777557373 -0.05661564692854881 4657508 0 -1
-5.955986976623535 4.277742385864258 0.905850350856781 4657508 0 -1
-4.981592178344727 5.455671310424805 0.11323129385709763 4657508 0 -1
-4.633752822875977 5.737300872802734 0.4529251754283905 4657508 0 -1
-4.491811752319336 5.906452178955078 -0.11373011022806168 4456788 0 -1
-4.4528350830078125 5.9732513427734375 -0.22845785319805145 4456788 0 -1
-4.473856449127197 6.001450061798096 -0.11472774296998978 4456788 0 -1
-4.737910270690918 5.866264343261719 0.40503883361816406 4456788 0 -1
-2.9213035106658936 6.88106632232666 1.2784661054611206 4456788 0 -1
-4.452908992767334 6.731860160827637 0.12370643764734268 4456788 0 -1
-4.470207691192627 6.758012294769287 0.1863078773021698 4456788 0 -1
-4.5697712898254395 6.772070407867432 -0.06260144710540771 4456788 0 -1
-4.714419841766357 6.581244468688965 1.3198678493499756 4456788 0 -1
-3.2992594242095947 7.423987865447998 -1.1313153505325317 4456788 0 -1
-3.0096585750579834 7.609373569488525 0.5656576752662659 4456788 0 -1
-3.109060525894165 7.495884895324707 -1.1941661834716797 4456788 0 -1
-4.5240654945373535 6.8394341468811035 -0.18855255842208862 4456788 0 -1
-3.2177352905273438 7.579305171966553 -0.12620052695274353 4456788 0 -1
-4.541084289550781 6.8651628494262695 -0.25240105390548706 4456788 0 -1
-4.456944465637207 7.450138092041016 -0.3995518386363983 4456788 0 -1
-4.379880905151367 8.828518867492676 -0.3778533339500427 4456788 0 -1
-4.394335746765137 8.857656478881836 -0.37910038232803345 4456788 0 -1
-4.407364845275879 8.883918762207031 -0.45641690492630005 4456788 0 -1
-4.512753009796143 8.90381908416748 -0.45940980315208435 4456788 0 -1
-4.378480911254883 9.018235206604004 0.07681770622730255 4456788 0 -1
3.2438602447509766 9.543438911437988 0.4638991355895996 4456788 5 -1
3.2449100017547607 9.546526908874512 0.386582612991333 4456788 5 -1
3.2457683086395264 9.549052238464355 0.3092660903930664 4456788 5 -1
3.246912717819214 9.55241870880127 0.1546330451965332 4456788 5 -1
3.246912717819214 9.55241870880127 0.1546330451965332 4456788 5 -1
-4.40131139755249 8.87171745300293 -1.932913064956665 4456788 0 -1
3.254324436187744 9.574224472045898 0.46539559960365295 4456788 5 -1
3.3328864574432373 9.550625801086426 0.38782966136932373 4456788 5 -1
3.333768129348755 9.553152084350586 0.3102637231349945 4456788 5 -1
3.2553772926330566 9.577322006225586 0.38782966136932373 4456788 5 -1
3.333768129348755 9.553152084350586 0.3102637231349945 4456788 5 -1
-4.402528285980225 9.067765235900879 -0.9307911992073059 4456788 0 -1
3.3425214290618896 9.578235626220703 0.4668920338153839 4456788 5 -1
3.3425214290618896 9.578235626220703 0.4668920338153839 4456788 5 -1
3.3436031341552734 9.581335067749023 0.38907670974731445 4456788 5 -1
3.3425214290618896 9.578235626220703 0.4668920338153839 4456788 5 -1
-4.4060797691345215 9.075079917907715 -1.1672301292419434 4456788 0 -1
-4.436316967010498 8.942276954650879 -1.8675681352615356 4590430 0 -1
3.351952075958252 9.605259895324707 0.5464532375335693 4456788 5 -1
3.0386061668395996 9.182477951049805 -3.2006547451019287 4456788 0 -1
3.4332351684570312 9.58700180053711 0.3122589886188507 4456788 5 -1
3.277179002761841 9.641462326049805 0.3122589886188507 4456788 5 -1
3.4332351684570312 9.58700180053711 0.3122589886188507 4456788 5 -1
3.362661123275757 9.635947227478027 0.5481991171836853 4456788 5 -1
3.3671133518218994 9.64870548248291 0.1566283106803894 4456788 5 -1
3.5232057571411133 9.59121036529541 -0.2349424660205841 4456788 5 -1
3.288325309753418 9.67425537109375 0.2349424660205841 4456788 5 -1
3.131094455718994 9.724074363708496 0.3132566213607788 4456788 5 -1
3.4449124336242676 9.619608879089355 0.2349424660205841 4456788 5 -1
3.2867796421051025 9.669708251953125 0.3915707767009735 4456788 5 -1
3.2085230350494385 9.695955276489258 0.3915707767009735 4456788 5 -1
3.0660793781280518 9.26550006866455 -3.142542600631714 4456788 0 -1
3.29811954498291 9.703069686889648 0.3142542541027069 4456788 5 -1
3.140235424041748 9.752462387084961 0.39281782507896423 4456788 5 -1
3.1421735286712646 9.758481979370117 0.15712712705135345 4456788 5 -1
3.141066074371338 9.75504207611084 0.3142542541027069 4456788 5 -1
3.141712188720703 9.757048606872559 0.23569069802761078 4456788 5 -1
3.151685953140259 9.788023948669434 -0.23643891513347626 4456788 5 -1
3.1667184829711914 9.316487312316895 -2.9948930740356445 4456788 0 -1
3.1510379314422607 9.7860107421875 0.315251886844635 4456788 5 -1
3.4676690101623535 9.683155059814453 -0.07881297171115875 4456788 5 -1
3.230952501296997 9.7637357711792 0.1576259434223175 4456788 5 -1
3.151685953140259 9.788023948669434 0.23643891513347626 4456788 5 -1
3.2313318252563477 9.76488208770752 0 4456788 5 -1
3.151685953140259 9.788023948669434 0.23643891513347626 4456788 5 -1
3.151685953140259 9.788023948669434 0.23643891513347626 4456788 5 -1
3.1510379314422607 9.7860107421875 0.315251886844635 4456788 5 -1
3.1491854190826416 9.780258178710938 0.4728778302669525 4456788 5 -1
3.1491854190826416 9.780258178710938 0.4728778302669525 4456788 5 -1
3.0811691284179688 9.839471817016602 -0.3953118920326233 4456788 5 -1
3.1610095500946045 9.81697940826416 -0.3162495195865631 4456788 5 -1
3.162402391433716 9.821305274963379 0.07906237989664078 4456788 5 -1
3.240034580230713 9.791181564331055 -0.3162495195865631 4456788 5 -1
3.2415575981140137 9.795783996582031 0 4456788 5 -1
3.240034580230713 9.791181564331055 0.3162495195865631 4456788 5 -1
3.2228522300720215 9.739256858825684 -1.1068732738494873 4456788 5 -1
3.232027530670166 9.766984939575195 -0.7906237840652466 4456788 5 -1
3.1490979194641113 9.779986381530762 -0.9487485885620117 4456788 5 -1
3.2228522300720215 9.739256858825684 -1.1068732738494873 4456788 5 -1
