VERSION .7
FIELDS x y z rgb label object
SIZE 4 4 4 4 4 4
TYPE F F F I I I
COUNT 1 1 1 1 1 1
WIDTH 683
HEIGHT 1
POINTS 683
VIEWPOINT 0 0 0 1 0 0 0
DATA ascii
-1.7055418491363525 2.5784199237823486 0.4549204409122467 4724328 0 -1
-1.8091813325881958 2.5255842208862305 0.335204541683197 4725613 0 -1
-1.7853763103485107 2.5424680709838867 0.335204541683197 4726897 0 -1
-1.8076225519180298 2.5234081745147705 0.35914772748947144 3432845 0 -1
-1.7767465114593506 2.581064224243164 0.38708144426345825 4456788 0 -1
-1.7669227123260498 2.566793203353882 0.5080443620681763 4456788 0 -1
-1.7971032857894897 2.5591681003570557 0.43546661734580994 4456788 0 -1
-1.7971032857894897 2.5591681003570557 0.43546661734580994 4456788 0 -1
-1.7930114269256592 2.5533409118652344 0.4838517904281616 4456788 0 -1
-1.8210647106170654 2.542173385620117 0.43546661734580994 4456788 0 -1
-1.7834993600845337 2.539795398712158 0.580622136592865 4456788 0 -1
-1.7384166717529297 2.5762078762054443 0.5564295649528503 4590430 0 -1
-1.7333530187606812 2.5687038898468018 0.6048147678375244 4657508 0 -1
-1.7306569814682007 2.5647084712982178 0.6290073394775391 4724328 0 -1
-1.7219053506851196 2.55173921585083 0.7015851140022278 4726897 0 -1
-1.7543646097183228 2.5485501289367676 0.6290073394775391 4728182 0 -1
-1.6703965663909912 2.525287628173828 0.8951258063316345 4536450 0 -1
-1.7672133445739746 2.618882417678833 0.4399559497833252 4456788 0 -1
-1.7932971715927124 2.605107069015503 0.4155139625072479 4456788 0 -1
-1.785138487815857 2.593255043029785 0.5132819414138794 4456788 0 -1
-1.7992013692855835 2.5621557235717773 0.6110499501228333 4456788 0 -1
-1.7456635236740112 2.586947202682495 0.6599339246749878 4590430 0 -1
-1.7512226104736328 2.5951852798461914 0.6110499501228333 4657508 0 -1
-1.7456635236740112 2.586947202682495 0.6599339246749878 4724328 0 -1
-1.7634879350662231 2.5618035793304443 0.7088179588317871 4728182 0 -1
-1.7456635236740112 2.586947202682495 0.6599339246749878 4664956 0 -1
-1.7569407224655151 2.5522923469543457 0.7577019333839417 4600703 0 -1
-1.6835718154907227 2.545206069946289 0.9287959337234497 4536450 0 -1
-1.7811812162399292 2.6395819187164307 0.4938281178474426 4456788 0 -1
-1.8010157346725464 2.6163198947906494 0.5432109236717224 4456788 0 -1
-1.8787802457809448 2.5710277557373047 0.4938281178474426 4456788 0 -1
-1.7393192052841187 2.629484176635742 0.6666679382324219 4590430 0 -1
-1.7604992389678955 2.6089327335357666 0.6913593411445618 4724328 0 -1
-1.7602304220199585 2.5570712089538574 0.8641992211341858 4600703 0 -1
-1.6965453624725342 2.564819097518921 0.9629648327827454 4536450 0 -1
-1.909520149230957 2.561523914337158 0.41975390911102295 4341894 0 -1
-1.7840173244476318 2.5405328273773193 0.8641992211341858 4212104 0 -1
-1.8819458484649658 2.57535982131958 0.6484611630439758 4724328 0 -1
-1.7719229459762573 2.625861644744873 0.7482244372367859 4724328 0 -1
-1.75679349899292 2.5520787239074707 0.9976325631141663 4600703 0 -1
-1.8562204837799072 2.7507846355438232 -0.10175852477550507 4456788 0 -1
-1.67066490650177 2.8499529361724854 0.33071520924568176 4456788 0 -1
-1.026474952697754 3.18786883354187 0.15413422882556915 4456788 0 -1
0.6913855671882629 3.1474812030792236 0.9248054027557373 4456788 0 -1
-2.4660754203796387 2.2710635662078857 -0.02568903937935829 4456788 0 -1
-1.6946799755096436 2.8909199237823486 0.10275615751743317 4456788 0 -1
-1.3524960279464722 3.043384313583374 -0.3853355646133423 4456788 0 -1
-2.6770009994506836 1.9760164022445679 -0.41102463006973267 4456788 0 -1
-1.9904658794403076 2.6701083183288574 -0.3853355646133423 4456788 0 -1
-1.1557012796401978 3.1461615562438965 -0.07706711441278458 4456788 0 -1
-1.9966148138046265 2.678356885910034 -0.2825794219970703 4456788 0 -1
-1.69502854347229 2.891514539718628 0.07706711441278458 4456788 0 -1
-1.9733468294143677 2.7004380226135254 -0.23120135068893433 4456788 0 -1
-1.9486953020095825 2.7203433513641357 -0.20551231503486633 4456788 0 -1
-1.7207107543945312 2.876305341720581 0.07706711441278458 4456788 0 -1
-2.7395315170288086 1.7490336894989014 -0.8220492601394653 4456788 0 -1
-1.8441729545593262 2.78800106048584 -0.2568903863430023 4456788 0 -1
-2.825047492980957 1.8036307096481323 -0.07706711441278458 4523353 0 -1
-1.9952565431594849 2.67653489112854 -0.3082684576511383 4523353 0 -1
-1.9999767541885376 2.6828668117523193 -0.20551231503486633 4657508 0 -1
-1.9989746809005737 2.6815223693847656 -0.23120135068893433 4724328 0 -1
-1.232748031616211 3.11677885055542 -0.07706711441278458 4726897 0 -1
-1.9495564699172974 2.721545457839966 -0.17982326447963715 4664956 0 -1
-1.9766037464141846 2.704894781112671 -0.12844519317150116 4536450 0 -1
-2.1094729900360107 2.559649705886841 -0.48809173703193665 4212104 0 -1
-1.9845949411392212 2.6622328758239746 -0.46240270137786865 4017546 0 -1
-1.9752085208892822 2.7029857635498047 -0.17982326447963715 3432845 0 -1
-1.3091790676116943 3.083742618560791 -0.12844519317150116 2912910 0 -1
1.1532546281814575 3.1395010948181152 0.23120135068893433 2912910 0 -1
-2.61751127243042 2.0892088413238525 -0.15413422882556915 2458766 0 -1
-2.1603035926818848 2.516897201538086 -0.48809173703193665 2458766 0 -1
-2.02083683013916 2.6572742462158203 -0.3082684576511383 2458766 0 -1
-1.9821937084197998 2.7125444412231445 -0.41501516103744507 4456788 0 -1
-1.9887994527816772 2.7215840816497803 -0.3112613558769226 4456788 0 -1
-1.9887994527816772 2.7215840816497803 -0.3112613558769226 4456788 0 -1
-1.8582795858383179 2.8093273639678955 -0.3371998071670532 4456788 0 -1
-1.9666287899017334 2.745378017425537 -0.23344601690769196 4456788 0 -1
-1.990153193473816 2.7234368324279785 -0.285322904586792 4456788 0 -1
-1.8582795858383179 2.8093273639678955 -0.3371998071670532 4456788 0 -1
-1.9840242862701416 2.7150495052337646 -0.38907670974731445 4456788 0 -1
-2.77156662940979 1.7694861888885498 -0.8040918707847595 4456788 0 -1
-1.8889987468719482 2.7993595600128174 -0.23344601690769196 4456788 0 -1
-2.8784067630767822 1.7798725366592407 0.07781533896923065 4523353 0 -1
-2.0146279335021973 2.7025206089019775 -0.3112613558769226 4523353 0 -1
-1.9913885593414307 2.7251272201538086 -0.2593844532966614 4590430 0 -1
-1.9925055503845215 2.7266557216644287 -0.23344601690769196 4657508 0 -1
-1.9935044050216675 2.728022813796997 -0.20750758051872253 4724328 0 -1
-1.2444604635238647 3.1463916301727295 -0.10375379025936127 4726897 0 -1
-1.9913885593414307 2.7251272201538086 -0.2593844532966614 4664956 0 -1
-2.0183823108673096 2.70755672454834 -0.23344601690769196 4536450 0 -1
-1.9873268604278564 2.719568967819214 -0.3371998071670532 4212104 0 -1
-2.007936477661133 2.6935441493988037 -0.41501516103744507 4017546 0 -1
-2.021059513092041 2.711148262023926 -0.1556306779384613 3432845 0 -1
-1.3209564685821533 3.1114840507507324 -0.18156912922859192 2912910 0 -1
-2.0193941593170166 2.708914041519165 -0.20750758051872253 2458766 0 -1
-1.9071621894836426 2.8262765407562256 -0.23569069802761078 4456788 0 -1
-3.079869508743286 2.0893807411193848 0.6364895701408386 4456788 0 -1
3.3418188095092773 1.7227720022201538 -0.34717613458633423 4456788 0 -1
-3.118131399154663 2.2395217418670654 0.11772064119577408 4456788 0 -1
-2.3388097286224365 3.0144896507263184 0.44145241379737854 4456788 0 -1
-2.0367586612701416 3.0791499614715576 1.0594857931137085 4456788 0 -1
-2.258058547973633 3.0900533199310303 0.32373178005218506 4456788 0 -1
-1.9671201705932617 3.222360134124756 0.7063238620758057 4456788 0 -1
-2.9422383308410645 2.467285394668579 0.08829048275947571 4456788 0 -1
-2.914889335632324 2.4443511962890625 -0.5297428965568542 4456788 0 -1
-2.2365922927856445 3.0606777667999268 0.6180333495140076 4523353 0 -1
3.302525281906128 1.840435266494751 -0.6768937110900879 4523353 0 -1
-2.1334457397460938 2.9195261001586914 1.2949271202087402 4590430 0 -1
3.336033821105957 1.7898964881896973 -0.6474635601043701 4590430 0 -1
-2.1918559074401855 3.059790849685669 0.7651841640472412 4657508 0 -1
-2.3460347652435303 3.0238020420074463 0.32373178005218506 4724328 0 -1
-2.2931251525878906 3.076110363006592 0.17658096551895142 4726897 0 -1
-2.8350677490234375 2.6108767986297607 0.38583439588546753 4456788 0 -1
-2.042137384414673 3.213322877883911 0.7123096585273743 4456788 0 -1
2.039214849472046 3.273822069168091 -0.35615482926368713 4456788 0 -1
-2.7982890605926514 2.6357593536376953 0.4748730957508087 4456788 0 -1
-3.263218641281128 2.0833778381347656 -0.11871827393770218 4456788 0 -1
-2.792612075805664 2.6304121017456055 0.5342322587966919 4456788 0 -1
-2.2786080837249756 3.1181743144989014 0.29679569602012634 4456788 0 -1
3.6467268466949463 1.2933775186538696 -0.17807741463184357 4456788 0 -1
-3.7386374473571777 1.0088685750961304 0.08903870731592178 4456788 0 -1
-3.145202875137329 2.258965253829956 0.08903870731592178 4456788 0 -1
-2.309494972229004 3.098069667816162 0.26711612939834595 4456788 0 -1
3.645331859588623 1.2928828001022339 -0.20775698125362396 4456788 0 -1
-3.234977960586548 2.130068063735962 0.029679568484425545 4456788 0 -1
-2.8838155269622803 2.5361759662628174 0.5045526623725891 4456788 0 -1
-2.0450515747070312 3.2179083824157715 0.6826300621032715 4456788 0 -1
-3.1756205558776855 2.21759033203125 -0.029679568484425545 4456788 0 -1
-2.9849376678466797 2.4426329135894775 0.35615482926368713 4456788 0 -1
-3.76653790473938 0.8912487626075745 0.14839784801006317 4456788 0 -1
-3.145202875137329 2.258965253829956 0.08903870731592178 4456788 0 -1
-2.3699002265930176 3.0545623302459717 0.23743654787540436 4456788 0 -1
-1.9712135791778564 3.229065418243408 0.8310279250144958 4456788 0 -1
3.645331859588623 1.2928828001022339 -0.20775698125362396 4456788 0 -1
-2.982727527618408 2.440824270248413 0.38583439588546753 4456788 0 -1
-3.7342424392700195 1.0076825618743896 0.20775698125362396 4456788 0 -1
-3.1148905754089355 2.2992424964904785 0.11871827393770218 4456788 0 -1
-2.916111946105957 2.5047836303710938 0.4748730957508087 4456788 0 -1
-2.2771944999694824 3.1162402629852295 0.32647526264190674 4456788 0 -1
-3.1140668392181396 2.2986345291137695 0.14839784801006317 4456788 0 -1
-2.7792086601257324 2.6177871227264404 0.6529505252838135 4456788 0 -1
-2.993321418762207 2.449493408203125 -0.20775698125362396 4456788 0 -1
-2.9777705669403076 2.436768054962158 0.4451935291290283 4456788 0 -1
-2.9849376678466797 2.4426329135894775 0.35615482926368713 4523353 0 -1
-3.1993653774261475 2.1704466342926025 0.23743654787540436 4590430 0 -1
-3.1162631511688232 2.30025577545166 -0.029679568484425545 4657508 0 -1
-2.8298189640045166 2.5471341609954834 0.7123096585273743 4657508 0 -1
-2.2829103469848633 3.1240618228912354 0.17807741463184357 4657508 0 -1
3.3767852783203125 1.8117611408233643 -0.5639117956161499 4657508 0 -1
-3.20501708984375 2.1742806434631348 0.05935913696885109 4724328 0 -1
-2.9777705669403076 2.436768054962158 0.4451935291290283 4724328 0 -1
-2.8303563594818115 2.6065378189086914 0.4451935291290283 4724328 0 -1
-2.371854782104492 3.057081460952759 0.17807741463184357 4724328 0 -1
-3.20501708984375 2.1742806434631348 0.05935913696885109 4726897 0 -1
-3.1753408908843994 2.217395067214966 0.05935913696885109 4664956 0 -1
-2.9482877254486084 2.472358226776123 0.4451935291290283 4664956 0 -1
-2.270181655883789 3.1066431999206543 0.4451935291290283 4536450 0 -1
-3.2053935527801514 2.1745359897613525 0 4212104 0 -1
-3.7918405532836914 0.7541374564170837 0.23743654787540436 4212104 0 -1
-2.982727527618408 2.440824270248413 0.38583439588546753 4017546 0 -1
-2.339103937149048 3.075775623321533 0.26711612939834595 4017546 0 -1
0.22714857757091522 3.6985905170440674 -1.1278235912322998 4017546 0 -1
-3.234977960586548 2.130068063735962 -0.029679568484425545 3432845 0 -1
-2.4615955352783203 2.9869179725646973 0.14839784801006317 3432845 0 -1
-2.072707176208496 3.2614243030548096 0.5686505436897278 4456788 0 -1
3.434771776199341 1.7706910371780396 -0.5686505436897278 4456788 0 -1
3.732215642929077 1.1199904680252075 -0.2693607807159424 4456788 0 -1
-3.3378450870513916 1.9965394735336304 -0.35914772748947144 4456788 0 -1
-3.0196304321289062 2.471022605895996 0.17957386374473572 4456788 0 -1
-2.8312079906463623 2.6667661666870117 0.35914772748947144 4456788 0 -1
3.6725001335144043 1.3025184869766235 -0.2693607807159424 4456788 0 -1
-3.049527645111084 2.4340298175811768 0.17957386374473572 4456788 0 -1
-2.856602191925049 2.6307082176208496 0.41900569200515747 4456788 0 -1
-3.7710511684417725 1.0176153182983398 0 4456788 0 -1
-3.2588090896606445 2.1457595825195312 -0.17957386374473572 4456788 0 -1
-2.9822475910186768 2.500836133956909 0.3292187452316284 4456788 0 -1
-2.856602191925049 2.6307082176208496 0.41900569200515747 4456788 0 -1
-2.3300700187683105 3.1256699562072754 0.23943181335926056 4456788 0 -1
3.6743412017822266 1.3031715154647827 -0.23943181335926056 4456788 0 -1
-3.2588090896606445 2.1457595825195312 -0.17957386374473572 4456788 0 -1
-3.7706081867218018 1.0174957513809204 0.05985795333981514 4456788 0 -1
-3.0171420574188232 2.4689862728118896 0.23943181335926056 4456788 0 -1
-3.799975633621216 0.8991608619689941 0.08978693187236786 4456788 0 -1
-3.202024459838867 2.2360284328460693 -0.05985795333981514 4456788 0 -1
-3.0156302452087402 2.4677493572235107 0.2693607807159424 4456788 0 -1
-2.82684588432312 2.6626572608947754 0.41900569200515747 4456788 0 -1
3.6743412017822266 1.3031715154647827 -0.23943181335926056 4456788 0 -1
-3.0156302452087402 2.4677493572235107 0.2693607807159424 4456788 0 -1
-3.7692794799804688 1.0171371698379517 0.11971590667963028 4456788 0 -1
-3.079425096511841 2.3960931301116943 0.17957386374473572 4456788 0 -1
-2.856602191925049 2.6307082176208496 0.41900569200515747 4456788 0 -1
-2.2977559566497803 3.1443774700164795 0.2992897629737854 4456788 0 -1
3.6759650707244873 1.3037474155426025 -0.20950284600257874 4456788 0 -1
-3.2913174629211426 2.1013174057006836 -0.08978693187236786 4456788 0 -1
-3.1720991134643555 2.278282642364502 0.05985795333981514 4456788 0 -1
-2.8457224369049072 2.6206889152526855 0.5387215614318848 4456788 0 -1
-3.0053834915161133 2.459364175796509 -0.41900569200515747 4456788 0 -1
-3.002794027328491 2.457245111465454 0.4489346444606781 4456788 0 -1
-3.0120701789855957 2.4648358821868896 0.3292187452316284 4523353 0 -1
-3.2575623989105225 2.1449389457702637 -0.20950284600257874 4590430 0 -1
-2.890812397003174 2.602034568786621 0.35914772748947144 4590430 0 -1
-3.231475353240967 2.192229986190796 -0.08978693187236786 4724328 0 -1
-3.013939619064331 2.4663658142089844 0.2992897629737854 4724328 0 -1
-3.7692794799804688 1.0171371698379517 0.11971590667963028 4726897 0 -1
-3.2323296070098877 2.1928093433380127 0 4726897 0 -1
-3.767063617706299 1.0165393352508545 0.17957386374473572 4664956 0 -1
-3.2023065090179443 2.2362256050109863 -0.02992897666990757 4664956 0 -1
-3.013939619064331 2.4663658142089844 0.2992897629737854 4664956 0 -1
-2.888671875 2.6001079082489014 0.38907670974731445 4536450 0 -1
-2.261476755142212 3.156980276107788 0.41900569200515747 4536450 0 -1
-3.172471523284912 2.278550386428833 0 4212104 0 -1
-3.768282413482666 1.016868233680725 0.1496448814868927 4017546 0 -1
-3.3783984184265137 1.9520617723464966 -0.17957386374473572 4017546 0 -1
-3.0120701789855957 2.4648358821868896 0.3292187452316284 4017546 0 -1
-2.35597562789917 3.0979607105255127 0.3292187452316284 4017546 0 -1
-3.2897703647613525 2.100329637527466 -0.1496448814868927 3432845 0 -1
-3.0470147132873535 2.4320240020751953 0.23943181335926056 3432845 0 -1
-2.450643301010132 3.0342748165130615 0.20950284600257874 3432845 0 -1
3.6161932945251465 1.4613769054412842 -0.20950284600257874 3432845 0 -1
-2.2892587184906006 3.132749557495117 0.4489346444606781 2912910 0 -1
-2.8804070949554443 2.6526308059692383 0.42249739170074463 4456788 0 -1
3.690521717071533 1.3089101314544678 -0.42249739170074463 4456788 0 -1
-2.914902448654175 2.62371826171875 0.36214062571525574 4456788 0 -1
-3.0436291694641113 2.490661382675171 0.21124869585037231 4456788 0 -1
-2.8886075019836426 2.6601827144622803 0.30178385972976685 4456788 0 -1
-2.055173873901367 3.299443244934082 0.6337460875511169 4456788 0 -1
-3.2515063285827637 2.2058188915252686 -0.2716054618358612 4456788 0 -1
-3.7721874713897705 1.1319854259490967 0.030178384855389595 4456788 0 -1
-3.0121631622314453 2.5259225368499756 0.24142707884311676 4456788 0 -1
-3.227570056915283 2.2538676261901855 -0.12071353942155838 4456788 0 -1
-3.0106539726257324 2.5246570110321045 0.2716054618358612 4456788 0 -1
-2.8526875972747803 2.686998128890991 0.392318993806839 4456788 0 -1
3.670938730239868 1.3945733308792114 -0.30178385972976685 4456788 0 -1
-3.832204818725586 0.9067870378494263 0.06035676971077919 4456788 0 -1
-3.771855115890503 1.1318857669830322 0.06035676971077919 4456788 0 -1
-3.2577342987060547 2.2100441455841064 -0.12071353942155838 4456788 0 -1
-3.0121631622314453 2.5259225368499756 0.24142707884311676 4456788 0 -1
-3.802030086517334 1.025974988937378 0.06035676971077919 4456788 0 -1
-3.1069133281707764 2.4174816608428955 0.12071353942155838 4456788 0 -1
-2.882715940475464 2.654757022857666 0.392318993806839 4456788 0 -1
-2.2880969047546387 3.1941418647766113 0.2716054618358612 4456788 0 -1
-3.317185163497925 2.1178324222564697 -0.15089192986488342 4456788 0 -1
-3.167893171310425 2.3383660316467285 0.09053515642881393 4456788 0 -1
-2.9079036712646484 2.6174185276031494 0.45267578959465027 4456788 0 -1
-2.9960339069366455 2.4517130851745605 -0.7242812514305115 4456788 0 -1
-3.0278172492980957 2.47772216796875 0.45267578959465027 4456788 0 -1
-3.039055824279785 2.4869189262390137 0.30178385972976685 4523353 0 -1
-3.279773235321045 2.1595635414123535 -0.30178385972976685 4590430 0 -1
-3.069145441055298 2.449688196182251 0.30178385972976685 4590430 0 -1
-2.8804070949554443 2.6526308059692383 0.42249739170074463 4590430 0 -1
-3.0407605171203613 2.488313913345337 0.2716054618358612 4724328 0 -1
-2.8453192710876465 2.6800577640533447 0.4828541576862335 4724328 0 -1
3.7381629943847656 1.226805329322815 -0.18107031285762787 4724328 0 -1
-2.9127440452575684 2.6217756271362305 0.392318993806839 4726897 0 -1
3.832204818725586 0.9067870378494263 -0.06035676971077919 4726897 0 -1
-3.0422849655151367 2.4895613193511963 0.24142707884311676 4664956 0 -1
-3.0422849655151367 2.4895613193511963 0.24142707884311676 4664956 0 -1
3.704960823059082 1.3140312433242798 -0.24142707884311676 4664956 0 -1
-3.8325424194335938 0.9068669080734253 0.030178384855389595 4536450 0 -1
-3.13818359375 2.3790462017059326 0.06035676971077919 4536450 0 -1
-2.4107954502105713 3.107271909713745 0.21124869585037231 4536450 0 -1
-3.16863751411438 2.3389155864715576 -0.030178384855389595 4212104 0 -1
-2.370335102081299 3.11684250831604 0.42249739170074463 4212104 0 -1
-3.0004241466522217 2.516078472137451 0.42249739170074463 4017546 0 -1
-2.343942165374756 3.1442787647247314 0.36214062571525574 4017546 0 -1
-3.1069133281707764 2.4174816608428955 0.12071353942155838 3432845 0 -1
3.6408491134643555 1.4713408946990967 -0.30178385972976685 3432845 0 -1
-2.9483749866485596 2.6538472175598145 0.18256676197052002 4456788 0 -1
-3.801687240600586 1.1408380270004272 0.12171117216348648 4456788 0 -1
-2.9459455013275146 2.651660203933716 0.24342234432697296 4456788 0 -1
3.4879310131073 1.798095703125 -0.6085558533668518 4456788 0 -1
-3.324875831604004 2.1227424144744873 -0.45641690492630005 4456788 0 -1
-2.9621620178222656 2.6050777435302734 0.45641690492630005 4456788 0 -1
-3.313122510910034 2.1815223693847656 -0.18256676197052002 4456788 0 -1
-3.1889100074768066 2.353879690170288 0.24342234432697296 4456788 0 -1
-3.0331599712371826 2.4820940494537354 0.6389836668968201 4456788 0 -1
-2.7475149631500244 2.7643544673919678 0.7606948614120483 4456788 0 -1
-3.047022581100464 2.493438243865967 0.5172724723815918 4456788 0 -1
-3.060188055038452 2.504211902618408 0.36513352394104004 4523353 0 -1
-2.8492727279663086 2.683781623840332 0.6694114804267883 4523353 0 -1
-2.901709794998169 2.6722490787506104 0.45641690492630005 4590430 0 -1
-2.732846975326538 2.8093411922454834 0.6389836668968201 4590430 0 -1
-2.3428711891174316 3.206115961074829 -0.03042779304087162 4590430 0 -1
-3.892927646636963 0.774242103099823 -0.12171117216348648 4590430 0 -1
-2.68778657913208 2.822463035583496 0.7606948614120483 4657508 0 -1
-3.8643298149108887 0.9143885374069214 0 4724328 0 -1
-3.0355353355407715 2.5455219745635986 0.27385014295578003 4724328 0 -1
-2.7726030349731445 2.7895963191986084 0.5477002859115601 4724328 0 -1
3.761953830718994 1.2346131801605225 -0.3042779266834259 4724328 0 -1
-2.9692914485931396 2.6113476753234863 0.36513352394104004 4726897 0 -1
-3.8633086681365967 0.914146900177002 0.09128338098526001 4726897 0 -1
-3.0060126781463623 2.6436421871185303 -0.06135440245270729 4456788 0 -1
-3.7416296005249023 1.4214284420013428 -0.09203160554170609 4456788 0 -1
-2.6980199813842773 2.893608808517456 0.6135440468788147 4456788 0 -1
-2.237067699432373 3.3151726722717285 -0.18406321108341217 4456788 0 -1
-3.1054697036743164 2.4786808490753174 -0.4908352196216583 4456788 0 -1
-2.9890174865722656 2.6286957263946533 -0.42948082089424133 4456788 0 -1
-2.825368642807007 2.6612658500671387 0.9816704392433167 4456788 0 -1
-2.9442331790924072 2.711409568786621 -0.09203160554170609 4523353 0 -1
-2.960888624191284 2.6651105880737305 0.39880362153053284 4590430 0 -1
-2.911252498626709 2.742161512374878 0.18406321108341217 4724328 0 -1
-2.752830982208252 2.8907668590545654 0.30677202343940735 4724328 0 -1
-2.473332643508911 3.00115966796875 0.9509932398796082 4724328 0 -1
-2.363805055618286 3.1082561016082764 1.020578145980835 4456788 0 -1
-2.376870632171631 3.2526423931121826 0.24741287529468536 4456788 0 -1
-2.6929190158843994 2.8881380558013916 0.8350184559822083 4456788 0 -1
-2.2565817832946777 3.3440911769866943 0.12370643764734268 4456788 0 -1
-3.2782206535339355 2.354501962661743 0 4456788 0 -1
-2.38922119140625 3.2050180435180664 0.5566789507865906 4590430 0 -1
-2.937682867050171 2.767056703567505 0.06185321882367134 4724328 0 -1
-2.4082376956939697 3.166682243347168 0.680385410785675 4724328 0 -1
-2.4570419788360596 3.2308566570281982 0.2805841565132141 4456788 0 -1
-2.305941343307495 3.349821090698242 -0.12470407038927078 4456788 0 -1
-2.441920757293701 3.2109732627868652 0.5299922823905945 4456788 0 -1
-3.115229368209839 2.549253225326538 0.592344343662262 4456788 0 -1
-2.964294195175171 2.729884386062622 0.5611683130264282 4456788 0 -1
-3.242210626602173 2.457908868789673 0.031176017597317696 4456788 0 -1
-2.335728883743286 3.3261988162994385 0.18705610930919647 4523353 0 -1
-2.4443259239196777 3.2141361236572266 0.49881628155708313 4590430 0 -1
-2.328295946121216 3.3156139850616455 0.37411221861839294 4590430 0 -1
-2.337583541870117 3.3288397789001465 0.09352805465459824 4657508 0 -1
-2.4465832710266113 3.217104434967041 0.4676402509212494 4724328 0 -1
-2.3265719413757324 3.3131589889526367 0.4052882194519043 4724328 0 -1
3.5598137378692627 1.8351526260375977 -0.7170484066009521 4724328 0 -1
-3.112508773803711 2.610069990158081 0.5656576752662659 4456788 0 -1
-2.2922017574310303 3.329861640930176 0.6913593411445618 4456788 0 -1
-2.4737744331359863 3.252858877182007 0.3456796705722809 4456788 0 -1
-2.321108341217041 3.371853828430176 0.25140342116355896 4456788 0 -1
-2.466156005859375 3.2428412437438965 0.47138139605522156 4456788 0 -1
-2.9775280952453613 2.7420718669891357 0.6599339246749878 4456788 0 -1
-3.354515314102173 2.342515468597412 0.28282883763313293 4456788 0 -1
-2.6795597076416016 3.0585453510284424 0.5342322587966919 4456788 0 -1
-3.249384880065918 2.4633476734161377 0.4399559497833252 4456788 0 -1
-2.5033838748931885 3.226608991622925 0.37710511684417725 4523353 0 -1
-2.3535141944885254 3.3515257835388184 0.2199779748916626 4523353 0 -1
-2.466156005859375 3.2428412437438965 0.47138139605522156 4590430 0 -1
-2.343306303024292 3.336989402770996 0.4399559497833252 4590430 0 -1
-2.354414701461792 3.3528084754943848 0.18855255842208862 4657508 0 -1
-2.466156005859375 3.2428412437438965 0.47138139605522156 4724328 0 -1
-3.294071912765503 2.431504487991333 -0.5701470375061035 4456788 0 -1
-3.3455848693847656 2.4028847217559814 0.34842318296432495 4523353 0 -1
-2.4519994258880615 3.289232015609741 0.5067973732948303 4590430 0 -1
-2.3262557983398438 3.379331588745117 0.5067973732948303 4590430 0 -1
-3.2950751781463623 2.497985363006592 0.510787844657898 4590430 0 -1
-3.438117027282715 3.3112776279449463 0.3299669623374939 4456788 0 -1
0.7950429916381836 4.648807525634766 -0.8065859079360962 4456788 0 -1
1.5856596231460571 4.427812576293945 -0.8799118995666504 4456788 0 -1
1.2081372737884521 4.622621059417725 0.2566409707069397 4726897 6 -1
1.1704227924346924 4.627668857574463 0.3299669623374939 4728182 6 -1
1.1710095405578613 4.629988670349121 0.2933039665222168 4664956 6 -1
1.0978214740753174 4.647886276245117 0.2933039665222168 4017546 6 -1
1.0978214740753174 4.647886276245117 0.2933039665222168 3887499 6 -1
1.0612274408340454 4.656377792358398 0.2933039665222168 3757452 6 -1
0.9880393147468567 4.672455310821533 0.2933039665222168 3302798 6 -1
0.9880393147468567 4.672455310821533 0.2933039665222168 3238030 6 -1
0.9518657326698303 4.682112216949463 0.2566409707069397 2977934 6 -1
0.829215407371521 4.631502151489258 -1.033547282218933 4456788 0 -1
0.6850039958953857 4.6550164222717285 -1.033547282218933 4456788 0 -1
1.6350593566894531 4.45111608505249 -0.8489853143692017 4456788 0 -1
0.6600200533866882 4.739665985107422 -0.5536860823631287 4590430 0 -1
1.1799479722976685 4.665329933166504 0.22147442400455475 4728182 6 -1
1.1799479722976685 4.665329933166504 0.22147442400455475 4729209 6 -1
1.1415603160858154 4.668308734893799 0.3322116434574127 4664956 6 -1
1.1434444189071655 4.676013469696045 0.18456202745437622 4536450 6 -1
1.106201171875 4.683363914489746 0.22147442400455475 4017546 6 -1
1.1057780981063843 4.681572437286377 0.2583868205547333 3887499 6 -1
1.0684466361999512 4.688054084777832 0.295299232006073 3757452 6 -1
0.9959032535552979 4.709643840789795 0.18456202745437622 3238030 6 -1
0.956900954246521 4.706879615783691 0.36912405490875244 3107982 6 -1
0.9963715672492981 4.711858749389648 0.11073721200227737 2912910 6 -1
0.6996660232543945 4.7546539306640625 -0.3322116434574127 2782862 0 -1
0.9596943259239197 4.720620155334473 0.036912404000759125 2782862 6 -1
0.7335510849952698 4.7301344871521 -0.7803980708122253 4456788 0 -1
0.7670885920524597 4.70504093170166 -0.8918834924697876 4456788 0 -1
1.2997084856033325 4.668781757354736 0.18580906093120575 4456788 6 -1
1.2960350513458252 4.655586242675781 0.40877994894981384 4456788 6 -1
0.5471040606498718 4.728514194488525 -0.9290453195571899 4456788 0 -1
0.7729396820068359 4.74092960357666 -0.6689126491546631 4456788 0 -1
1.1886193752288818 4.699615001678467 0.1486472487449646 4456788 6 -1
0.5924732089042664 4.796161651611328 -0.40877994894981384 4523353 0 -1
0.6650526523590088 4.775805950164795 -0.5202654004096985 4590430 0 -1
0.703083336353302 4.777876377105713 -0.4459417462348938 4657508 0 -1
1.1503578424453735 4.704285144805908 0.26013270020484924 4536450 6 -1
0.8544958233833313 4.772703647613525 -0.11148543655872345 3432845 6 -1
1.0026322603225708 4.7414655685424805 -0.18580906093120575 3107982 6 -1
0.8540942072868347 4.77046012878418 -0.18580906093120575 2977934 6 -1
1.0033689737319946 4.7449493408203125 0 2977934 6 -1
1.0033689737319946 4.7449493408203125 0 2912910 6 -1
0.7428870797157288 4.790335655212402 -0.1486472487449646 2782862 0 -1
0.8914644718170166 4.764922618865967 -0.1486472487449646 2782862 6 -1
1.0326813459396362 4.701204776763916 -0.5945889949798584 2782862 6 -1
0.8916478157043457 4.765902519226074 -0.11148543655872345 2264205 6 -1
0.9957998394966125 4.7091546058654785 -0.5945889949798584 2264205 6 -1
1.3080081939697266 4.698596000671387 0.22446732223033905 4456788 6 -1
1.3047332763671875 4.686831951141357 0.4115234315395355 4456788 6 -1
0.7087234258651733 4.81620454788208 -0.37411221861839294 4657508 0 -1
0.7094764709472656 4.821321487426758 -0.2992897629737854 4724328 0 -1
1.0093613862991333 4.773287296295166 -0.18705610930919647 3107982 6 -1
1.0470221042633057 4.7664899826049805 -0.1496448814868927 2977934 6 -1
1.0472373962402344 4.767470359802246 -0.11223366111516953 2912910 6 -1
1.043786644935608 4.751760959625244 -0.4115234315395355 2782862 6 -1
1.0810647010803223 4.7434186935424805 -0.4115234315395355 2718350 6 -1
1.0071333646774292 4.76275110244751 -0.37411221861839294 2264205 6 -1
0.9722347855567932 4.782304763793945 -0.1496448814868927 2199437 6 -1
1.0093613862991333 4.773287296295166 -0.18705610930919647 2134668 6 -1
1.0090348720550537 4.7717437744140625 -0.22446732223033905 2468738 6 -1
0.9724346995353699 4.783288478851318 -0.11223366111516953 4505456 6 -1
0.7147953510284424 4.857466697692871 -0.2259637713432312 4657508 0 -1
0.7150266170501709 4.859038352966309 -0.188303142786026 4724328 0 -1
0.7514194250106812 4.8453545570373535 -0.3389456570148468 4726897 0 -1
0.9401604533195496 4.817008972167969 -0.2636243999004364 3887499 6 -1
0.9381653666496277 4.806787014007568 0.4142669141292572 3757452 6 -1
0.9031915068626404 4.827604293823242 0.188303142786026 3692940 6 -1
1.0157618522644043 4.803555011749268 -0.2259637713432312 3107982 6 -1
1.0895581245422363 4.7806854248046875 -0.3389456570148468 2718350 6 -1
1.0160905122756958 4.80510950088501 -0.188303142786026 2264205 6 -1
1.0160905122756958 4.80510950088501 -0.188303142786026 2264205 6 -1
0.9787163138389587 4.814187049865723 -0.1506425142288208 2199437 6 -1
0.9791476130485535 4.816308498382568 -0.0376606285572052 2134668 6 -1
1.1669310331344604 4.772059440612793 -0.1506425142288208 2134668 6 -1
1.1296862363815308 4.782793045043945 -0.0753212571144104 2070155 6 -1
1.054466724395752 4.800380706787109 0.0376606285572052 3651704 6 -1
1.0918697118759155 4.790827751159668 -0.1129818856716156 4505456 6 -1
0.4844253957271576 4.838958263397217 -0.9098408818244934 4456788 0 -1
1.2236825227737427 4.534832954406738 -1.5543115139007568 4456788 0 -1
0.9443784356117249 4.838620185852051 0.41701042652130127 3887499 6 -1
0.9443784356117249 4.838620185852051 0.41701042652130127 3757452 6 -1
0.9071660041809082 4.84884786605835 0.37910038232803345 3692940 6 -1
0.8698550462722778 4.858490943908691 0.3411903381347656 3562893 6 -1
1.0978084802627563 4.816885948181152 -0.26537024974823 2718350 6 -1
0.985632061958313 4.848204612731934 0.037910036742687225 2264205 6 -1
0.8340208530426025 4.876720428466797 0 2134668 6 -1
1.0234508514404297 4.839916706085205 0.07582007348537445 2134668 6 -1
1.173519492149353 4.799002647399902 -0.26537024974823 2134668 6 -1
1.0613564252853394 4.831745624542236 0.07582007348537445 3651704 6 -1
1.0589540004730225 4.8208088874816895 0.3411903381347656 4045940 6 -1
1.0607017278671265 4.828765392303467 -0.18955019116401672 4505456 6 -1
1.0978084802627563 4.816885948181152 -0.26537024974823 6933851 6 -1
1.0978084802627563 4.816885948181152 -0.26537024974823 13164576 6 -1
0.8683162331581116 4.84989595413208 -0.725029468536377 4456788 6 -1
1.0669264793395996 4.857102870941162 -0.26711612939834595 4456788 6 -1
0.15218903124332428 4.963099479675293 -0.3815944492816925 4456788 0 -1
0.6672110557556152 4.7913055419921875 -1.1829428672790527 4456788 0 -1
0.8767392039299011 4.896941661834717 0.2289566695690155 4456788 6 -1
1.27130126953125 4.566738128662109 -1.52637779712677 4456788 0 -1
0.9151543378829956 4.89154577255249 0.19079722464084625 4729209 6 -1
0.9131342172622681 4.880748271942139 0.3815944492816925 4341894 6 -1
1.0646624565124512 4.846796035766602 0.41975390911102295 4341894 6 -1
0.9505914449691772 4.870453357696533 0.41975390911102295 3757452 6 -1
0.9521920680999756 4.878654479980469 0.305275559425354 3692940 6 -1
0.8750869631767273 4.887713432312012 0.3815944492816925 3562893 6 -1
1.028367519378662 4.863167762756348 0.305275559425354 3562893 6 -1
1.0292155742645264 4.867178440093994 0.2289566695690155 3432845 6 -1
0.992029070854187 4.8796706199646 0.0763188898563385 2782862 6 -1
1.068182110786438 4.862819671630859 -0.11447833478450775 2718350 6 -1
1.068182110786438 4.862819671630859 0.11447833478450775 3651704 6 -1
1.0453484058380127 4.758870601654053 -1.030305027961731 4045940 0 -1
1.1054538488388062 4.850431442260742 -0.2289566695690155 4505456 6 -1
0.5952866077423096 4.818936347961426 -1.106623888015747 6343264 0 -1
1.2586700916290283 4.815971851348877 -0.152637779712677 6343264 6 -1
1.099290132522583 4.8233866691589355 -0.5723916888237 6933851 6 -1
1.099290132522583 4.8233866691589355 -0.5723916888237 13164576 6 -1
1.2964686155319214 4.80457067489624 -0.19079722464084625 13164576 6 -1
0.9910968542098999 4.875085353851318 -0.6145416498184204 4456788 6 -1
0.7561535239219666 4.875881195068359 -0.8834036588668823 4456788 0 -1
1.0012277364730835 4.734823703765869 1.305901050567627 4456788 0 -1
0.8817423582077026 4.924886226654053 0.3072708249092102 4729209 6 -1
1.0708919763565063 4.875155925750732 0.4609062373638153 4341894 6 -1
0.8751413226127625 4.677674293518066 -1.5747630596160889 4017546 0 -1
1.0708919763565063 4.875155925750732 0.4609062373638153 4017546 6 -1
0.803715705871582 4.929698467254639 0.42249739170074463 3887499 6 -1
0.9588391184806824 4.912711143493652 0.2688619792461395 3887499 6 -1
0.9568044543266296 4.902286052703857 0.42249739170074463 3757452 6 -1
0.9967522025108337 4.902903079986572 0.3072708249092102 3692940 6 -1
1.0350887775421143 4.89495325088501 0.3072708249092102 3562893 6 -1
1.0355461835861206 4.897116184234619 0.2688619792461395 3432845 6 -1
1.1126790046691895 4.882133483886719 0.23045311868190765 3302798 6 -1
1.0362776517868042 4.900575160980225 -0.19204427301883698 2070922 6 -1
1.0662847757339478 4.85418176651001 -0.6529505252838135 13164576 6 -1
1.3045201301574707 4.834408760070801 -0.23045311868190765 13164576 6 -1
0.9955087900161743 4.896787166595459 -0.6958487033843994 4456788 6 -1
1.0337976217269897 4.8888468742370605 -0.6958487033843994 4456788 6 -1
1.1171002388000488 4.9015326499938965 -0.4252408742904663 4456788 6 -1
1.1177936792373657 4.904574871063232 -0.386582612991333 4456788 6 -1
1.1202665567398071 4.9154253005981445 -0.1932913064956665 4523353 6 -1
1.043650507926941 4.935441493988037 0.0773165225982666 4726897 6 -1
1.0803956985473633 4.918420791625977 -0.3092660903930664 4729209 6 -1
1.040704369544983 4.921509265899658 -0.386582612991333 2718350 6 -1
1.041288137435913 4.924269676208496 -0.3479243516921997 2588302 6 -1
1.042669415473938 4.930801868438721 -0.2319495677947998 2070922 6 -1
1.0434972047805786 4.934716701507568 0.1159747838973999 2468738 6 -1
1.0770477056503296 4.90317964553833 -0.5025573968887329 2666112 6 -1
0.8759909868240356 4.682216167449951 -1.662305235862732 4505456 0 -1
0.9582220315933228 4.909549713134766 -0.6571904420852661 7589974 6 -1
0.9513295292854309 4.874235153198242 -0.8891400098800659 8180304 6 -1
0.9817091822624207 4.828908443450928 -1.0824313163757324 8705099 0 -1
1.2318238019943237 4.870438575744629 -0.4638991355895996 13164576 6 -1
1.5076279640197754 4.8144917488098145 0.0386582612991333 13164576 0 -1
1.1256362199783325 4.938986301422119 -0.35016903281211853 4456788 6 -1
1.1235425472259521 4.929799556732178 -0.4668920338153839 4456788 6 -1
1.1227105855941772 4.926149368286133 -0.5057997107505798 4456788 6 -1
1.1218113899230957 4.92220401763916 -0.5447073578834534 4456788 6 -1
1.118708848953247 4.908590793609619 -0.6614304184913635 4456788 6 -1
1.1163008213043213 4.898025035858154 -0.7392457127571106 4456788 6 -1
1.12430739402771 4.933155536651611 -0.427984356880188 4523353 6 -1
1.0855381488800049 4.941831588745117 -0.427984356880188 4724328 6 -1
1.086211919784546 4.94489860534668 -0.38907670974731445 4729209 6 -1
1.0878465175628662 4.952340126037598 -0.2723536789417267 4664956 6 -1
1.08682119846344 4.947672367095947 -0.35016903281211853 4147337 6 -1
1.0891269445419312 4.958168983459473 -0.11672300845384598 3887499 6 -1
1.046056866645813 4.9468207359313965 -0.4668920338153839 3302798 6 -1
1.0474185943603516 4.953260898590088 -0.38907670974731445 2718350 6 -1
1.0474185943603516 4.953260898590088 -0.38907670974731445 2588302 6 -1
1.046056866645813 4.9468207359313965 -0.4668920338153839 2523534 6 -1
1.0738242864608765 4.888504981994629 -0.855968713760376 2458766 6 -1
1.0480061769485474 4.9560394287109375 -0.35016903281211853 2070922 6 -1
1.0485315322875977 4.958523750305176 -0.3112613558769226 2006409 6 -1
1.0889029502868652 4.957149505615234 -0.1556306779384613 2666112 6 -1
1.1328518390655518 4.970646381378174 -0.35241371393203735 4456788 6 -1
1.1621965169906616 4.920433044433594 -0.7439844608306885 4456788 6 -1
1.1634854078292847 4.9258904457092285 -0.7048274278640747 4456788 6 -1
1.122141718864441 4.9236531257629395 -0.783141553401947 4456788 6 -1
1.120757818222046 4.917581081390381 -0.8222986459732056 4456788 6 -1
1.0917534828186035 4.970126628875732 -0.4698849320411682 4729209 6 -1
1.0937880277633667 4.979388236999512 -0.35241371393203735 4664956 6 -1
1.0955932140350342 4.987606525421143 -0.19578538835048676 4600703 6 -1
1.0847166776657104 4.93809175491333 0.7439844608306885 3887499 6 -1
1.0847166776657104 4.93809175491333 0.7439844608306885 3757452 6 -1
1.0459768772125244 4.946442604064941 0.7439844608306885 3692940 6 -1
0.9326805472373962 4.98522424697876 0.6265132427215576 3562893 6 -1
1.0847166776657104 4.93809175491333 0.7439844608306885 3562893 6 -1
1.0541328191757202 4.985012531280518 -0.3915707767009735 3302798 6 -1
1.0541328191757202 4.985012531280518 -0.3915707767009735 2588302 6 -1
1.0534789562225342 4.98192024230957 -0.43072786927223206 2523534 6 -1
1.085919737815857 4.943568706512451 -0.7048274278640747 2458766 6 -1
1.0891321897506714 4.958193302154541 -0.5873561501502991 2139270 6 -1
1.0541328191757202 4.985012531280518 -0.3915707767009735 3257723 6 -1
1.0629619359970093 4.839055061340332 -1.3792270421981812 4456788 0 -1
1.0738338232040405 4.888548374176025 -1.1821945905685425 4456788 0 -1
1.2489559650421143 4.93817663192749 -0.7093167304992676 4456788 6 -1
1.2929099798202515 4.946981906890869 -0.5516908168792725 4456788 6 -1
1.0845637321472168 4.9373955726623535 -0.945755660533905 4456788 0 -1
1.0950580835342407 4.985169887542725 -0.63050377368927 4456788 6 -1
1.058109164237976 4.816963195800781 -1.4580399990081787 4456788 0 -1
1.1249011754989624 4.935760974884033 -0.9063491821289062 4456788 6 -1
1.1264337301254272 4.942485809326172 -0.8669427037239075 4456788 6 -1
1.0970145463943481 4.994076728820801 -0.5516908168792725 4729209 6 -1
1.100137710571289 5.008295059204102 -0.39406487345695496 4664956 6 -1
1.0903481245040894 4.963728427886963 0.7881297469139099 4017546 6 -1
1.0845637321472168 4.9373955726623535 0.945755660533905 3887499 0 -1
1.052639126777649 4.9779486656188965 0.7487232685089111 3757452 6 -1
1.052639126777649 4.9779486656188965 0.7487232685089111 3692940 6 -1
1.091625690460205 4.969544887542725 0.7487232685089111 3562893 6 -1
1.1371043920516968 4.989305019378662 -0.5122843384742737 3302798 6 -1
1.0628501176834106 5.026236534118652 -0.23643891513347626 2588302 6 -1
1.0960693359375 4.989773750305176 -0.5910972952842712 2523534 6 -1
1.0586833953857422 5.006532192230225 -0.5122843384742737 2458766 6 -1
1.1009044647216797 5.01178503036499 -0.6741502285003662 4456788 6 -1
1.2881616353988647 4.9288129806518555 -0.9120855927467346 4456788 6 -1
1.2605788707733154 4.984131813049316 -0.5948384404182434 4456788 6 -1
1.0580615997314453 5.003591537475586 -0.793117880821228 4456788 6 -1
1.2508282661437988 4.945579528808594 -0.8724296689033508 4456788 6 -1
1.1039576530456543 5.025684833526611 -0.5551825165748596 4456788 6 -1
1.112648606300354 4.881999969482422 -1.3086445331573486 4456788 0 -1
1.0929856300354004 4.975735187530518 -0.9120855927467346 4456788 6 -1
1.0972490310668945 4.995144367218018 0.793117880821228 4017546 6 -1
1.0985347032546997 5.000997543334961 0.753462016582489 3692940 6 -1
1.0539504289627075 4.984149932861328 0.9120855927467346 3562893 0 -1
0.7871348857879639 5.075657367706299 0.6344943046569824 3432845 6 -1
0.8703526854515076 5.0891618728637695 0.3569030463695526 3302798 6 -1
1.0302963256835938 5.067902565002441 -0.198279470205307 2588302 6 -1
1.0686955451965332 5.053880214691162 -0.3172471523284912 2523534 6 -1
0.6811886429786682 4.891679763793945 -1.5465798377990723 2458766 0 -1
1.1019887924194336 5.016721725463867 -0.6344943046569824 2458766 6 -1
0.7177680730819702 5.154360294342041 0.19952651858329773 4456788 0 -1
0.7177680730819702 5.154360294342041 0.19952651858329773 4725613 0 -1
0.7578445672988892 5.150012016296387 0.1596212089061737 4726897 0 -1
0.7576441168785095 5.1486496925354 0.19952651858329773 4728182 0 -1
0.7578445672988892 5.150012016296387 0.1596212089061737 4729209 0 -1
0.7578445672988892 5.150012016296387 0.1596212089061737 4664956 0 -1
0.7576441168785095 5.1486496925354 0.19952651858329773 4600703 0 -1
0.7576441168785095 5.1486496925354 0.19952651858329773 4536450 0 -1
0.7578445672988892 5.150012016296387 0.1596212089061737 4471684 0 -1
0.8775042295455933 5.130978107452393 0.1596212089061737 3887499 0 -1
0.7578445672988892 5.150012016296387 0.1596212089061737 3692940 0 -1
0.8772721290588379 5.1296210289001465 0.19952651858329773 3692940 0 -1
0.8775042295455933 5.130978107452393 0.1596212089061737 3302798 0 -1
0.8376176357269287 5.137640476226807 0.1596212089061737 3238030 0 -1
0.8377898931503296 5.138697147369385 0.11971590667963028 2977934 0 -1
0.8778135776519775 5.132787227630615 0.07981060445308685 2912910 0 -1
0.8778908848762512 5.133239269256592 0.039905302226543427 2458766 0 -1
0.8380113840103149 5.140055179595947 0 2199437 0 -1
0.8779166340827942 5.133389949798584 0 2134668 0 -1
0.9168514609336853 5.12098503112793 0.23943181335926056 2070155 0 -1
0.7222541570663452 5.186574935913086 0.20077355206012726 4725613 0 -1
0.7625810503959656 5.182199478149414 0.1606188416481018 4726897 0 -1
0.7625810503959656 5.182199478149414 0.1606188416481018 4729209 0 -1
0.7625810503959656 5.182199478149414 0.1606188416481018 4664956 0 -1
0.7623793482780457 5.180829048156738 0.20077355206012726 4536450 0 -1
0.6816474199295044 5.188339710235596 0.28108298778533936 4017546 0 -1
0.8832998871803284 5.164866924285889 0.0803094208240509 4017546 0 -1
0.8831701874732971 5.164108753204346 0.12046413123607635 3887499 0 -1
0.8831701874732971 5.164108753204346 0.12046413123607635 3302798 0 -1
0.842852771282196 5.169750690460205 0.1606188416481018 3238030 0 -1
0.8832998871803284 5.164866924285889 0.0803094208240509 2458766 0 -1
0.9235312342643738 5.158294200897217 -0.04015471041202545 2666112 0 -1
0.9634584188461304 5.149733543395996 -0.12046413123607635 2994813 0 -1
0.9635998606681824 5.150489807128906 -0.0803094208240509 3257723 0 -1
0.7668665051460266 5.211321830749512 0.24242471158504486 4729209 0 -1
0.7671146392822266 5.213007926940918 0.20202060043811798 4664956 0 -1
0.6863657236099243 5.224253177642822 0.20202060043811798 4017546 0 -1
0.8484615683555603 5.204153060913086 0.04040411859750748 4017546 0 -1
0.8884730339050293 5.195115566253662 0.1616164743900299 3302798 0 -1
0.9291856288909912 5.189876079559326 -0.08080823719501495 2468738 0 -1
0.9292674660682678 5.190333366394043 -0.04040411859750748 2666112 0 -1
0.9292674660682678 5.190333366394043 -0.04040411859750748 2994813 0 -1
0.9746529459953308 5.209568977355957 -0.243921160697937 4456788 0 -1
-3.247600555419922 4.185829162597656 0.2845746874809265 4456788 0 -1
-4.593308925628662 2.654045581817627 0.081307053565979 4456788 0 -1
-3.5342602729797363 3.9518027305603027 -0.2032676339149475 4523353 0 -1
0.6141356229782104 4.971522331237793 -1.7481017112731934 4664956 0 -1
0.9349213242530823 5.221912384033203 -0.081307053565979 2666112 0 -1
-3.551863193511963 3.9714853763580322 -0.3272234797477722 4456788 0 -1
-3.551863193511963 3.9714853763580322 -0.3272234797477722 4456788 0 -1
-4.62148904800415 2.670328140258789 0.08180586993694305 4456788 0 -1
-3.5534329414367676 3.973240375518799 -0.2863205373287201 4523353 0 -1
-3.551863193511963 3.9714853763580322 -0.3272234797477722 4657508 0 -1
-4.646800518035889 2.684953451156616 0.20576171576976776 4456788 0 -1
-3.462533712387085 3.9522597789764404 1.1111133098602295 4456788 0 -1
-2.0569028854370117 4.959153175354004 1.5872334241867065 4456788 0 -1
4.990126609802246 2.4660298824310303 -0.600574791431427 4456788 0 -1
-2.0639026165008545 4.976028919219971 1.6396090984344482 4456788 0 -1
5.023162364959717 2.4823553562164307 -0.560918927192688 4456788 0 -1
-4.231403350830078 3.5483462810516357 1.3966856002807617 4456788 0 -1
2.1242518424987793 5.003628730773926 1.702210545539856 3651704 0 -1
-0.36981916427612305 5.349897384643555 1.9204427003860474 12640037 0 -1
-4.255582809448242 3.568622350692749 1.4046666622161865 4456788 0 -1
2.1253433227539062 5.006199359893799 1.7997291088104248 3651704 0 -1
-1.6463830471038818 5.568876266479492 -0.9931432008743286 6933851 0 -1
-1.913364052772522 5.482882499694824 -0.9931432008743286 7589974 0 -1
-0.13464713096618652 5.855915069580078 0.632000207901001 7589974 0 -1
-1.9264332056045532 5.5203328132629395 -0.9532378911972046 6343264 0 -1
-1.653226613998413 5.592024803161621 -1.0440224409103394 6933851 0 -1
-0.27178430557250977 5.9053730964660645 0.7302670478820801 7589974 0 -1
-3.8538336753845215 4.582404136657715 0.1376732885837555 4456788 0 -1
-3.9914705753326416 4.463028430938721 -0.1376732885837555 4456788 0 -1
-3.6625475883483887 4.720654010772705 0.41301989555358887 4456788 0 -1
-3.5069580078125 4.799117088317871 -0.7342575788497925 4456788 0 -1
-3.9006288051605225 4.544491767883301 0.04589109867811203 4523353 0 -1
-3.7158143520355225 4.6942315101623535 0.6459670662879944 4456788 0 -1
-3.8241491317749023 4.640250205993652 0.3229835331439972 4456788 0 -1
-3.7671804428100586 4.299994468688965 -1.8917607069015503 4456788 0 -1
-3.678105354309082 4.740706443786621 0.5075455904006958 4456788 0 -1
-3.5377681255340576 4.84127950668335 -0.5536860823631287 4456788 0 -1
-3.920100450515747 4.5671772956848145 0.18456202745437622 4523353 0 -1
-3.68245267868042 4.746309757232666 0.4152645468711853 4523353 0 -1
-3.7795207500457764 4.679630279541016 0.27684304118156433 4657508 0 -1
-3.3886404037475586 4.9226484298706055 0.7382481098175049 4724328 0 -1
-3.675724744796753 4.737637996673584 -0.8350184559822083 4456788 0 -1
-3.513087749481201 4.9042067527771 -0.5102890729904175 4456788 0 -1
-3.922502279281616 5.157845497131348 0.9023586511611938 4456788 0 -1
-3.953678607940674 5.198840618133545 0.7557066679000854 4456788 0 -1
-3.953678607940674 5.198840618133545 0.7557066679000854 4456788 0 -1
-3.9658923149108887 5.214900493621826 0.5541849136352539 4456788 0 -1
-3.946143865585327 5.1889328956604 0.8564675450325012 4456788 0 -1
-4.533041954040527 4.760178565979004 0.15114133059978485 4456788 0 -1
-3.9570882320404053 5.203323841094971 0.7053261995315552 4456788 0 -1
-4.003725051879883 5.160397529602051 0.7557066679000854 4590430 0 -1
-3.95003080368042 5.19404411315918 0.8060871362686157 4657508 0 -1
-4.983739376068115 4.179235458374023 1.1644866466522217 4456788 0 -1
-3.965679168701172 5.214620590209961 0.8607075214385986 4456788 0 -1
-3.969585418701172 5.219757080078125 0.8100776672363281 4456788 0 -1
-3.9902360439300537 5.246911525726318 0.45566868782043457 4456788 0 -1
-3.965679168701172 5.214620590209961 0.8607075214385986 4456788 0 -1
-4.6060991287231445 4.735026836395264 0.15188956260681152 4456788 0 -1
-4.019833564758301 5.181159496307373 0.8100776672363281 4456788 0 -1
-3.9924235343933105 5.1458306312561035 1.1138567924499512 4523353 0 -1
-4.015877723693848 5.176060676574707 0.8607075214385986 4590430 0 -1
-4.002543926239014 5.15887451171875 1.0125970840454102 4657508 0 -1
-3.9615321159362793 5.20916748046875 0.9113373756408691 4724328 0 -1
-4.993701457977295 4.187589645385742 1.2719814777374268 4456788 0 -1
-5.008289813995361 4.199822902679443 1.1702229976654053 4456788 0 -1
-3.9852147102355957 5.2403082847595215 0.8649474382400513 4456788 0 -1
