VERSION .7
FIELDS x y z rgb label object
SIZE 4 4 4 4 4 4
TYPE F F F I I I
COUNT 1 1 1 1 1 1
WIDTH 686
HEIGHT 1
POINTS 686
VIEWPOINT 0 0 0 1 0 0 0
DATA ascii
-3.038486957550049 1.8788586854934692 0.7262765169143677 4728182 0 -1
-2.579951286315918 2.595763683319092 0.36638057231903076 4456788 0 -1
0.8829550743103027 3.378396511077881 -1.1555079221725464 4456788 0 -1
-2.7553703784942627 2.4232144355773926 0.2536480724811554 4456788 0 -1
-2.2545833587646484 2.905930280685425 0.028183119371533394 4456788 0 -1
-1.9168058633804321 3.0773026943206787 0.6200286149978638 4456788 0 -1
-2.7880804538726807 2.3948113918304443 0.14091560244560242 4456788 0 -1
-2.7355494499206543 2.40578293800354 0.5072961449623108 4456788 0 -1
-2.728621482849121 2.4560458660125732 0.22546495497226715 4456788 0 -1
-2.8501851558685303 2.274921417236328 0.47911304235458374 4456788 0 -1
-2.8501851558685303 2.274921417236328 0.47911304235458374 4456788 0 -1
-2.7538256645202637 2.421856164932251 0.28183120489120483 4456788 0 -1
-2.7502453327178955 2.4187073707580566 0.3381974399089813 4523353 0 -1
-2.7740285396575928 2.382741689682007 0.3945636749267578 4341894 0 -1
-2.867551565170288 2.3465735912323 0.19902770221233368 4456788 0 -1
-2.242936372756958 2.9493212699890137 0.19902770221233368 4456788 0 -1
-2.753473997116089 2.421546697616577 0.5686505436897278 4456788 0 -1
-3.0684585571289062 2.081639528274536 0.14216263592243195 4456788 0 -1
-2.466357469558716 2.7577364444732666 0.2843252718448639 4456788 0 -1
-3.013848066329956 2.1646227836608887 0 4456788 0 -1
-2.600698232650757 2.616637706756592 0.39805540442466736 4456788 0 -1
-2.8048038482666016 2.4091761112213135 0.31275781989097595 4456788 0 -1
-2.772529363632202 2.438304901123047 0.3696228563785553 4456788 0 -1
-2.7703089714050293 2.436352252960205 0.39805540442466736 4456788 0 -1
-2.796165943145752 2.401756525039673 0.42648792266845703 4456788 0 -1
-2.7879185676574707 2.3946726322174072 0.5117855072021484 4456788 0 -1
-2.790837287902832 2.397179365158081 0.48335298895835876 4456788 0 -1
-2.7703089714050293 2.436352252960205 0.39805540442466736 4456788 0 -1
-2.7879185676574707 2.3946726322174072 0.5117855072021484 4523353 0 -1
-2.9271745681762695 2.2776272296905518 0.11373011022806168 4725613 0 -1
-2.806544780731201 2.4106714725494385 0.2843252718448639 4341894 0 -1
-3.5219054222106934 1.155833125114441 0.1705951690673828 3692940 0 -1
-2.7679219245910645 2.434252977371216 0.42648792266845703 3692940 0 -1
-2.6549456119537354 2.5569989681243896 0.42648792266845703 2264205 0 -1
-2.3604867458343506 2.7501237392425537 0.7961108088493347 2264205 0 -1
-2.808119058609009 2.4120235443115234 0.2558927536010742 2134668 0 -1
-3.5205583572387695 1.155390977859497 0.19902770221233368 2994813 0 -1
-3.070352554321289 2.0829243659973145 0.05686505511403084 2994813 0 -1
-2.7703089714050293 2.436352252960205 0.39805540442466736 2994813 0 -1
-2.1784160137176514 2.9810659885406494 0.3696228563785553 2994813 0 -1
-3.013848066329956 2.1646227836608887 0 3257723 0 -1
-2.8662848472595215 2.345536947250366 0.22746022045612335 7589974 0 -1
-3.523045063018799 1.1562070846557617 0.14216263592243195 10672695 0 -1
-2.6807138919830322 2.5250132083892822 0.4549204409122467 10672695 0 -1
-2.9528515338897705 2.2976064682006836 0.11472774296998978 4456788 0 -1
-2.8153181076049805 2.4182074069976807 0.4875929057598114 4456788 0 -1
-2.8354241847991943 2.4354772567749023 0.20077355206012726 4456788 0 -1
-3.011603355407715 2.223001480102539 0 4456788 0 -1
-2.2329838275909424 2.995433807373047 0.22945548593997955 4456788 0 -1
-2.682692766189575 2.5837223529815674 0.3728651702404022 4456788 0 -1
-2.8311636447906494 2.4318177700042725 0.28681936860084534 4456788 0 -1
-2.8274827003479004 2.4286558628082275 0.3441832363605499 4456788 0 -1
-2.8274827003479004 2.4286558628082275 0.3441832363605499 4456788 0 -1
-2.8206937313079834 2.4228246212005615 0.4302290380001068 4456788 0 -1
-2.8123741149902344 2.4156785011291504 0.5162748694419861 4456788 0 -1
-2.8123741149902344 2.4156785011291504 0.5162748694419861 4456788 0 -1
-2.8123741149902344 2.4156785011291504 0.5162748694419861 4456788 0 -1
-2.8123741149902344 2.4156785011291504 0.5162748694419861 4523353 0 -1
-2.9829213619232178 2.2613425254821777 0 4725613 0 -1
-2.678234577178955 2.5794286727905273 0.4302290380001068 4725613 0 -1
-2.8294074535369873 2.430309295654297 0.31550130248069763 4341894 0 -1
-2.8231263160705566 2.4249141216278076 0.4015471041202545 3692940 0 -1
-3.3105568885803223 1.7066559791564941 0.3728651702404022 2264205 0 -1
-2.832751750946045 2.4331817626953125 0.25813743472099304 2134668 0 -1
-3.6421780586242676 0.8618223667144775 0.05736387148499489 2994813 0 -1
-3.097285270690918 2.1011955738067627 0.05736387148499489 2994813 0 -1
-2.853928327560425 2.39323091506958 0.3728651702404022 2994813 0 -1
-2.5974366664886475 2.613356113433838 0.6596845388412476 2994813 0 -1
-3.011249542236328 2.222740411758423 -0.05736387148499489 3257723 0 -1
-2.86136531829834 2.3994674682617188 0.25813743472099304 7589974 0 -1
-2.7739310264587402 2.439537763595581 -0.7811462879180908 4456788 0 -1
-3.150182008743286 2.0742342472076416 -0.17358806729316711 4456788 0 -1
-2.9798409938812256 2.3186070919036865 0.02893134392797947 4456788 0 -1
3.643636703491211 0.9832326173782349 -0.11572537571191788 4456788 0 -1
-3.5870654582977295 1.1772176027297974 0.05786268785595894 4456788 0 -1
-2.9502172470092773 2.3547637462615967 0.08679403364658356 4456788 0 -1
-2.8557825088500977 2.4529638290405273 0.2893134355545044 4456788 0 -1
-2.854011058807373 2.451442241668701 0.3182447850704193 4456788 0 -1
-2.836829423904419 2.4366843700408936 0.520764172077179 4456788 0 -1
-2.839799165725708 2.439235210418701 0.4918328523635864 4456788 0 -1
-2.833686590194702 2.4339847564697266 0.5496955513954163 4456788 0 -1
-2.836829423904419 2.4366843700408936 0.520764172077179 4456788 0 -1
-2.836829423904419 2.4366843700408936 0.520764172077179 4456788 0 -1
-2.833686590194702 2.4339847564697266 0.5496955513954163 4523353 0 -1
-2.845221519470215 2.44389271736145 0.4339701533317566 4590430 0 -1
-2.9795784950256348 2.3184027671813965 0.05786268785595894 4725613 0 -1
-2.8023006916046143 2.522364854812622 0.20251941680908203 4725613 0 -1
-2.85206937789917 2.449774742126465 0.34717613458633423 4341894 0 -1
-2.880878210067749 2.415830373764038 0.34717613458633423 3692940 0 -1
-2.8764395713806152 2.4121081829071045 0.40503883361816406 2994813 0 -1
-2.6447274684906006 2.6037511825561523 0.6943522691726685 2994813 0 -1
-3.0249221324920654 2.232832670211792 0.34717613458633423 7589974 0 -1
-2.664900541305542 2.6236116886138916 0.520764172077179 7589974 0 -1
3.674172878265381 0.8693930506706238 0.02893134392797947 7589974 0 -1
-2.871309518814087 2.407806396484375 0.4629015028476715 10672695 0 -1
-2.8869848251342773 2.4209513664245605 0.5544342994689941 4456788 0 -1
-2.8869848251342773 2.4209513664245605 0.5544342994689941 4456788 0 -1
-2.8869848251342773 2.4209513664245605 0.5544342994689941 4456788 0 -1
-2.7936480045318604 2.5145766735076904 0.6127958297729492 4456788 0 -1
-3.0172860622406006 2.2873942852020264 0.4085305333137512 4456788 0 -1
-2.8901867866516113 2.4236364364624023 0.5252535343170166 4456788 0 -1
-2.790025472640991 2.5113158226013184 0.641976535320282 4456788 0 -1
-3.0197043418884277 2.2892277240753174 0.37934979796409607 4456788 0 -1
-2.8869848251342773 2.4209513664245605 0.5544342994689941 4456788 0 -1
-2.8869848251342773 2.4209513664245605 0.5544342994689941 4456788 0 -1
-2.6411359310150146 2.600215435028076 0.8754225969314575 4456788 0 -1
-2.8869848251342773 2.4209513664245605 0.5544342994689941 4523353 0 -1
-2.896062135696411 2.428563356399536 0.4668920338153839 4590430 0 -1
-2.8612849712371826 2.4576902389526367 0.5252535343170166 4657508 0 -1
-2.967686176300049 2.368706703186035 0.29180753231048584 4728182 0 -1
-2.6101605892181396 2.683220624923706 0.7003380656242371 4728182 0 -1
-0.5184089541435242 3.722743272781372 -0.6127958297729492 4728182 0 -1
-3.266364336013794 2.0197672843933105 -0.05886032059788704 4456788 0 -1
-2.823221206665039 2.5999670028686523 -0.14715079963207245 4456788 0 -1
-2.821228504180908 2.5981318950653076 -0.20601113140583038 4456788 0 -1
-3.3252177238464355 1.9213335514068604 -0.05886032059788704 4523353 0 -1
-2.866722345352173 2.5803511142730713 0.35615482926368713 4456788 0 -1
-2.7672202587127686 2.4907889366149902 -1.0684645175933838 4456788 0 -1
-2.704982280731201 2.4910781383514404 -1.2168623208999634 4523353 0 -1
-2.7486886978149414 2.5313284397125244 -1.1373010873794556 4456788 0 -1
-2.741891622543335 2.525068759918213 -1.1672301292419434 4523353 0 -1
-2.4894328117370605 3.339447021484375 -0.09577272832393646 4523353 0 -1
-2.5390307903289795 3.3386669158935547 0.19304190576076508 4456788 0 -1
-2.5417184829711914 3.342200994491577 0 4456788 0 -1
-2.5410468578338623 3.341317892074585 -0.09652095288038254 4456788 0 -1
-2.5414199829101562 3.341808557510376 -0.0643472969532013 4523353 0 -1
-2.5607447624206543 3.3672194480895996 0.09726917743682861 4456788 0 -1
-2.5614216327667236 3.3681094646453857 0 4456788 0 -1
-2.5613465309143066 3.3680105209350586 -0.03242305666208267 4456788 0 -1
-2.5614216327667236 3.3681094646453857 0 4523353 0 -1
-0.7277370691299438 4.6926445960998535 0.18206794559955597 2588302 4 -1
-0.7261306643486023 4.682285785675049 0.36413589119911194 2328718 4 -1
-0.6902110576629639 4.690401554107666 0.32772231101989746 2199437 4 -1
-0.8796794414520264 4.701930522918701 -0.1099889874458313 4212104 4 -1
-0.8796794414520264 4.701930522918701 -0.1099889874458313 4147337 4 -1
-0.8420350551605225 4.7031049728393555 0.2566409707069397 3302798 4 -1
-0.7676593661308289 4.7085418701171875 0.366629958152771 2718350 4 -1
-0.7324845790863037 4.723257541656494 0.2199779748916626 2588302 4 -1
-0.696269690990448 4.731573581695557 0.1466519832611084 2458766 4 -1
-0.7322044372558594 4.7214508056640625 0.2566409707069397 2328718 4 -1
-0.696085512638092 4.730321884155273 0.1833149790763855 2199437 4 -1
-0.7311041951179504 4.714356422424316 0.366629958152771 2070922 4 -1
-0.6597595810890198 4.737795352935791 0.1099889874458313 2072968 4 -1
-0.7327215671539307 4.724785804748535 0.1833149790763855 2271109 4 -1
-0.9515454173088074 4.680536270141602 -0.6275109052658081 4726897 4 -1
-0.9447009563446045 4.64686918258667 -0.8489853143692017 4728182 0 -1
-1.8386949300765991 4.331005573272705 -1.033547282218933 4536450 0 -1
-1.0851739645004272 4.594339847564697 -0.9597225189208984 4536450 0 -1
-0.9223765730857849 4.725891590118408 -0.1476496160030365 4212104 4 -1
-0.7010061740875244 4.763761043548584 0.1476496160030365 4212104 4 -1
-0.922566294670105 4.726863384246826 -0.11073721200227737 4147337 4 -1
-0.7005941271781921 4.760960578918457 0.22147442400455475 4147337 4 -1
-0.8854815363883972 4.732943058013916 0.1476496160030365 3692940 4 -1
-0.8485864400863647 4.739697456359863 -0.1476496160030365 3302798 4 -1
-0.8091831803321838 4.7314887046813965 0.40603646636009216 3238030 4 -1
-0.7371854186058044 4.753569602966309 0.2583868205547333 2458766 4 -1
-0.7368597388267517 4.75147008895874 0.295299232006073 2328718 4 -1
-0.7379012703895569 4.758185863494873 0.1476496160030365 2006409 4 -1
-0.7011503577232361 4.764740943908691 0.11073721200227737 2139270 4 -1
-0.6988400220870972 4.749040603637695 0.40603646636009216 2271109 4 -1
-0.6641111373901367 4.769044399261475 0.1476496160030365 3257723 4 -1
-0.627345085144043 4.775018692016602 0.11073721200227737 3651704 4 -1
-0.8424898982048035 4.705645561218262 -0.8175598978996277 4456788 0 -1
-0.921129584312439 4.7195024490356445 -0.6317508220672607 4726897 4 -1
-0.9244246482849121 4.736384868621826 -0.48310357332229614 4536450 4 -1
-0.9290453195571899 4.760059356689453 0 4147337 4 -1
-0.8146506547927856 4.763458251953125 0.40877994894981384 3238030 4 -1
-0.8146506547927856 4.763458251953125 0.40877994894981384 3107982 4 -1
-0.8128421306610107 4.7528839111328125 0.5202654004096985 2782862 4 -1
-0.8140964508056641 4.760218143463135 0.4459417462348938 2718350 4 -1
-0.7414668202400208 4.781177520751953 0.33445632457733154 2328718 4 -1
-0.7058878540992737 4.796935081481934 0.11148543655872345 2070922 4 -1
-0.7057427167892456 4.795948505401611 0.1486472487449646 2006409 4 -1
-0.7053278684616089 4.7931294441223145 0.2229708731174469 2139270 4 -1
-0.7047466039657593 4.78917932510376 0.2972944974899292 2271109 4 -1
-0.6682053208351135 4.798445224761963 0.2229708731174469 2666112 4 -1
-0.6314539909362793 4.806293964385986 0.1486472487449646 3651704 4 -1
-0.6315838694572449 4.807282447814941 0.11148543655872345 4045940 4 -1
-0.6310828328132629 4.803468704223633 0.2229708731174469 4505456 4 -1
-0.8324956893920898 4.6498236656188965 1.2345702648162842 4456788 0 -1
-0.846990168094635 4.730781555175781 -0.8604580760002136 4456788 0 -1
-0.928225040435791 4.755856990814209 -0.5985795259475708 4726897 4 -1
-0.9313184022903442 4.7717061042785645 -0.4489346444606781 4664956 4 -1
-0.9319523572921753 4.774954319000244 -0.4115234315395355 4536450 4 -1
-0.8972101211547852 4.795633316040039 -0.18705610930919647 4212104 4 -1
-0.8974474668502808 4.796902179718018 -0.1496448814868927 4147337 4 -1
-0.8592194318771362 4.799087047576904 -0.2618785500526428 4017546 4 -1
-0.8195602297782898 4.792165756225586 0.4489346444606781 2782862 4 -1
-0.8195602297782898 4.792165756225586 0.4489346444606781 2718350 4 -1
-0.7828400135040283 4.80165433883667 0.4115234315395355 2588302 4 -1
-0.7828400135040283 4.80165433883667 0.4115234315395355 2328718 4 -1
-0.7097899913787842 4.823452472686768 0.2618785500526428 2139270 4 -1
-0.7094764709472656 4.821321487426758 0.2992897629737854 2271109 4 -1
-0.6726899147033691 4.8306498527526855 0.22446732223033905 2666112 4 -1
-0.6726899147033691 4.8306498527526855 0.22446732223033905 2994813 4 -1
-0.6355238556861877 4.837271213531494 0.18705610930919647 4045940 4 -1
-0.6356919407844543 4.838551044464111 0.1496448814868927 4505456 4 -1
-0.6356919407844543 4.838551044464111 0.1496448814868927 4899181 4 -1
-1.0444196462631226 4.754642486572266 -0.6778913140296936 4456788 4 -1
-0.8986393809318542 4.803272724151611 -0.5272487998008728 4456788 4 -1
-0.89615398645401 4.789988040924072 -0.6402307152748108 4523353 4 -1
-0.9687438011169434 4.765133380889893 -0.7155519723892212 4657508 0 -1
-0.9397451281547546 4.814881324768066 -0.3012850284576416 4664956 4 -1
-0.9025540351867676 4.824196815490723 -0.2636243999004364 4600703 4 -1
-0.939274251461029 4.812468528747559 -0.3389456570148468 4536450 4 -1
-0.9036162495613098 4.829874515533447 -0.1129818856716156 4341894 4 -1
-0.9036162495613098 4.829874515533447 -0.1129818856716156 4212104 4 -1
-0.9037489891052246 4.830583572387695 -0.0753212571144104 4147337 4 -1
-0.9037489891052246 4.830583572387695 -0.0753212571144104 4017546 4 -1
-0.8657875061035156 4.8357720375061035 -0.1506425142288208 3562893 4 -1
-0.8649476170539856 4.831080913543701 -0.2636243999004364 3432845 4 -1
-0.8659656047821045 4.836766719818115 -0.1129818856716156 3302798 4 -1
-0.9038550853729248 4.831151008605957 0 3238030 4 -1
-0.8255855441093445 4.827397346496582 0.4142669141292572 2782862 4 -1
-0.7875228524208069 4.830377101898193 0.4519275426864624 2328718 4 -1
-0.7145219445228577 4.8556084632873535 0.2636243999004364 2271109 4 -1
-0.6771745085716248 4.86285400390625 0.2259637713432312 2468738 4 -1
-0.6769155263900757 4.8609938621521 0.2636243999004364 2666112 4 -1
-0.6769155263900757 4.8609938621521 0.2636243999004364 2994813 4 -1
-0.6397606730461121 4.8695197105407715 0.188303142786026 4505456 4 -1
-0.6400614976882935 4.871809959411621 0.1129818856716156 4899181 4 -1
-0.9038112759590149 4.830916404724121 -0.5686505436897278 4523353 4 -1
-0.9751593470573425 4.796690464019775 -0.7202907204627991 4657508 0 -1
-0.908129870891571 4.854000091552734 -0.3032802939414978 4600703 4 -1
-0.9094134569168091 4.860860824584961 -0.1516401469707489 4341894 4 -1
-0.9094134569168091 4.860860824584961 -0.1516401469707489 4212104 4 -1
-0.9097340703010559 4.862574100494385 -0.07582007348537445 4147337 4 -1
-0.8712906837463379 4.866509914398193 -0.18955019116401672 3432845 4 -1
-0.8718284964561462 4.869513511657715 -0.07582007348537445 3302798 4 -1
-0.909814178943634 4.863002777099609 -0.037910036742687225 3238030 4 -1
-0.8718284964561462 4.869513511657715 -0.07582007348537445 2977934 4 -1
-0.8715212345123291 4.867797374725342 -0.1516401469707489 2718350 4 -1
-0.7893276810646057 4.841447353363037 0.6444706320762634 2328718 4 -1
-1.0773528814315796 4.7271318435668945 0.985660970211029 6933851 4 -1
-0.9020887613296509 4.821710109710693 0.6444706320762634 6933851 4 -1
-0.9148582816123962 4.889963626861572 -0.2289566695690155 4341894 4 -1
-0.9155846834182739 4.89384651184082 -0.11447833478450775 4212104 4 -1
-0.9157997965812683 4.894996166229248 -0.03815944492816925 4147337 4 -1
-0.9153964519500732 4.8928399085998535 0.152637779712677 3692940 4 -1
-0.8775641918182373 4.901549816131592 -0.0763188898563385 3562893 4 -1
-0.8772549033164978 4.899822235107422 -0.152637779712677 3432845 4 -1
-0.877641499042511 4.901981353759766 -0.03815944492816925 3302798 4 -1
-0.877641499042511 4.901981353759766 0.03815944492816925 2977934 4 -1
-0.8770228624343872 4.898526191711426 0.19079722464084625 2588302 4 -1
-0.8388914465904236 4.905200481414795 0.19079722464084625 2523534 4 -1
-0.6839602589607239 4.911582946777344 0.457913339138031 2271109 4 -1
-0.8913015127182007 4.76405143737793 1.1447833776474 6343264 4 -1
-0.5374712944030762 4.981356143951416 0.1536354124546051 4456788 4 -1
-0.9098002910614014 4.86292839050293 -0.8065859079360962 4456788 0 -1
-1.0681544542312622 4.686771869659424 1.4211275577545166 4456788 0 -1
-0.9510443806648254 4.872774124145508 0.6913593411445618 4456788 4 -1
-1.0369173288345337 4.903599739074707 0.07681770622730255 4728182 4 -1
-1.035942554473877 4.898990154266357 0.23045311868190765 4600703 4 -1
-0.8817423582077026 4.924886226654053 0.3072708249092102 3432845 4 -1
-0.8821319937705994 4.927062511444092 0.2688619792461395 3302798 4 -1
-0.8419879078865051 4.923305988311768 0.42249739170074463 2523534 4 -1
-0.6854687929153442 4.922415733337402 0.6529505252838135 2271109 4 -1
-0.6884305477142334 4.9436845779418945 0.4609062373638153 2468738 4 -1
-0.6861439943313599 4.927264213562012 0.6145416498184204 2994813 4 -1
-0.7819633483886719 4.7962775230407715 1.2290832996368408 13164576 4 -1
-0.5007690787315369 5.002216339111328 0.4252408742904663 4456788 4 -1
-1.4679354429244995 4.823024749755859 0.1932913064956665 4456788 0 -1
-1.2299258708953857 4.862934589385986 0.5412156581878662 4456788 4 -1
-0.9893827438354492 4.8666534423828125 0.8891400098800659 4456788 4 -1
-0.7942598462104797 4.871699333190918 1.0437730550765991 4456788 4 -1
-1.1115375757217407 4.877125263214111 0.6571904420852661 4456788 4 -1
-0.7915269136428833 4.854936599731445 1.1210895776748657 4456788 4 -1
-1.1184206008911133 4.9073262214660645 -0.3479243516921997 4456788 4 -1
-1.082399606704712 4.9275431632995605 0.0386582612991333 4590430 4 -1
-1.082399606704712 4.9275431632995605 0.0386582612991333 4657508 4 -1
-1.042270541191101 4.928915500640869 0.2706078290939331 4600703 4 -1
-1.041288137435913 4.924269676208496 0.3479243516921997 4212104 4 -1
-1.002721905708313 4.932267665863037 0.3479243516921997 4147337 4 -1
-1.0821453332901 4.926385879516602 0.1159747838973999 4017546 4 -1
-0.9260534644126892 4.949802398681641 0.3092660903930664 4017546 4 -1
-1.0043768882751465 4.940408229827881 0.1932913064956665 3107982 4 -1
-0.8462517857551575 4.948237895965576 0.5025573968887329 2523534 4 -1
-0.8840092420578003 4.93754768371582 0.5412156581878662 2458766 4 -1
-0.9119749665260315 4.874552249908447 0.9277982711791992 2468738 4 -1
-1.594043254852295 4.817099094390869 0.19453835487365723 4456788 0 -1
-0.9957658648490906 4.8980512619018555 0.8948764204978943 4456788 4 -1
-1.0891269445419312 4.958168983459473 0.11672300845384598 4724328 4 -1
-1.049396276473999 4.962613105773926 0.23344601690769196 4600703 4 -1
-1.0008214712142944 4.922919273376465 0.7392457127571106 4341894 4 -1
-1.0108567476272583 4.972281455993652 0.19453835487365723 4212104 4 -1
-0.9708625078201294 4.974314212799072 0.3112613558769226 4147337 4 -1
-0.7462252378463745 4.811861038208008 1.4395837783813477 2072968 0 -1
-0.5877617001533508 4.758021354675293 1.6730297803878784 2139270 0 -1
-1.2397710084915161 4.90186071395874 0.4668920338153839 2271109 4 -1
-0.758698582649231 4.892292499542236 1.1283224821090698 2468738 4 -1
-1.6874381303787231 4.712019920349121 0.855968713760376 7589974 0 -1
-0.7194492220878601 4.889092922210693 1.1672301292419434 7589974 4 -1
-1.135255217552185 4.981191635131836 0.11747123301029205 4456788 4 -1
-0.9146034717559814 4.888601779937744 1.1747123003005981 2139270 4 -1
-1.123456597328186 4.929422378540039 0.7439844608306885 2271109 4 -1
-0.8351581692695618 4.883370876312256 1.2530264854431152 2271109 4 -1
-0.11529576033353806 5.014307975769043 0.978926956653595 2271109 0 -1
-0.8045083284378052 4.9345598220825195 1.0572410821914673 2468738 4 -1
-0.8731198906898499 4.8767266273498535 1.2530264854431152 6933851 4 -1
-1.1424860954284668 5.012918949127197 0.11821945756673813 4456788 4 -1
-1.1030900478363037 5.021735191345215 0.11821945756673813 4456788 4 -1
-0.893378496170044 4.989879131317139 0.8669427037239075 3107982 4 -1
-0.8908916711807251 4.975988864898682 0.945755660533905 2977934 4 -1
-0.8867404460906982 4.952802658081055 1.0639750957489014 2912910 4 -1
-0.893378496170044 4.989879131317139 0.8669427037239075 2782862 4 -1
-0.8956431150436401 5.002527713775635 0.7881297469139099 2718350 4 -1
-0.880408525466919 4.917436122894287 1.221601128578186 2139270 4 -1
-0.9003427028656006 5.0287766456604 -0.5910972952842712 6933851 4 -1
-1.1472830772399902 5.033967018127441 0.3569030463695526 4456788 4 -1
-1.1478582620620728 5.036490440368652 0.3172471523284912 4456788 4 -1
-1.1472830772399902 5.033967018127441 0.3569030463695526 4456788 4 -1
-1.1478582620620728 5.036490440368652 0.3172471523284912 4456788 4 -1
-1.1071006059646606 5.039992809295654 0.396558940410614 4657508 4 -1
-1.0704262256622314 5.062064170837402 0.1189676821231842 4471684 4 -1
-1.0675612688064575 5.048515796661377 0.396558940410614 3562893 4 -1
-1.0675612688064575 5.048515796661377 0.396558940410614 3562893 4 -1
-0.9002001285552979 5.027980327606201 0.8327738046646118 3107982 4 -1
-0.8978095650672913 5.0146284103393555 0.9120855927467346 2977934 4 -1
-0.8562729358673096 5.006834030151367 0.9913973808288574 2912910 4 -1
-0.8978095650672913 5.0146284103393555 0.9120855927467346 2782862 4 -1
-0.8990328311920166 5.02146053314209 0.8724296689033508 2718350 4 -1
-0.8978095650672913 5.0146284103393555 0.9120855927467346 2458766 4 -1
-0.8575506210327148 5.014305114746094 0.9517414569854736 2328718 4 -1
-0.9060410261154175 5.060604572296143 -0.5948384404182434 2139270 4 -1
-0.9060410261154175 5.060604572296143 -0.5948384404182434 6933851 4 -1
-0.9088399410247803 5.076237201690674 -0.4362148344516754 7589974 4 -1
-0.9462494254112244 5.057750701904297 -0.5551825165748596 10672695 4 -1
-0.9462494254112244 5.057750701904297 -0.5551825165748596 11918891 4 -1
-1.1152472496032715 5.077079772949219 0.3192424178123474 4456788 4 -1
-1.1538515090942383 5.062787055969238 0.39905303716659546 4456788 4 -1
-1.1550774574279785 5.068166255950928 0.3192424178123474 4456788 4 -1
-1.1140635013580322 5.071691036224365 0.39905303716659546 4590430 4 -1
-1.1523512601852417 5.056204795837402 0.4788636267185211 4657508 4 -1
-1.1152472496032715 5.077079772949219 0.3192424178123474 4729209 4 -1
-1.1157400608062744 5.0793232917785645 0.2793371081352234 4664956 4 -1
-1.1126151084899902 5.065096855163574 0.4788636267185211 3238030 4 -1
-0.9021687507629395 5.038976192474365 0.9577272534370422 2782862 4 -1
-0.8641754984855652 5.053041934967041 0.9178219437599182 2328718 4 -1
-0.8664764761924744 5.0664963722229 0.8380113840103149 2199437 4 -1
-0.9145559072494507 5.108163356781006 -0.4389583170413971 5424489 4 -1
-0.9125256538391113 5.096823692321777 -0.5586742162704468 6343264 4 -1
-0.9125256538391113 5.096823692321777 -0.5586742162704468 6933851 4 -1
-0.9117394089698792 5.092432022094727 -0.5985795259475708 10672695 4 -1
-1.1632553339004517 5.104048728942871 0.2409282624721527 4456788 4 -1
-1.1617143154144287 5.097287178039551 0.36139240860939026 4456788 4 -1
-1.2003546953201294 5.081984519958496 0.44170182943344116 4456788 4 -1
-1.1231430768966675 5.113024711608887 0.2409282624721527 4729209 4 -1
-1.1231430768966675 5.113024711608887 0.2409282624721527 4664956 4 -1
-1.1227134466171265 5.111069202423096 0.28108298778533936 3887499 4 -1
-1.1227134466171265 5.111069202423096 0.28108298778533936 3302798 4 -1
-1.1210263967514038 5.103389263153076 0.4015471041202545 3238030 4 -1
-0.8311812877655029 5.0981621742248535 0.8834036588668823 2199437 4 -1
-0.9165912866592407 5.119531631469727 -0.6424753665924072 4045940 4 -1
-0.9182289838790894 5.128678798675537 -0.5621659755706787 6343264 4 -1
-0.9165912866592407 5.119531631469727 -0.6424753665924072 6933851 4 -1
-0.9174377918243408 5.124259948730469 -0.602320671081543 13164576 4 -1
-1.1708592176437378 5.1374125480651855 0.20202060043811798 4456788 4 -1
-1.1682746410369873 5.126071929931641 0.40404120087623596 4456788 4 -1
-1.1247870922088623 5.120509147644043 0.5656576752662659 4536450 4 -1
-1.130484700202942 5.146447658538818 0.20202060043811798 3432845 4 -1
-1.1296868324279785 5.142815113067627 0.28282883763313293 3302798 4 -1
-1.128622055053711 5.137967586517334 0.3636370599269867 3238030 4 -1
-1.129187822341919 5.140543460845947 0.3232329487800598 3107982 4 -1
-0.8783907294273376 5.136162281036377 -0.8080824017524719 6343264 0 -1
-0.8773074150085449 5.129827499389648 -0.8484864830970764 6933851 0 -1
-0.882999837398529 5.163112640380859 -0.6060617566108704 8180304 4 -1
-0.9213768839836121 5.146261215209961 -0.6868700385093689 8705099 4 -1
-0.9222844243049622 5.15132999420166 -0.6464658975601196 13164576 4 -1
-1.1278690099716187 4.9487833976745605 -1.544834017753601 3887499 0 -1
-0.8827229142189026 5.161493301391602 -0.8537240624427795 6343264 0 -1
-0.8838129043579102 5.1678667068481445 -0.81307053565979 6933851 0 -1
-0.8838129043579102 5.1678667068481445 -0.81307053565979 7589974 0 -1
-0.8838129043579102 5.1678667068481445 -0.81307053565979 8180304 0 -1
-1.1449795961380005 5.212433815002441 0.12270880490541458 4456788 4 -1
-0.844312310218811 5.1787028312683105 -0.9816704392433167 6343264 0 -1
-0.8921974897384644 5.216893196105957 -0.6953498721122742 7589974 4 -1
-0.854004979133606 5.238154411315918 -0.5726410746574402 9360965 4 -1
-4.528990268707275 2.800516366958618 -0.6995898485183716 4456788 0 -1
-1.1963783502578735 5.249383449554443 0.45541927218437195 4456788 4 -1
-4.5761260986328125 2.829663038253784 -0.49682101607322693 4456788 0 -1
-1.1570689678192139 5.267470359802246 0.3312140107154846 4657508 4 -1
-4.616623401641846 2.8547046184539795 0.2915581166744232 4456788 0 -1
-3.943532705307007 3.3069450855255127 1.749348759651184 4657508 0 -1
-5.1685991287231445 1.027953028678894 1.3328371047973633 4657508 0 -1
-4.647548198699951 2.8738272190093994 0.20950284600257874 4456788 0 -1
-4.676449298858643 2.891698122024536 0.1685999035835266 4456788 0 -1
-4.543085098266602 3.902266502380371 0.04589109867811203 4456788 0 -1
-4.346837043762207 4.094364643096924 -0.4589109718799591 4456788 0 -1
-4.3492751121521 4.09666109085083 -0.41301989555358887 4523353 0 -1
-4.5196452140808105 3.97480845451355 -0.18456202745437622 4456788 0 -1
-4.516988277435303 3.9724719524383545 -0.27684304118156433 4456788 0 -1
-4.518449783325195 3.973757266998291 -0.23070253431797028 4523353 0 -1
-4.984443187713623 3.0821473598480225 1.384215235710144 4725613 0 -1
-3.601426601409912 4.459122180938721 1.8456202745437622 4725613 0 -1
-4.29099702835083 4.132693290710449 0.8766696453094482 4728182 0 -1
-3.978971242904663 4.357634544372559 1.199653148651123 4728182 0 -1
-4.279896259307861 4.122001647949219 1.159747838973999 4456788 0 -1
-4.542873859405518 3.995237112045288 -0.2319495677947998 4456788 0 -1
-4.592061996459961 3.9443349838256836 -0.09277983009815216 4456788 0 -1
-4.541404724121094 3.9939448833465576 -0.2783394753932953 4523353 0 -1
-4.526952743530273 3.9812350273132324 0.5566789507865906 4725613 0 -1
-4.481151103973389 3.9409549236297607 1.020578145980835 4728182 0 -1
-4.331753253936768 4.171945571899414 0.6958487033843994 4728182 0 -1
2.9194743633270264 5.296472549438477 0.2783394753932953 4045940 5 -1
2.8720345497131348 5.3197174072265625 0.32472941279411316 4505456 5 -1
2.8720345497131348 5.3197174072265625 0.32472941279411316 4899181 5 -1
2.9194743633270264 5.296472549438477 0.2783394753932953 5424489 5 -1
-4.661741256713867 3.9092161655426025 -0.18655729293823242 4456788 0 -1
-4.427482604980469 4.170326232910156 -0.23319661617279053 4456788 0 -1
-4.663384437561035 3.9105944633483887 -0.09327864646911621 4456788 0 -1
-4.427482604980469 4.170326232910156 -0.23319661617279053 4456788 0 -1
-4.6626996994018555 3.910020112991333 -0.13991796970367432 4523353 0 -1
-4.426050662994385 4.1689772605896 -0.27983593940734863 4523353 0 -1
-4.652828693389893 3.901742696762085 0.41975390911102295 4725613 0 -1
-4.414968967437744 4.158539295196533 0.5130325555801392 4725613 0 -1
-4.414968967437744 4.158539295196533 0.5130325555801392 4728182 0 -1
-4.414968967437744 4.158539295196533 0.5130325555801392 4728182 0 -1
2.93612003326416 5.326671123504639 0.23319661617279053 2994813 5 -1
2.884753942489624 5.3432769775390625 0.41975390911102295 3257723 5 -1
2.8874754905700684 5.348318099975586 0.32647526264190674 4045940 5 -1
2.8874754905700684 5.348318099975586 0.32647526264190674 4899181 5 -1
2.93612003326416 5.326671123504639 0.23319661617279053 5424489 5 -1
2.93612003326416 5.326671123504639 0.23319661617279053 5949540 5 -1
2.93612003326416 5.326671123504639 0.23319661617279053 6343264 5 -1
-4.449719429016113 4.1912713050842285 -0.2813323736190796 4456788 0 -1
-4.637075901031494 3.982999563217163 -0.2813323736190796 4456788 0 -1
-4.45233678817749 4.193736553192139 -0.18755492568016052 4456788 0 -1
-4.638576507568359 3.984288215637207 -0.23444364964962006 4523353 0 -1
-4.45233678817749 4.193736553192139 -0.18755492568016052 4523353 0 -1
2.905735492706299 5.382140159606934 0.18755492568016052 2468738 5 -1
2.9049670696258545 5.380716323852539 0.23444364964962006 2666112 5 -1
2.9040274620056152 5.378975868225098 0.2813323736190796 2994813 5 -1
2.902916431427002 5.376918315887451 0.3282211124897003 3257723 5 -1
2.902916431427002 5.376918315887451 0.3282211124897003 4045940 5 -1
2.9016342163085938 5.3745436668396 0.37510985136032104 4899181 5 -1
2.9518213272094727 5.355155944824219 0.23444364964962006 5424489 5 -1
2.950866460800171 5.353423595428467 0.2813323736190796 5949540 5 -1
2.950866460800171 5.353423595428467 0.2813323736190796 6343264 5 -1
2.9183576107025146 5.405519008636475 0.3299669623374939 2139270 5 -1
2.9194743633270264 5.40758752822876 0.28282883763313293 2271109 5 -1
2.9194743633270264 5.40758752822876 0.28282883763313293 2468738 5 -1
2.9194743633270264 5.40758752822876 0.28282883763313293 2666112 5 -1
2.9183576107025146 5.405519008636475 0.3299669623374939 2994813 5 -1
2.9170684814453125 5.403131484985352 0.37710511684417725 4899181 5 -1
2.966562509536743 5.381899356842041 0.28282883763313293 5424489 5 -1
2.966562509536743 5.381899356842041 0.28282883763313293 5949540 5 -1
2.7191944122314453 5.481075763702393 -0.9003633856773376 3887499 5 -1
2.803774356842041 5.1932830810546875 1.8481143712997437 2458766 0 -1
2.859349489212036 5.296221733093262 1.4216264486312866 2199437 0 -1
2.9349212646484375 5.436199188232422 0.2843252718448639 2468738 5 -1
2.9337985515594482 5.434119701385498 0.33171284198760986 2666112 5 -1
2.9337985515594482 5.434119701385498 0.33171284198760986 2994813 5 -1
2.9832236766815186 5.412125587463379 0.2369377315044403 4505456 5 -1
2.9337985515594482 5.434119701385498 0.33171284198760986 4899181 5 -1
2.8892822265625 5.464703559875488 0.18955019116401672 5424489 5 -1
3.079376697540283 5.36135196685791 0.14216263592243195 5949540 5 -1
2.839275360107422 5.484382629394531 -0.7145543098449707 4725613 5 -1
2.836655855178833 5.4793219566345215 -0.7621912956237793 4536450 5 -1
2.833864450454712 5.473930358886719 -0.8098282217979431 4341894 5 -1
2.7943618297576904 5.513373374938965 -0.6669173836708069 3887499 5 -1
2.836655855178833 5.4793219566345215 -0.7621912956237793 3757452 5 -1
2.7986738681793213 5.521881103515625 -0.5716434717178345 3238030 5 -1
2.8440017700195312 5.49351167678833 -0.6192803978919983 3107982 5 -1
2.839275360107422 5.484382629394531 -0.7145543098449707 2588302 5 -1
2.8102502822875977 5.544721603393555 0.09527391195297241 2271109 5 -1
2.857881546020508 5.520322322845459 0.09527391195297241 2468738 5 -1
2.9050865173339844 5.494595050811768 0.14291086792945862 2666112 5 -1
2.9513227939605713 5.466578960418701 0.23818477988243103 2994813 5 -1
3.047959566116333 5.416645050048828 0.14291086792945862 4505456 5 -1
2.7589662075042725 5.561244010925293 0.33345869183540344 4899181 5 -1
2.952103614807129 5.468025207519531 0.19054782390594482 4899181 5 -1
2.9037208557128906 5.492012023925781 0.23818477988243103 5424489 5 -1
3.143946647644043 5.363194465637207 0.047636955976486206 5949540 5 -1
2.8515074253082275 5.508009910583496 -0.7661818265914917 4536450 5 -1
2.8487014770507812 5.502589702606201 -0.8140681982040405 4341894 5 -1
2.8541407585144043 5.513096332550049 -0.7182954549789429 3757452 5 -1
2.8185691833496094 5.561135292053223 -0.4309772551059723 3238030 5 -1
2.8169891834259033 5.558017730712891 -0.4788636267185211 3107982 5 -1
2.815241813659668 5.554570198059082 -0.5267499685287476 2588302 5 -1
2.815241813659668 5.554570198059082 -0.5267499685287476 2458766 5 -1
2.815241813659668 5.554570198059082 -0.5267499685287476 2264205 5 -1
2.871072292327881 5.545801639556885 -0.23943181335926056 2134668 5 -1
2.8730974197387695 5.549713134765625 -0.04788636416196823 2139270 5 -1
2.8730974197387695 5.549713134765625 0.04788636416196823 2271109 5 -1
2.8731818199157715 5.5498762130737305 0 2468738 5 -1
2.8728444576263428 5.549224376678467 -0.09577272832393646 2666112 5 -1
2.8730974197387695 5.549713134765625 0.04788636416196823 3257723 5 -1
2.8252124786376953 5.57424259185791 -0.04788636416196823 4505456 5 -1
2.8731818199157715 5.5498762130737305 0 5424489 5 -1
3.158179521560669 5.387474060058594 0.23943181335926056 5424489 5 -1
2.813326597213745 5.5507917404174805 0.5746363401412964 5949540 5 -1
3.160407304763794 5.3912739753723145 0.04788636416196823 5949540 5 -1
3.1529757976531982 5.378596782684326 0.4309772551059723 6343264 5 -1
2.9686057567596436 5.498591423034668 0.09577272832393646 6933851 5 -1
2.860543966293335 5.5254645347595215 -0.8664438724517822 4726897 5 -1
2.866358995437622 5.5366973876953125 -0.7701723575592041 4536450 5 -1
2.8635385036468506 5.531249046325684 -0.8183081150054932 4341894 5 -1
2.8714802265167236 5.546589374542236 -0.6739007830619812 3757452 5 -1
2.8690061569213867 5.541810512542725 -0.722036600112915 3692940 5 -1
2.837925434112549 5.599325656890869 -0.24067886173725128 3238030 5 -1
2.8359222412109375 5.595373630523682 -0.3369503915309906 3107982 5 -1
2.827979326248169 5.579701900482178 -0.5776292681694031 2718350 5 -1
2.829904556274414 5.583499908447266 -0.529493510723114 2588302 5 -1
2.8316609859466553 5.586966037750244 -0.48135772347450256 2458766 5 -1
2.83324933052063 5.590099811553955 -0.4332219362258911 2264205 5 -1
2.837007522583008 5.597514629364014 -0.28881463408470154 2070155 5 -1
2.839677095413208 5.602781772613525 0.09627154469490051 2271109 5 -1
2.8880615234375 5.578618049621582 -0.048135772347450256 2468738 5 -1
2.8878071308135986 5.578126907348633 -0.09627154469490051 2666112 5 -1
2.8878071308135986 5.578126907348633 0.09627154469490051 3257723 5 -1
2.8399271965026855 5.603275299072266 -0.048135772347450256 4899181 5 -1
2.8878071308135986 5.578126907348633 0.09627154469490051 5424489 5 -1
2.840010404586792 5.603439807891846 0 5949540 5 -1
2.886025905609131 5.574686050415039 0.24067886173725128 6343264 5 -1
2.8386762142181396 5.600807189941406 -0.19254308938980103 6933851 5 -1
2.88387131690979 5.5705246925354 -0.7257776856422424 4536450 5 -1
2.87837553024292 5.559908390045166 -0.8225480318069458 4341894 5 -1
2.8753652572631836 5.554093837738037 -0.8709332346916199 4017546 5 -1
2.888671875 5.579797267913818 -0.6290073394775391 3757452 5 -1
2.8863582611083984 5.575328350067139 -0.6773925423622131 3692940 5 -1
2.8479292392730713 5.619063854217529 -0.43546661734580994 2588302 5 -1
2.8493571281433105 5.621881008148193 -0.38708144426345825 2458766 5 -1
2.90234375 5.606205940246582 0.14515553414821625 3257723 5 -1
2.8546416759490967 5.632307529449463 -0.04838518053293228 4899181 5 -1
2.90234375 5.606205940246582 0.14515553414821625 5424489 5 -1
2.9009792804718018 5.603570461273193 -0.2419258952140808 5949540 5 -1
2.8543903827667236 5.631811618804932 0.09677036106586456 6343264 5 -1
2.853971242904663 5.630984783172607 -0.14515553414821625 9360965 5 -1
2.853384494781494 5.62982702255249 -0.19354072213172913 10016830 5 -1
2.8055989742279053 5.6552414894104 -0.14515553414821625 10672695 5 -1
2.868682384490967 5.66001033782959 -0.14590376615524292 2264205 5 -1
2.7241616249084473 5.374865531921387 1.9940180778503418 2199437 0 -1
2.9159328937530518 5.632454872131348 0.24317294359207153 3257723 5 -1
2.869356393814087 5.661340236663818 0.04863458871841431 4899181 5 -1
2.769240140914917 5.7037272453308105 -0.29180753231048584 5424489 5 -1
2.909496307373047 5.620021820068359 -0.48634588718414307 5949540 5 -1
2.8691036701202393 5.660841464996338 0.09726917743682861 6343264 5 -1
2.8673338890075684 5.657350063323975 -0.24317294359207153 10016830 5 -1
2.8200607299804688 5.684391975402832 -0.14590376615524292 10672695 5 -1
2.8194808959960938 5.683223247528076 -0.19453835487365723 11197490 5 -1
2.818735122680664 5.68172025680542 -0.24317294359207153 11918891 5 -1
2.8800039291381836 5.682348251342773 0.3421879708766937 2134668 5 -1
2.737182378768921 5.76184606552124 -0.09776799380779266 2666112 5 -1
2.929938316345215 5.659508228302002 0.2933039665222168 2666112 5 -1
3.029383897781372 5.611166954040527 0.19553598761558533 2994813 5 -1
2.929938316345215 5.659508228302002 0.2933039665222168 3257723 5 -1
2.835188627243042 5.714885234832764 0.04888399690389633 4045940 5 -1
2.833939790725708 5.712368011474609 -0.19553598761558533 5424489 5 -1
2.784342050552368 5.734831809997559 -0.24441997706890106 6933851 5 -1
2.829939842224121 5.704305648803711 -0.39107197523117065 7589974 5 -1
2.88110613822937 5.68452262878418 -0.2933039665222168 10672695 5 -1
2.8772895336151123 5.676992416381836 -0.4399559497833252 11197490 5 -1
2.8800039291381836 5.682348251342773 -0.3421879708766937 11918891 5 -1
2.8349387645721436 5.714382171630859 -0.09776799380779266 12640037 5 -1
2.656456232070923 5.591915607452393 1.670535683631897 2458766 0 -1
2.5903778076171875 5.452818870544434 2.161869764328003 2134668 0 -1
2.751389741897583 5.791753768920898 -0.04913340508937836 2468738 5 -1
2.7985479831695557 5.7640910148620605 -0.24566702544689178 2666112 5 -1
2.7507436275482178 5.790393352508545 0.14740021526813507 6343264 5 -1
2.7998640537261963 5.766801834106445 -0.14740021526813507 6933851 5 -1
2.8476452827453613 5.739994049072266 -0.24566702544689178 7589974 5 -1
2.8497374057769775 5.744211673736572 0 10672695 5 -1
2.8002750873565674 5.767648696899414 -0.09826681017875671 11197490 5 -1
2.7195184230804443 5.481729507446289 1.9162027835845947 11918891 0 -1
2.890348196029663 5.702757835388184 0.49133405089378357 13164576 5 -1
2.714223623275757 5.713517665863037 1.2345702648162842 2264205 0 -1
2.7121448516845703 5.836114883422852 0.3456796705722809 2468738 5 -1
2.7147786617279053 5.841782093048096 0.19753125309944153 2666112 5 -1
2.864119052886963 5.773200511932373 -0.04938281327486038 2666112 5 -1
2.764706611633301 5.819786071777344 0.14814843237400055 4505456 5 -1
2.7147786617279053 5.841782093048096 0.19753125309944153 4899181 5 -1
2.764706611633301 5.819786071777344 0.14814843237400055 6343264 5 -1
2.7140605449676514 5.840237140655518 0.2469140589237213 6933851 5 -1
2.716054677963257 5.8445281982421875 0 10016830 5 -1
2.7653563022613525 5.821153163909912 -0.04938281327486038 10672695 5 -1
2.7651126384735107 5.820640563964844 0.09876562654972076 11197490 5 -1
2.81349778175354 5.7948832511901855 -0.19753125309944153 11918891 5 -1
2.8148202896118164 5.797606945037842 0 12640037 5 -1
2.7480664253234863 5.660116195678711 1.5385987758636475 2264205 0 -1
2.771233081817627 5.833523750305176 0.4963222146034241 2468738 5 -1
3.0274765491485596 5.726079940795898 -0.04963222146034241 2468738 5 -1
2.7277679443359375 5.8697333335876465 0.24816110730171204 2666112 5 -1
2.9757468700408936 5.747992515563965 0.24816110730171204 2666112 5 -1
2.6750996112823486 5.885767459869385 0.39705777168273926 4505456 5 -1
2.77646541595459 5.84453821182251 0.29779332876205444 4899181 5 -1
2.7277679443359375 5.8697333335876465 0.24816110730171204 6343264 5 -1
2.7268857955932617 5.867834568023682 0.29779332876205444 6933851 5 -1
2.729691982269287 5.873873233795166 -0.04963222146034241 10016830 5 -1
2.7790780067443848 5.850037574768066 -0.09926444292068481 10672695 5 -1
2.779322624206543 5.850553035736084 0.04963222146034241 11197490 5 -1
2.631540536880493 5.539467811584473 2.0845532417297363 11918891 0 -1
2.828953504562378 5.826716899871826 -0.04963222146034241 12640037 5 -1
3.0103602409362793 5.69370698928833 -0.9477509260177612 4456788 5 -1
2.7253079414367676 5.864439964294434 0.7482244372367859 2006409 5 -1
3.1916873455047607 5.444633960723877 1.5962121486663818 2006409 0 -1
2.733726978302002 5.882555961608887 0.5486978888511658 2666112 5 -1
3.0298891067504883 5.730643272399902 0.5985795259475708 2666112 5 -1
2.7414753437042236 5.899229526519775 0.24940814077854156 4505456 5 -1
2.790417432785034 5.873908042907715 0.2992897629737854 4899181 5 -1
2.7930431365966797 5.879435062408447 0.09976325929164886 5424489 5 -1
2.7414753437042236 5.899229526519775 0.24940814077854156 6343264 5 -1
2.9918339252471924 5.658666610717773 1.3535380363464355 4456788 0 -1
3.09018874168396 5.723793029785156 0.701834499835968 6343264 5 -1
2.558777332305908 5.890104293823242 -1.4106523990631104 4456788 5 -1
2.8366200923919678 5.596750259399414 1.9648373126983643 2588302 0 -1
3.0331599712371826 5.7368292808532715 1.0579893589019775 2070922 0 -1
2.8137505054473877 5.795403480529785 1.4682657718658447 4456788 0 -1
3.0305590629577637 5.85386848449707 -0.45566868782043457 2588302 5 -1
2.976531744003296 5.872800827026367 0.5569283962249756 5949540 5 -1
2.9849681854248047 5.889446258544922 0.25314927101135254 6343264 5 -1
2.8918418884277344 5.8290815353393555 1.322860836982727 2458766 0 -1
2.98915958404541 5.897716045379639 0.610551118850708 5424489 5 -1
2.99472975730896 5.908706188201904 0.457913339138031 5949540 5 -1
2.948350667953491 5.942986011505127 0.7158013582229614 5424489 5 -1
3.052462577819824 5.896177291870117 0.6646726727485657 6343264 5 -1
2.800163984298706 6.025518417358398 0.6135440468788147 6933851 5 -1
3.0604169368743896 5.911541938781738 0.46015802025794983 6933851 5 -1
2.811746597290039 6.050442218780518 0.10225734114646912 7589974 5 -1
3.113292932510376 5.88839054107666 0.7706711292266846 5424489 5 -1
3.16433048248291 5.861121654510498 0.7706711292266846 6343264 5 -1
2.807067394256592 6.040372848510742 0.7706711292266846 6933851 5 -1
2.8703227043151855 6.042110443115234 0.46240270137786865 7589974 5 -1
2.868713617324829 6.038723468780518 0.5137807726860046 8180304 5 -1
3.1824333667755127 5.894652366638184 0.7227848172187805 5424489 5 -1
3.184983968734741 5.899377346038818 0.6711573004722595 6343264 5 -1
2.8294074535369873 6.088445663452148 0.5679023265838623 6933851 5 -1
2.8826394081115723 6.068037509918213 0.5162748694419861 7589974 5 -1
2.88425612449646 6.071441173553467 0.4646473824977875 8180304 5 -1
2.8883421421051025 6.080041885375977 0.7262765169143677 6343264 5 -1
3.206911325454712 5.9399919509887695 0.5187689065933228 6343264 5 -1
2.84307599067688 6.117858409881592 0.570645809173584 6933851 5 -1
2.8965651988983154 6.097351551055908 0.5187689065933228 7589974 5 -1
-5.410940647125244 4.102015495300293 -0.41701042652130127 4456788 0 -1
-5.415402889251709 4.105398654937744 -0.31275781989097595 4456788 0 -1
-5.418588638305664 4.107813358306885 -0.20850521326065063 4456788 0 -1
-5.4171552658081055 4.106727123260498 -0.2606315016746521 4523353 0 -1
2.8526875972747803 6.138540744781494 0.6776419281959534 6933851 5 -1
2.9086854457855225 6.122865200042725 0.5733892917633057 7589974 5 -1
-6.545233726501465 1.9641413688659668 0.15712712705135345 4456788 0 -1
-5.065507411956787 4.559488773345947 0.5237571001052856 4456788 0 -1
-4.761646747589111 4.790830612182617 1.0475142002105713 4456788 0 -1
6.475494384765625 2.1251537799835205 -0.5237571001052856 4456788 0 -1
-5.43410587310791 4.119577407836914 -0.47138139605522156 4456788 0 -1
-5.441314220428467 4.125041961669922 -0.3142542541027069 4456788 0 -1
-5.443074703216553 4.126376628875732 -0.2618785500526428 4456788 0 -1
-5.443074703216553 4.126376628875732 -0.2618785500526428 4523353 0 -1
-5.521580696105957 4.075729846954346 -0.26312559843063354 4456788 0 -1
-5.523041248321533 4.076808452606201 -0.21050047874450684 4456788 0 -1
-5.521580696105957 4.075729846954346 -0.26312559843063354 4523353 0 -1
-4.783226490020752 4.81254243850708 -2.1848154067993164 4600703 0 -1
-2.5368340015411377 6.571480751037598 1.0924077033996582 4600703 0 -1
-6.143792629241943 3.6749231815338135 -0.1646093726158142 4456788 0 -1
-4.718247890472412 5.385577201843262 -0.10973957926034927 4456788 0 -1
-6.081779479980469 3.7606887817382812 -0.38408854603767395 4456788 0 -1
-5.703031539916992 3.9825246334075928 -1.7009634971618652 4456788 0 -1
-4.879826068878174 5.23358154296875 -0.2743489444255829 4456788 0 -1
-4.4928460121154785 5.56283712387085 0.38408854603767395 4456788 0 -1
-4.752470016479492 4.781597137451172 -2.4142708778381348 4664956 0 -1
-2.538515567779541 6.575836658477783 1.2620052099227905 4600703 0 -1
-4.841367721557617 5.302102565765381 -0.4409535825252533 4456788 0 -1
-5.1659722328186035 4.975388526916504 -0.5511919856071472 4456788 0 -1
-4.722179889678955 4.854356288909912 -2.4252448081970215 4729209 0 -1
-2.534555196762085 6.565577507019043 1.4882184267044067 4600703 0 -1
-2.447927236557007 6.499319076538086 1.8740527629852295 3757452 0 -1
-4.862729072570801 4.998839855194092 -1.7638143301010132 3692940 0 -1
-4.637696743011475 5.293632984161377 -1.4882184267044067 2588302 0 -1
-2.5640978813171387 6.329603672027588 2.259887218475342 2588302 0 -1
-4.595546245574951 5.24552059173584 -1.7638143301010132 2523534 0 -1
-5.385190486907959 4.736013412475586 -0.885897696018219 4456788 0 -1
-4.482749938964844 5.663110256195068 -0.22147442400455475 4456788 0 -1
-4.639293193817139 4.975611686706543 -2.436218738555908 4664956 0 -1
-4.831053733825684 5.073122978210449 -1.771795392036438 4536450 0 -1
-2.430572509765625 6.45324182510376 2.1593756675720215 4536450 0 -1
-4.853968620300293 4.989834308624268 -1.937901258468628 3887499 0 -1
-2.5226142406463623 6.697615623474121 0.9966349601745605 3887499 0 -1
-2.4959001541137695 6.626688480377197 1.4395837783813477 3757452 0 -1
-4.874804973602295 5.011253833770752 -1.8271640539169312 3692940 0 -1
-2.4590039253234863 6.528728008270264 1.8825325965881348 3692940 0 -1
-4.937541484832764 5.075746059417725 -1.4395837783813477 2977934 0 -1
-4.704895973205566 5.260738849639893 -1.5503209829330444 2977934 0 -1
-4.696636199951172 5.2515034675598145 -1.6056896448135376 2523534 0 -1
-2.6248950958251953 6.479684829711914 1.8271640539169312 2523534 0 -1
-4.696636199951172 5.2515034675598145 -1.6056896448135376 2328718 0 -1
-2.6248950958251953 6.479684829711914 1.8271640539169312 2328718 0 -1
-4.673517227172852 5.334519863128662 -1.384215235710144 2264205 0 -1
-2.6077988147735596 6.4374823570251465 1.993269920349121 2264205 0 -1
