VERSION .7
FIELDS x y z rgb label object
SIZE 4 4 4 4 4 4
TYPE F F F I I I
COUNT 1 1 1 1 1 1
WIDTH 681
HEIGHT 1
POINTS 681
VIEWPOINT 0 0 0 1 0 0 0
DATA ascii
0.18954172730445862 1.7566981315612793 -0.28806641697883606 4456788 0 -1
0.2870413362979889 1.7606065273284912 -0.15089192986488342 4456788 0 -1
-1.5455342531204224 0.6959105730056763 0.5761328339576721 4590430 0 -1
-1.562640905380249 0.8708304762840271 0.06858723610639572 4590430 0 -1
0.2309679239988327 1.7580056190490723 -0.2469140589237213 4590430 0 -1
-0.483928918838501 1.6862703561782837 0.35665363073349 4725613 0 -1
-0.12152467668056488 1.7580065727233887 0.31550130248069763 4725613 0 -1
0.22815144062042236 1.7365680932998657 0.37037110328674316 4725613 0 -1
0.36160096526145935 1.646161437034607 0.6035677194595337 4725613 0 -1
-0.5009981989860535 1.6946220397949219 -0.4469393789768219 4456788 0 -1
-0.25873568654060364 1.7582653760910034 -0.40503883361816406 4456788 0 -1
0.23687128722667694 1.8029389381408691 -0.12570171058177948 4456788 0 -1
-0.02779478020966053 1.813493251800537 -0.18156912922859192 4523353 0 -1
-0.08338434249162674 1.8117884397506714 -0.18156912922859192 4590430 0 -1
0.028391599655151367 1.852433204650879 -0.09951385110616684 4456788 0 -1
-2.155425548553467 1.3328146934509277 -0.7272741198539734 4456788 0 -1
-1.9714148044586182 1.733763575553894 -0.24242471158504486 4456788 0 -1
-1.5097628831863403 2.149980306625366 -0.22222265601158142 4456788 0 -1
-1.4510854482650757 2.1937355995178223 -0.18181852996349335 4456788 0 -1
-1.3847042322158813 2.2230494022369385 -0.3030308783054352 4456788 0 -1
-1.4055935144424438 2.1678555011749268 -0.5252535343170166 4456788 0 -1
-1.4077832698822021 2.1712327003479004 -0.5050514936447144 4456788 0 -1
-0.28199732303619385 2.61358904838562 0.20202060043811798 4456788 0 -1
-1.2482839822769165 2.2183730602264404 -0.6868700385093689 4523353 0 -1
-2.244274139404297 1.0603253841400146 0.8888906240463257 4590430 0 -1
-2.030369997024536 1.6614915132522583 -0.4908352196216583 4456788 0 -1
-1.4640085697174072 2.2132725715637207 -0.2863205373287201 4456788 0 -1
-1.288291096687317 2.3372011184692383 0.04090293496847153 4456788 0 -1
-1.9520114660263062 1.797650694847107 -0.2863205373287201 4456788 0 -1
-1.3293453454971313 2.314458131790161 0 4456788 0 -1
-1.9359757900238037 1.823530673980713 -0.2249661386013031 4456788 0 -1
-1.5410683155059814 2.15130352973938 -0.3476749360561371 4456788 0 -1
-1.3903323411941528 2.277517795562744 -0.06135440245270729 4456788 0 -1
-1.5410683155059814 2.15130352973938 -0.3476749360561371 4456788 0 -1
-1.5597127676010132 2.1343979835510254 -0.36812642216682434 4456788 0 -1
-1.4672658443450928 2.2181968688964844 -0.2249661386013031 4456788 0 -1
-1.5296915769577026 2.093315362930298 -0.6339954733848572 4456788 0 -1
-1.5501147508621216 2.1212635040283203 -0.47038376331329346 4456788 0 -1
-1.5579848289489746 2.132033348083496 -0.3885778784751892 4590430 0 -1
-1.5643267631530762 2.140712261199951 -0.30677202343940735 4725613 0 -1
-1.9575687646865845 1.8027684688568115 -0.20451468229293823 4726897 0 -1
-1.5643267631530762 2.140712261199951 -0.30677202343940735 4726897 0 -1
-1.4107784032821655 2.2649097442626953 -0.06135440245270729 4726897 0 -1
-1.2445695400238037 2.3539421558380127 0.18406321108341217 4600703 0 -1
-2.113792896270752 1.5602867603302002 -0.47038376331329346 4536450 0 -1
-1.9983514547348022 1.7574530839920044 -0.20451468229293823 4536450 0 -1
-1.431560754776001 2.2525744438171387 -0.020451467484235764 4536450 0 -1
-2.0860605239868164 1.6231586933135986 -0.5589236617088318 4456788 0 -1
-1.958252191543579 1.8445132970809937 -0.24841050803661346 4456788 0 -1
-1.5582306385040283 2.1752617359161377 -0.3726157546043396 4456788 0 -1
-1.996397852897644 1.7969677448272705 -0.28981226682662964 4456788 0 -1
-1.78022301197052 2.032010316848755 0.02070087566971779 4456788 0 -1
-1.4860811233520508 2.2466416358947754 -0.20700876414775848 4456788 0 -1
-1.3038105964660645 2.365356206893921 0.062102627009153366 4456788 0 -1
-1.9758164882659912 1.8195732831954956 -0.28981226682662964 4456788 0 -1
-1.503648042678833 2.228297710418701 -0.26911139488220215 4456788 0 -1
-1.3455569744110107 2.3426833152770996 0 4456788 0 -1
-1.5787336826324463 2.1604273319244385 -0.3726157546043396 4456788 0 -1
-1.386592149734497 2.3177993297576904 -0.062102627009153366 4456788 0 -1
-1.5787336826324463 2.1604273319244385 -0.3726157546043396 4456788 0 -1
-1.5787336826324463 2.1604273319244385 -0.3726157546043396 4456788 0 -1
-1.5922819375991821 2.1789674758911133 0.12420525401830673 4456788 0 -1
-1.5620150566101074 2.1375484466552734 -0.5382227897644043 4456788 0 -1
-1.5690186023712158 2.147132635116577 -0.47612014412879944 4456788 0 -1
-1.5751389265060425 2.155508041381836 -0.41401752829551697 4590430 0 -1
-1.5819430351257324 2.1648192405700684 -0.3312140107154846 4725613 0 -1
-1.5803864002227783 2.162688970565796 -0.3519148826599121 4726897 0 -1
-1.4479974508285522 2.278437852859497 -0.10350438207387924 4726897 0 -1
-1.5787336826324463 2.1604273319244385 -0.3726157546043396 4664956 0 -1
-1.7581902742385864 1.8856475353240967 -0.8073341250419617 4471684 0 -1
-2.0988171100616455 1.6330844163894653 -0.47612014412879944 4017546 0 -1
-1.5834039449691772 2.166818380355835 -0.31051313877105713 4017546 0 -1
-2.0395214557647705 1.793660044670105 -0.3142542541027069 4456788 0 -1
-2.023568630218506 1.8214242458343506 -0.25140342116355896 4456788 0 -1
-1.8226747512817383 2.038007974624634 0 4456788 0 -1
-1.5239285230636597 2.2583518028259277 -0.23045311868190765 4456788 0 -1
-1.5239285230636597 2.2583518028259277 -0.23045311868190765 4456788 0 -1
-1.2983072996139526 2.4047858715057373 0.08380113542079926 4456788 0 -1
-2.0204508304595947 1.8186179399490356 -0.2933039665222168 4456788 0 -1
-1.8846397399902344 1.979073166847229 -0.08380113542079926 4456788 0 -1
-1.5217642784118652 2.2551445960998535 -0.2723536789417267 4456788 0 -1
-1.3823533058166504 2.358128309249878 -0.06285085529088974 4456788 0 -1
-1.9044599533081055 1.9577668905258179 -0.12570171058177948 4456788 0 -1
-1.9044599533081055 1.9577668905258179 -0.12570171058177948 4456788 0 -1
-1.6148194074630737 2.1661977767944336 -0.41900569200515747 4456788 0 -1
-1.319247841835022 2.393362283706665 0.08380113542079926 4456788 0 -1
-1.5977545976638794 2.1864564418792725 -0.37710511684417725 4456788 0 -1
-1.5977545976638794 2.1864564418792725 -0.37710511684417725 4456788 0 -1
-1.6114661693572998 2.2052202224731445 0.12570171058177948 4456788 0 -1
-1.58792245388031 2.173001766204834 -0.4818565249443054 4456788 0 -1
-1.58792245388031 2.173001766204834 -0.4818565249443054 4456788 0 -1
-1.5959844589233398 2.1840341091156006 -0.39805540442466736 4523353 0 -1
-1.6024811267852783 2.192924737930298 -0.3142542541027069 4725613 0 -1
-1.5039857625961304 2.273709535598755 -0.20950284600257874 4725613 0 -1
-1.3616085052490234 2.3706300258636475 0.04190056771039963 4725613 0 -1
-1.60100257396698 2.190901279449463 -0.335204541683197 4726897 0 -1
-1.4846729040145874 2.2898201942443848 -0.1676022708415985 4726897 0 -1
-1.7637419700622559 1.9315905570983887 -0.7961108088493347 4471684 0 -1
-1.6128277778625488 2.1635260581970215 -0.4399559497833252 4471684 0 -1
-0.47623857855796814 2.6599843502044678 0.5935913920402527 4456788 0 -1
-2.4680275917053223 1.2196544408798218 -0.2755959928035736 4456788 0 -1
-2.28896164894104 1.552829623222351 0.06359907984733582 4456788 0 -1
-2.451934337615967 1.26401948928833 -0.211996927857399 4456788 0 -1
-2.2683005332946777 1.5839930772781372 0.02119969204068184 4456788 0 -1
-1.8653538227081299 2.042872428894043 -0.04239938408136368 4456788 0 -1
-1.8231199979782104 2.0809743404388428 0.02119969204068184 4456788 0 -1
-1.654992699623108 2.1762120723724365 -0.423993855714798 4456788 0 -1
-1.8231199979782104 2.0809743404388428 -0.02119969204068184 4456788 0 -1
-1.8231735229492188 2.081035614013672 0 4456788 0 -1
-1.585958480834961 2.2139692306518555 -0.4875929057598114 4456788 0 -1
-1.8212456703186035 2.0788350105285645 0.12719815969467163 4657508 0 -1
-1.6875402927398682 2.1750690937042236 0.2755959928035736 4728182 0 -1
-1.689940333366394 2.1781623363494873 0.23319661617279053 4729209 0 -1
-2.309680700302124 1.5208070278167725 -0.08479876816272736 4471684 0 -1
-1.8611315488815308 2.038248300552368 -0.19079722464084625 4471684 0 -1
-1.6200621128082275 2.2169835567474365 0.3391950726509094 4471684 0 -1
-0.634264349937439 2.685307741165161 0.4718801975250244 4456788 0 -1
0.16493524610996246 2.6855900287628174 0.7721676230430603 4456788 0 -1
-1.8426721096038818 2.1032919883728027 -0.1286945939064026 4456788 0 -1
-1.8445684909820557 2.1054563522338867 0.021449100226163864 4456788 0 -1
-1.844406008720398 2.105271100997925 -0.04289820045232773 4456788 0 -1
-1.844406008720398 2.105271100997925 -0.04289820045232773 4456788 0 -1
-1.8441351652145386 2.10496187210083 -0.0643472969532013 4523353 0 -1
-1.8660717010498047 2.0865321159362793 0 4590430 0 -1
-1.8445684909820557 2.1054563522338867 0.021449100226163864 4657508 0 -1
-2.337677478790283 1.5392414331436157 -0.04289820045232773 4729209 0 -1
-1.950951099395752 2.0055594444274902 -0.08579640090465546 4729209 0 -1
-0.29708802700042725 2.7534515857696533 -0.4075329005718231 4729209 0 -1
-1.8660169839859009 2.1299386024475098 -0.02169850841164589 4456788 0 -1
-1.8658525943756104 2.129750967025757 -0.04339701682329178 4456788 0 -1
-1.8658525943756104 2.129750967025757 -0.04339701682329178 4523353 0 -1
-1.746551752090454 2.3900790214538574 0.7736640572547913 4456788 0 -1
-1.7842575311660767 2.3461873531341553 0.8205527663230896 4456788 0 -1
-1.7201013565063477 2.4987761974334717 -0.3985542058944702 4456788 0 -1
-1.7631789445877075 2.412832498550415 0.6564422249794006 4456788 0 -1
-1.7535488605499268 2.3996541500091553 0.7267753481864929 4456788 0 -1
-1.9460643529891968 2.313969373703003 0.4688872992992401 4456788 0 -1
-1.7974731922149658 2.4112186431884766 0.5626647472381592 4456788 0 -1
-1.7591675519943237 2.3598334789276123 0.9477509260177612 4456788 0 -1
-1.7804131507873535 2.388333320617676 0.8292820453643799 4456788 0 -1
-1.69636070728302 2.4642884731292725 0.7818945050239563 4456788 0 -1
-1.692792534828186 2.4591050148010254 0.8055883049964905 4456788 0 -1
-1.70412015914917 2.42675518989563 0.8766696453094482 4456788 0 -1
-1.692792534828186 2.4591050148010254 0.8055883049964905 4456788 0 -1
-1.6761367321014404 2.4839134216308594 0.885897696018219 4456788 0 -1
-1.7709630727767944 2.572662591934204 -0.09577272832393646 4456788 0 -1
-1.7699220180511475 2.571150302886963 -0.1436590850353241 4456788 0 -1
-1.769244909286499 2.570166826248169 -0.1676022708415985 4456788 0 -1
-1.7760883569717407 2.4304983615875244 0.8380113840103149 4456788 0 -1
-1.6607578992843628 2.510716199874878 0.8380113840103149 4456788 0 -1
-1.8827869892120361 2.426722288131714 0.5746363401412964 4456788 0 -1
-1.749080777168274 2.4416849613189697 0.8619545102119446 4456788 0 -1
-1.8030768632888794 2.4187355041503906 0.8140681982040405 4456788 0 -1
-1.7030524015426636 2.4740092754364014 0.8619545102119446 4456788 0 -1
-1.7030524015426636 2.4740092754364014 0.8619545102119446 4456788 0 -1
-1.7106114625930786 2.484990358352661 0.8140681982040405 4456788 0 -1
-1.7106114625930786 2.484990358352661 0.8140681982040405 4456788 0 -1
-1.7136821746826172 2.4403719902038574 0.9337840676307678 4456788 0 -1
-1.7093125581741333 2.4341495037078857 0.9577272534370422 4456788 0 -1
-1.7260665893554688 2.458008050918579 0.8619545102119446 4456788 0 -1
-1.7220582962036133 2.4523000717163086 0.885897696018219 4456788 0 -1
-1.7126811742782593 2.487997055053711 0.919318437576294 4456788 0 -1
-1.7040897607803345 2.4755163192749023 0.9677035808563232 4456788 0 -1
-1.7040897607803345 2.4755163192749023 0.9677035808563232 4456788 0 -1
-1.7040897607803345 2.4755163192749023 0.9677035808563232 4456788 0 -1
-1.7040897607803345 2.4755163192749023 0.9677035808563232 4456788 0 -1
-1.7126811742782593 2.487997055053711 0.919318437576294 4456788 0 -1
-1.7167963981628418 2.4939751625061035 0.8951258063316345 4456788 0 -1
-1.7359693050384521 2.4233815670013428 1.0402814149856567 4456788 0 -1
-1.7315330505371094 2.465792655944824 0.9435110092163086 4456788 0 -1
-1.727117896080017 2.459505319595337 0.9677035808563232 4456788 0 -1
-1.7501461505889893 2.4431722164154053 0.9677035808563232 4456788 0 -1
-1.7359693050384521 2.4233815670013428 1.0402814149856567 4456788 0 -1
-1.7731744050979614 2.426510810852051 0.9677035808563232 4456788 0 -1
-1.7344954013824463 2.519686222076416 0.90435391664505 4456788 0 -1
-1.726058840751648 2.5074305534362793 0.9532378911972046 4456788 0 -1
-1.726058840751648 2.5074305534362793 0.9532378911972046 4456788 0 -1
-1.726058840751648 2.5074305534362793 0.9532378911972046 4456788 0 -1
-1.721657633781433 2.501037120819092 0.9776799082756042 4456788 0 -1
-1.7537206411361694 2.4973888397216797 0.9287959337234497 4456788 0 -1
-1.74033784866333 2.4783310890197754 1.002121925354004 4456788 0 -1
-1.74033784866333 2.4783310890197754 1.002121925354004 4456788 0 -1
-1.7344954013824463 2.519686222076416 0.90435391664505 4456788 0 -1
-1.74033784866333 2.4783310890197754 1.002121925354004 4456788 0 -1
-1.7635424137115479 2.4618730545043945 1.002121925354004 4456788 0 -1
-1.7635424137115479 2.4618730545043945 1.002121925354004 4456788 0 -1
-1.7635424137115479 2.4618730545043945 1.002121925354004 4456788 0 -1
-1.7538658380508423 2.4483649730682373 1.0510059595108032 4456788 0 -1
-1.7769430875778198 2.4316680431365967 1.0510059595108032 4456788 0 -1
-1.8178666830062866 2.390381097793579 1.075447916984558 4456788 0 -1
-1.7479941844940186 2.5392959117889404 0.9382734298706055 4456788 0 -1
-1.771615743637085 2.5228724479675293 0.9382734298706055 4456788 0 -1
-1.7436716556549072 2.5330166816711426 0.9629648327827454 4456788 0 -1
-1.7436716556549072 2.5330166816711426 0.9629648327827454 4456788 0 -1
-1.7627285718917847 2.51021671295166 0.9876562356948853 4456788 0 -1
-1.75809645652771 2.503620147705078 1.01234769821167 4456788 0 -1
-1.7533371448516846 2.496842861175537 1.037039041519165 4456788 0 -1
-1.75809645652771 2.503620147705078 1.01234769821167 4456788 0 -1
-1.8332377672195435 2.4591948986053467 0.9876562356948853 4456788 0 -1
-1.7346551418304443 2.519918441772461 1.01234769821167 4456788 0 -1
-1.8661019802093506 2.4538075923919678 0.9382734298706055 4456788 0 -1
-1.75809645652771 2.503620147705078 1.01234769821167 4456788 0 -1
-1.7533371448516846 2.496842861175537 1.037039041519165 4456788 0 -1
-1.9456278085708618 2.5077178478240967 0.8564675450325012 4456788 0 -1
-1.9612516164779663 2.527855396270752 0.7557066679000854 4456788 0 -1
-1.9497289657592773 2.5130038261413574 0.8312773108482361 4456788 0 -1
-1.9497289657592773 2.5130038261413574 0.8312773108482361 4456788 0 -1
-2.0630764961242676 2.4531028270721436 0.7305164337158203 4590430 0 -1
-2.0455546379089355 2.482090711593628 0.6801360249519348 4657508 0 -1
-2.0084714889526367 2.537325382232666 0.5793750882148743 4724328 0 -1
-2.0054283142089844 2.5334808826446533 0.763188898563385 4456788 0 -1
-1.9806699752807617 2.5528836250305176 0.763188898563385 4456788 0 -1
-1.9842885732650757 2.5575475692749023 0.7377492785453796 4456788 0 -1
-1.9690332412719727 2.5378849506378174 0.8395078182220459 4456788 0 -1
-1.9842885732650757 2.5575475692749023 0.7377492785453796 4456788 0 -1
-1.8441649675369263 2.523658275604248 1.1193437576293945 4456788 0 -1
-1.9265319108963013 2.689403533935547 -0.27983593940734863 4523353 0 -1
-1.7564994096755981 2.6554572582244873 0.9412662982940674 4523353 0 -1
-2.087167263031006 2.481748104095459 0.7123096585273743 4590430 0 -1
-2.065807580947876 2.5066659450531006 0.6868700385093689 4657508 0 -1
-2.022369146347046 2.504005193710327 0.8140681982040405 4724328 0 -1
-1.9648914337158203 2.5325467586517334 0.8649474382400513 4725613 0 -1
-2.0973546504974365 2.493861436843872 0.6359907388687134 4471684 0 -1
-2.065807580947876 2.5066659450531006 0.6868700385093689 4341894 0 -1
-1.952279806137085 2.6716086864471436 -0.539469838142395 4456788 0 -1
-2.057448148727417 2.547438383102417 -0.7192930579185486 4456788 0 -1
-1.87177312374115 2.7738325595855713 -0.20551231503486633 4456788 0 -1
-1.8417752981185913 2.7843761444091797 -0.3082684576511383 4456788 0 -1
-2.025712490081787 2.610938787460327 -0.5651588439941406 4456788 0 -1
-1.8277626037597656 2.7631919384002686 -0.5137807726860046 4456788 0 -1
-1.6954765319824219 2.8922786712646484 0 4456788 0 -1
-1.8461323976516724 2.7909634113311768 -0.20551231503486633 4456788 0 -1
-1.8452074527740479 2.789564847946167 -0.23120135068893433 4456788 0 -1
-1.8430290222167969 2.786271572113037 -0.2825794219970703 4456788 0 -1
-1.8319337368011475 2.769497871398926 -0.46240270137786865 4523353 0 -1
-2.825711250305176 1.8040544986724854 -0.02568903937935829 4590430 0 -1
-1.8487417697906494 2.794908046722412 -0.10275615751743317 4590430 0 -1
-1.8373531103134155 2.777690887451172 -0.3853355646133423 4725613 0 -1
-2.696669340133667 1.7216686010360718 -1.0018725395202637 4536450 0 -1
-1.9800760746002197 2.6561710834503174 -0.5137807726860046 4536450 0 -1
-1.9569809436798096 2.678041934967041 -0.48809173703193665 4471684 0 -1
-1.8491220474243164 2.795482873916626 -0.07706711441278458 4341894 0 -1
-1.9759807586669922 2.704042434692383 -0.4928304851055145 4456788 0 -1
-1.8889987468719482 2.7993595600128174 -0.23344601690769196 4456788 0 -1
-1.859656572341919 2.8114089965820312 -0.3112613558769226 4456788 0 -1
-1.847670316696167 2.793288230895996 -0.4928304851055145 4456788 0 -1
-1.8879398107528687 2.797790288925171 -0.2593844532966614 4456788 0 -1
-1.8930063247680664 2.805298328399658 -0.07781533896923065 4456788 0 -1
-1.8620775938034058 2.8150689601898193 -0.2593844532966614 4456788 0 -1
-1.8609224557876587 2.8133227825164795 -0.285322904586792 4456788 0 -1
-1.8534798622131348 2.8020710945129395 -0.41501516103744507 4523353 0 -1
-2.85322904586792 1.8216230869293213 0 4590430 0 -1
-1.8661969900131226 2.8212966918945312 -0.1296922266483307 4590430 0 -1
-1.8889987468719482 2.7993595600128174 -0.23344601690769196 4725613 0 -1
-1.8688322305679321 2.7694742679595947 -0.5447073578834534 4726897 0 -1
-2.7159078121185303 1.733951210975647 -1.0375378131866455 4536450 0 -1
-1.9993001222610474 2.6819591522216797 -0.5187689065933228 4536450 0 -1
-2.733396053314209 1.6902046203613281 -1.063476324081421 4471684 0 -1
-1.973668098449707 2.7008776664733887 -0.5187689065933228 4471684 0 -1
-1.8907809257507324 2.8020005226135254 -0.18156912922859192 4341894 0 -1
-1.9926457405090332 2.7268476486206055 -0.5237571001052856 4456788 0 -1
-1.9071621894836426 2.8262765407562256 -0.23569069802761078 4456788 0 -1
-1.87881600856781 2.840373992919922 -0.28806641697883606 4456788 0 -1
-1.8694603443145752 2.82623028755188 -0.4451935291290283 4456788 0 -1
-1.9060930013656616 2.8246920108795166 -0.2618785500526428 4456788 0 -1
-1.910309910774231 2.8309409618377686 -0.1309392750263214 4456788 0 -1
-1.8799822330474854 2.842137098312378 -0.2618785500526428 4456788 0 -1
-1.8799822330474854 2.842137098312378 -0.2618785500526428 4456788 0 -1
-1.876147747039795 2.8363401889801025 -0.34044212102890015 4523353 0 -1
-2.8793106079101562 1.838274598121643 0.10475142300128937 4590430 0 -1
-1.9081182479858398 2.827693223953247 -0.20950284600257874 4590430 0 -1
-1.9071621894836426 2.8262765407562256 -0.23569069802761078 4657508 0 -1
-1.908961534500122 2.8289427757263184 -0.1833149790763855 4725613 0 -1
-2.736661911010742 1.6922240257263184 -1.1522656679153442 4536450 0 -1
-1.9992839097976685 2.735931873321533 -0.4451935291290283 4536450 0 -1
-2.734816551208496 1.746023416519165 -1.073702096939087 4471684 0 -1
-1.9901881217956543 2.723484516143799 -0.5499449372291565 4471684 0 -1
-2.9539241790771484 1.766896367073059 0.2379353642463684 4456788 0 -1
-2.035609483718872 2.785641670227051 -0.026437263935804367 4456788 0 -1
-1.9278795719146729 2.856977939605713 -0.1586235761642456 4456788 0 -1
-1.9007428884506226 2.8735227584838867 -0.18506084382534027 4456788 0 -1
-2.0318410396575928 2.780484676361084 -0.21149811148643494 4523353 0 -1
-1.9294102191925049 2.8592464923858643 -0.0793117880821228 4523353 0 -1
-2.950437068939209 1.76481032371521 0.29080989956855774 4590430 0 -1
-2.952268362045288 1.7659058570861816 0.2643726170063019 4657508 0 -1
-1.9271420240402222 2.8558852672576904 -0.18506084382534027 4657508 0 -1
-2.9141807556152344 1.7431236505508423 -0.7739134430885315 4456788 0 -1
-2.0460598468780518 2.744684934616089 0.640480101108551 4456788 0 -1
-2.9242427349090576 1.7491421699523926 -0.7205401062965393 4456788 0 -1
-2.0766048431396484 2.7856593132019043 -0.24018004536628723 4523353 0 -1
-1.833579659461975 2.9436886310577393 0.3202400505542755 4523353 0 -1
-2.9683938026428223 1.7151583433151245 -0.6137934327125549 4590430 0 -1
-3.0262129306793213 1.7485666275024414 -0.37710511684417725 4456788 0 -1
-3.0010831356048584 2.3953630924224854 -0.08829048275947571 4456788 0 -1
-2.6845054626464844 2.700958490371704 0.5003127455711365 4456788 0 -1
-3.0575003623962402 2.317880630493164 -0.17658096551895142 4456788 0 -1
-2.864204168319702 2.4018478393554688 -0.8829048275947571 4456788 0 -1
-2.896951913833618 2.429309368133545 -0.6768937110900879 4456788 0 -1
-2.908252239227295 2.4387855529785156 -0.5886031985282898 4456788 0 -1
-2.864204168319702 2.4018478393554688 -0.8829048275947571 4523353 0 -1
-2.8013734817504883 2.3491597175598145 1.1772063970565796 4590430 0 -1
-3.1187727451324463 2.2399823665618896 0.08829048275947571 4657508 0 -1
-2.965369701385498 2.4266200065612793 -0.2648714482784271 4657508 0 -1
-2.3029985427856445 2.8514676094055176 1.1477762460708618 4724328 0 -1
-3.0592987537384033 2.319243907928467 -0.11772064119577408 4725613 0 -1
3.638611078262329 1.194133996963501 -0.2943015992641449 4725613 0 -1
-2.8479292392730713 2.5634353160858154 0.2648714482784271 4664956 0 -1
-2.691444158554077 2.707939863204956 0.6529505252838135 4456788 0 -1
-3.018415927886963 2.4091973304748535 0.29679569602012634 4456788 0 -1
-3.678537607192993 1.2072372436523438 0.11871827393770218 4456788 0 -1
-1.9333256483078003 3.298020601272583 0.6232709288597107 4456788 0 -1
3.3143389225006104 1.982479214668274 0.29679569602012634 4456788 0 -1
-3.4021620750427246 1.753880262374878 0.5935913920402527 4456788 0 -1
-3.1299424171447754 2.0609076023101807 0.9794257879257202 4456788 0 -1
-2.760154962539673 2.6583268642425537 0.5639117956161499 4456788 0 -1
-3.505225419998169 1.5783042907714844 0.4748730957508087 4456788 0 -1
-2.760154962539673 2.6583268642425537 0.5639117956161499 4456788 0 -1
-3.505225419998169 1.5783042907714844 0.4748730957508087 4456788 0 -1
-2.7955355644226074 2.6331655979156494 0.5045526623725891 4456788 0 -1
-2.9803385734558105 2.4388694763183594 0.4155139625072479 4456788 0 -1
-2.982727527618408 2.440824270248413 0.38583439588546753 4456788 0 -1
-2.982727527618408 2.440824270248413 0.38583439588546753 4523353 0 -1
-2.860659122467041 2.340933322906494 1.1575031280517578 4590430 0 -1
-2.900221824645996 2.3733084201812744 0.9794257879257202 4657508 0 -1
-2.7955355644226074 2.6331655979156494 0.5045526623725891 4724328 0 -1
-2.333867311477661 2.889688014984131 1.0981440544128418 4724328 0 -1
-3.5017762184143066 1.5767512321472168 0.5045526623725891 4725613 0 -1
-2.792612075805664 2.6304121017456055 0.5342322587966919 4725613 0 -1
-2.5418598651885986 2.7837588787078857 0.8903870582580566 4725613 0 -1
-3.730722665786743 1.006732702255249 0.26711612939834595 4726897 0 -1
-3.4132869243621826 1.6867843866348267 0.7123096585273743 4726897 0 -1
-2.8514039516448975 2.5665628910064697 0.5342322587966919 4726897 0 -1
-2.526926040649414 2.7674038410186768 0.9794257879257202 4726897 0 -1
-2.894131660461426 2.54524827003479 0.38583439588546753 4664956 0 -1
-3.708203077316284 1.1127846240997314 0.11871827393770218 3562893 0 -1
-3.4314911365509033 1.6957805156707764 0.5935913920402527 3562893 0 -1
-2.8598392009735107 2.574155569076538 0.4451935291290283 3562893 0 -1
3.676375150680542 1.206527590751648 -0.17807741463184357 3562893 0 -1
-3.5409963130950928 1.5138847827911377 0.4155139625072479 3432845 0 -1
-2.8350677490234375 2.6108767986297607 0.38583439588546753 3432845 0 -1
-2.479389190673828 2.830063581466675 0.9200666546821594 3432845 0 -1
-3.7989847660064697 0.7555583119392395 0 3432845 0 -1
-3.442922830581665 1.701429843902588 0.5045526623725891 2134668 0 -1
-2.86867356300354 2.5821075439453125 0.32647526264190674 2134668 0 -1
-3.4487533569335938 1.777898907661438 0.4489346444606781 4456788 0 -1
-2.8096673488616943 2.6464767456054688 0.5985795259475708 4456788 0 -1
-3.710757255554199 1.2178113460540771 0.05985795333981514 4456788 0 -1
-2.894575834274292 2.605422019958496 0.2992897629737854 4456788 0 -1
-3.2867212295532227 2.0323550701141357 0.5686505436897278 4456788 0 -1
-3.590550661087036 1.4510142803192139 0.5087926387786865 4456788 0 -1
-3.426520586013794 1.7664374113082886 0.6285085082054138 4456788 0 -1
-3.011850118637085 2.1631877422332764 1.2270880937576294 4456788 0 -1
-3.4899027347564697 1.6488326787948608 0.5985795259475708 4456788 0 -1
-2.99532413482666 2.1513185501098633 1.2869460582733154 4456788 0 -1
-2.7800920009613037 2.6775283813476562 0.5985795259475708 4456788 0 -1
-3.45157790184021 1.70570707321167 -0.6584374904632568 4456788 0 -1
-2.794761896133423 2.632436990737915 -0.7182954549789429 4456788 0 -1
-2.7833495140075684 2.6806657314300537 0.5686505436897278 4456788 0 -1
-3.60050892829895 1.4550385475158691 0.41900569200515747 4456788 0 -1
-2.529296875 2.8281116485595703 0.9277982711791992 4456788 0 -1
-3.5940873622894287 1.4524435997009277 0.4788636267185211 4456788 0 -1
-3.0077922344207764 2.4613354206085205 0.38907670974731445 4456788 0 -1
-3.0077922344207764 2.4613354206085205 0.38907670974731445 4456788 0 -1
-3.002794027328491 2.457245111465454 0.4489346444606781 4523353 0 -1
-2.905545473098755 2.377664804458618 1.0774431228637695 4590430 0 -1
-2.9472522735595703 2.4117941856384277 0.8679403066635132 4657508 0 -1
-2.936310052871704 2.4028401374816895 0.9277982711791992 4724328 0 -1
-2.8515074253082275 2.62601637840271 0.4788636267185211 4724328 0 -1
-3.527510166168213 1.5883384943008423 0.5387215614318848 4725613 0 -1
-2.8487014770507812 2.6234323978424072 0.5087926387786865 4725613 0 -1
-3.75229549407959 1.0125540494918823 0.38907670974731445 4726897 0 -1
-3.495591163635254 1.573966383934021 0.7482244372367859 4726897 0 -1
-2.8652801513671875 2.5790529251098633 0.6285085082054138 4726897 0 -1
-2.490999221801758 2.7852892875671387 1.1373010873794556 4726897 0 -1
-2.490999221801758 2.7852892875671387 1.1373010873794556 4726897 0 -1
-2.0497028827667236 3.225226879119873 0.8080824017524719 4726897 0 -1
-3.60050892829895 1.4550385475158691 0.41900569200515747 3432845 0 -1
-2.8541407585144043 2.628441572189331 0.4489346444606781 3432845 0 -1
-2.5583691596984863 2.801839590072632 0.9277982711791992 3432845 0 -1
-3.830796480178833 0.7618851661682129 0.02992897666990757 3432845 0 -1
-3.5725831985473633 1.4437532424926758 -0.814816415309906 4456788 0 -1
-3.5433382987976074 1.6740787029266357 0.392318993806839 4456788 0 -1
-3.041834592819214 2.427889585494995 0.6035677194595337 4456788 0 -1
-2.6911826133728027 2.766510248184204 0.784637987613678 4456788 0 -1
-3.0278172492980957 2.47772216796875 0.45267578959465027 4456788 0 -1
-3.0328571796417236 2.481846570968628 0.392318993806839 4456788 0 -1
-3.0328571796417236 2.481846570968628 0.392318993806839 4456788 0 -1
-3.030428409576416 2.479858875274658 0.42249739170074463 4456788 0 -1
-3.0250236988067627 2.475435972213745 0.4828541576862335 4523353 0 -1
-3.0003092288970947 2.455211877822876 0.6941028833389282 4590430 0 -1
-3.0003092288970947 2.455211877822876 0.6941028833389282 4657508 0 -1
-2.9370229244232178 2.46291184425354 0.9053515791893005 4724328 0 -1
-3.1641690731048584 2.3356173038482666 0.21124869585037231 4725613 0 -1
-2.496469497680664 2.908552646636963 0.9053515791893005 4725613 0 -1
-3.2893474102020264 2.165867567062378 -0.030178384855389595 4726897 0 -1
-2.8517792224884033 2.6262667179107666 0.6941028833389282 4726897 0 -1
-2.985685110092163 2.503718852996826 0.5733892917633057 4471684 0 -1
-2.450977325439453 3.0346882343292236 0.5432109236717224 4341894 0 -1
3.6161932945251465 1.5460337400436401 0.21124869585037231 4341894 0 -1
-2.969156503677368 2.369880199432373 1.1562561988830566 4456788 0 -1
-2.2068419456481934 3.0807111263275146 1.1866838932037354 4456788 0 -1
-3.020521640777588 2.4108781814575195 0.9128338098526001 4456788 0 -1
-2.9618141651153564 2.3640198707580566 -1.1866838932037354 4456788 0 -1
-3.0198254585266113 2.532348155975342 0.4868446886539459 4456788 0 -1
-2.9464986324310303 2.3517954349517822 1.2475395202636719 4456788 0 -1
-3.0198254585266113 2.532348155975342 0.4868446886539459 4456788 0 -1
-2.841341257095337 2.6763110160827637 0.7302670478820801 4456788 0 -1
-3.0500237941741943 2.495894193649292 0.4868446886539459 4456788 0 -1
-2.845396041870117 2.6801300048828125 0.6998392343521118 4456788 0 -1
-2.828101873397827 2.6638405323028564 0.8215504288673401 4523353 0 -1
-3.02079439163208 2.471975326538086 0.7302670478820801 4590430 0 -1
-2.9951536655426025 2.5116589069366455 0.6998392343521118 4657508 0 -1
-2.8669722080230713 2.640258312225342 0.7606948614120483 4657508 0 -1
-3.006718873977661 2.4604568481445312 0.8215504288673401 4724328 0 -1
-2.8625128269195557 2.6361517906188965 0.7911226153373718 4724328 0 -1
-2.996373176574707 2.451990842819214 0.8824059963226318 4725613 0 -1
-2.549349308013916 2.970161199569702 0.6694114804267883 4725613 0 -1
-2.389143466949463 3.079364776611328 0.7606948614120483 4725613 0 -1
-2.364553451538086 3.047670602798462 0.9432615637779236 4726897 0 -1
0.1773415058851242 3.853304862976074 -0.9432615637779236 4471684 0 -1
-2.3360605239868164 3.010946273803711 1.2270880937576294 4456788 0 -1
3.7846806049346924 1.1357344388961792 0.6442212462425232 4456788 0 -1
-3.234684944152832 1.9348340034484863 -1.3497968912124634 4456788 0 -1
-3.1276044845581055 2.4963481426239014 -0.12270880490541458 4456788 0 -1
-2.657339572906494 2.9102284908294678 -0.7055756449699402 4456788 0 -1
-2.5161311626434326 3.0530917644500732 -0.6135440468788147 4456788 0 -1
-2.860722064971924 2.634502410888672 0.9509932398796082 4456788 0 -1
-3.2302331924438477 2.3200361728668213 0.46015802025794983 4456788 0 -1
-2.8661458492279053 2.6394975185394287 0.9203160405158997 4456788 0 -1
-2.855109214782715 2.62933349609375 0.9816704392433167 4523353 0 -1
-2.19496488571167 3.064131021499634 1.3497968912124634 4523353 0 -1
-3.27628755569458 2.2878878116607666 -0.24541760981082916 4590430 0 -1
-3.27628755569458 2.2878878116607666 -0.24541760981082916 4657508 0 -1
-2.837128162384033 2.612774133682251 1.073702096939087 4657508 0 -1
-2.986091136932373 2.383397102355957 1.196410894393921 4724328 0 -1
-2.8032727241516113 2.5815961360931396 1.2270880937576294 4724328 0 -1
-2.393826723098755 3.024149179458618 1.073702096939087 4724328 0 -1
-3.281593084335327 2.291592836380005 -0.09203160554170609 4726897 0 -1
-2.378136157989502 3.0651774406433105 1.1133579015731812 4456788 0 -1
-2.3170430660247803 3.299589157104492 -0.18555966019630432 4456788 0 -1
-2.3479371070861816 3.277677536010742 0.18555966019630432 4456788 0 -1
-2.350353240966797 3.281050443649292 0.03092660941183567 4456788 0 -1
-2.350353240966797 3.281050443649292 0.03092660941183567 4456788 0 -1
-3.2773544788360596 2.353879928588867 -0.09277983009815216 4590430 0 -1
-2.318406105041504 3.301530122756958 0.12370643764734268 4657508 0 -1
-2.437589645385742 3.0181121826171875 1.1133579015731812 4724328 0 -1
-2.4260995388031006 3.0038857460021973 1.1752111911773682 4725613 0 -1
-2.3326914310455322 3.256394863128662 0.4948257505893707 4725613 0 -1
-2.3624114990234375 3.2978835105895996 -0.31176018714904785 4456788 0 -1
-2.8959290981292725 2.7890920639038086 0.6235203742980957 4456788 0 -1
-2.336484670639038 3.327275037765503 0.15588009357452393 4456788 0 -1
-2.337583541870117 3.3288397789001465 0.09352805465459824 4456788 0 -1
-2.3382012844085693 3.3297195434570312 0 4456788 0 -1
-2.332634687423706 3.3217926025390625 0.2805841565132141 4523353 0 -1
-3.2689642906188965 2.282773733139038 0.8105764389038086 4590430 0 -1
-2.9153647422790527 2.746034860610962 0.7170484066009521 4590430 0 -1
-2.457247495651245 3.042451858520508 1.1223366260528564 4725613 0 -1
-2.894774913787842 2.787980318069458 0.8170610666275024 4456788 0 -1
-2.740797519683838 2.9394872188568115 0.8170610666275024 4456788 0 -1
-3.3616321086883545 2.347485303878784 -0.09427627921104431 4456788 0 -1
-2.8999695777893066 2.731534004211426 0.9741882085800171 4456788 0 -1
-2.575674295425415 3.189082384109497 -0.12570171058177948 4456788 0 -1
-3.3286495208740234 2.390721321105957 -0.15712712705135345 4456788 0 -1
-3.2393429279327393 2.2620885372161865 1.099889874458313 4523353 0 -1
-2.6021008491516113 3.1574079990386963 -0.28282883763313293 4523353 0 -1
-3.216824769973755 2.246363878250122 1.1941661834716797 4590430 0 -1
-2.435166358947754 3.076374053955078 1.1941661834716797 4725613 0 -1
-3.355067491531372 2.4096953868865967 -0.15837417542934418 4456788 0 -1
-3.2826693058013916 2.8869481086730957 1.0325497388839722 4456788 0 -1
-3.270028591156006 2.875831365585327 1.101386308670044 4523353 0 -1
-3.2870306968688965 2.8907840251922607 1.1440351009368896 4456788 0 -1
-3.293724536895752 2.8966708183288574 1.1093673706054688 4523353 0 -1
-2.770113468170166 3.715965747833252 0.427984356880188 4456788 0 -1
-2.7680623531341553 3.71321439743042 0.4636497497558594 4523353 0 -1
-3.142256021499634 4.215176105499268 -0.40404120087623596 4456788 0 -1
-3.3033971786499023 4.090115547180176 -0.40404120087623596 4456788 0 -1
-4.367838382720947 2.5237669944763184 -1.5353565216064453 4456788 0 -1
-3.1837527751922607 3.8631887435913086 -1.6565688848495483 4523353 0 -1
-3.1191604137420654 3.86200213432312 -1.7777812480926514 4590430 0 -1
-3.7489535808563232 3.297022819519043 1.6969729661941528 4725613 0 -1
4.917327404022217 1.613788366317749 1.0101029872894287 4725613 0 -1
-3.492506504058838 3.9864718914031982 -0.243921160697937 4456788 0 -1
-3.3335893154144287 4.127498149871826 0 4456788 0 -1
-3.536752939224243 3.954590082168579 0.0406535267829895 4456788 0 -1
-3.3662097454071045 4.084583282470703 -0.3658817410469055 4456788 0 -1
-4.593713760375977 2.6542794704437256 0.0406535267829895 4456788 0 -1
-3.339362382888794 3.733879566192627 1.7481017112731934 4523353 0 -1
-3.374143600463867 4.094210624694824 0.0406535267829895 4523353 0 -1
-3.820577621459961 3.3600125312805176 1.5041805505752563 4471684 0 -1
-3.5581374168395996 3.9785008430480957 -0.08180586993694305 4456788 0 -1
-3.3373589515686035 4.132165431976318 -0.5317381620407104 4456788 0 -1
-3.551863193511963 3.9714853763580322 -0.3272234797477722 4456788 0 -1
-3.5559427738189697 3.9760468006134033 -0.20451468229293823 4456788 0 -1
-3.3524649143218994 4.150868892669678 -0.1636117398738861 4456788 0 -1
-3.5585553646087646 3.9789681434631348 0 4456788 0 -1
-3.349212646484375 4.146842002868652 -0.2863205373287201 4456788 0 -1
-4.6220316886901855 2.6706416606903076 0 4456788 0 -1
-3.5559427738189697 3.9760468006134033 -0.20451468229293823 4523353 0 -1
-3.353154420852661 4.1517229080200195 -0.12270880490541458 4523353 0 -1
-3.538020610809326 3.956007480621338 0.5726410746574402 4590430 0 -1
-3.3539421558380127 4.152698040008545 -0.04090293496847153 4590430 0 -1
-3.557615041732788 3.977916717529297 0.12270880490541458 4657508 0 -1
-3.3515782356262207 4.149771213531494 -0.20451468229293823 4657508 0 -1
-3.32546329498291 4.11743688583374 0.6953498721122742 4471684 0 -1
-3.392451047897339 4.116424560546875 0.20451468229293823 4341894 0 -1
-3.5374388694763184 4.037759304046631 -0.1646093726158142 4456788 0 -1
-3.5324459075927734 4.032060146331787 -0.3292187452316284 4456788 0 -1
-3.5353593826293945 4.035385608673096 -0.2469140589237213 4456788 0 -1
-3.5340070724487305 4.033842086791992 -0.28806641697883606 4456788 0 -1
-3.3709239959716797 4.173724174499512 -0.2469140589237213 4456788 0 -1
-3.579307794570923 4.002172470092773 -0.12345702946186066 4456788 0 -1
-4.6496686935424805 2.686610460281372 0.0823046863079071 4456788 0 -1
-3.5764682292938232 3.998997211456299 -0.2469140589237213 4523353 0 -1
-3.5324459075927734 4.032060146331787 -0.3292187452316284 4657508 0 -1
-3.8499107360839844 3.790261745452881 0.08280350267887115 4456788 0 -1
-3.508802652359009 4.087987899780273 -0.41401752829551697 4456788 0 -1
-3.5520739555358887 4.054464340209961 -0.3726157546043396 4456788 0 -1
-3.850362777709961 3.7907071113586426 0 4456788 0 -1
-4.674962997436523 2.701225757598877 0.20700876414775848 4456788 0 -1
-3.8499107360839844 3.790261745452881 0.08280350267887115 4523353 0 -1
-3.850249767303467 3.790595769882202 0.04140175133943558 4590430 0 -1
-3.8499107360839844 3.790261745452881 -0.08280350267887115 4657508 0 -1
-3.4062743186950684 3.8880434036254883 1.5732665061950684 4725613 0 -1
-3.850249767303467 3.790595769882202 -0.04140175133943558 4726897 0 -1
-3.51408314704895 4.09414005279541 -0.28981226682662964 4726897 0 -1
-3.873444080352783 3.8134305477142334 -0.0416511595249176 4456788 0 -1
-3.456944704055786 4.194681644439697 0.0416511595249176 4456788 0 -1
-3.99275541305542 3.6770172119140625 -0.2915581166744232 4456788 0 -1
-3.8679819107055664 3.8080530166625977 -0.2915581166744232 4456788 0 -1
-3.8679819107055664 3.8080530166625977 -0.2915581166744232 4456788 0 -1
-3.498286485671997 4.159640312194824 0.0833023190498352 4456788 0 -1
-3.994283437728882 3.678424119949341 -0.24990695714950562 4456788 0 -1
-3.986755847930908 3.671491861343384 -0.416511595249176 4456788 0 -1
-3.9955756664276123 3.679614305496216 -0.208255797624588 4523353 0 -1
-3.9955756664276123 3.679614305496216 -0.208255797624588 4523353 0 -1
-3.825258493423462 3.5227653980255127 1.5827441215515137 4590430 0 -1
-3.825258493423462 3.5227653980255127 1.5827441215515137 4590430 0 -1
-3.8433749675750732 3.5394492149353027 1.4994417428970337 4657508 0 -1
-4.099923610687256 3.4380903244018555 0.9579766988754272 4725613 0 -1
-3.964442729949951 3.6509435176849365 0.7080697417259216 4725613 0 -1
-3.4554221630096436 4.192834377288818 0.1666046380996704 4725613 0 -1
-4.18894624710083 3.427896499633789 0.49981391429901123 4726897 0 -1
-3.873444080352783 3.8134305477142334 -0.0416511595249176 4726897 0 -1
-4.158448219299316 3.4871678352355957 0.670409083366394 4456788 0 -1
-3.6871416568756104 4.0380330085754395 0.04190056771039963 4456788 0 -1
-4.1889495849609375 3.5127453804016113 -0.12570171058177948 4456788 0 -1
-4.020564556121826 3.702627182006836 -0.1676022708415985 4456788 0 -1
-4.55373477935791 2.9984021186828613 0.41900569200515747 4456788 0 -1
-3.9748239517211914 3.7439587116241455 -0.2933039665222168 4456788 0 -1
-4.022454738616943 3.7043676376342773 0 4523353 0 -1
-4.022454738616943 3.7043676376342773 0 4590430 0 -1
-4.022454738616943 3.7043676376342773 0 4590430 0 -1
-4.019501209259033 3.701647996902466 -0.20950284600257874 4657508 0 -1
-3.8996615409851074 3.59128475189209 1.340818166732788 4724328 0 -1
-4.130093097686768 3.4633901119232178 0.9218124747276306 4725613 0 -1
-3.658317804336548 4.090516567230225 0.37934979796409607 4456788 0 -1
-4.172725200653076 3.5841469764709473 0.04214997589588165 4456788 0 -1
-4.515992164611816 2.97355055809021 -1.0115994215011597 4456788 0 -1
-4.168435096740723 3.5804622173309326 -0.2528998553752899 4523353 0 -1
-3.9285361766815186 3.374401807785034 1.8545989990234375 4590430 0 -1
-3.8351974487304688 3.942546844482422 0.0842999517917633 4590430 0 -1
-4.001633167266846 3.437187910079956 1.55954909324646 4657508 0 -1
-3.615279197692871 4.126608848571777 0.7207895517349243 4456788 0 -1
-3.6406781673431396 4.070793151855469 0.8903870582580566 4456788 0 -1
-3.508802652359009 4.257606506347656 0.423993855714798 4456788 0 -1
-3.5194780826568604 4.18483829498291 0.847987711429596 4456788 0 -1
-4.561309337615967 3.003389596939087 -0.8903870582580566 4456788 0 -1
-3.5464603900909424 4.216921806335449 0.5087926387786865 4523353 0 -1
-3.551077365875244 4.222411632537842 0.423993855714798 4590430 0 -1
-3.706418991088867 4.059144496917725 0.6359907388687134 4657508 0 -1
-3.67189621925354 4.021336555480957 1.151517391204834 4456788 0 -1
-3.5106842517852783 4.174382209777832 1.1088685989379883 4456788 0 -1
-3.6778597831726074 4.027867794036865 1.1088685989379883 4523353 0 -1
-3.5554733276367188 4.2276387214660645 0.6823806762695312 4523353 0 -1
-3.755300998687744 4.027535915374756 0.8103270530700684 4590430 0 -1
-3.6234443187713623 4.221552848815918 0.1705951690673828 4590430 0 -1
-3.772212028503418 4.5772294998168945 -0.5477002859115601 4456788 0 -1
-3.8049802780151367 4.524314880371094 -0.7302670478820801 4456788 0 -1
-3.5989127159118652 4.7323455810546875 0.36513352394104004 4456788 0 -1
-3.772212028503418 4.5772294998168945 -0.5477002859115601 4456788 0 -1
-3.784254550933838 4.591842174530029 -0.27385014295578003 4456788 0 -1
-3.78648042678833 4.594542980194092 -0.18256676197052002 4523353 0 -1
-3.7878153324127197 4.596162796020508 0.09128338098526001 4590430 0 -1
-3.7811360359191895 4.588057994842529 -0.36513352394104004 4657508 0 -1
-3.5989127159118652 4.7323455810546875 0.36513352394104004 4729209 0 -1
-3.5069580078125 4.799117088317871 0.7342575788497925 4456788 0 -1
-3.757652997970581 4.652554512023926 -0.3212376832962036 4456788 0 -1
-3.5490071773529053 4.760811805725098 -0.7801486849784851 4456788 0 -1
-3.744354009628296 4.6360883712768555 -0.5965842604637146 4456788 0 -1
-3.6703176498413086 4.730669021606445 0.1376732885837555 4456788 0 -1
-3.7541112899780273 4.64816951751709 -0.41301989555358887 4456788 0 -1
-3.762075662612915 4.6580305099487305 -0.1376732885837555 4456788 0 -1
-3.715432643890381 4.693748950958252 -0.18356439471244812 4456788 0 -1
-3.5186450481414795 4.815110206604004 -0.550693154335022 4456788 0 -1
-3.757652997970581 4.652554512023926 -0.3212376832962036 4523353 0 -1
-3.7626280784606934 4.658714294433594 0.09178219735622406 4590430 0 -1
-3.5778238773345947 4.799468040466309 -0.18356439471244812 4590430 0 -1
-3.7603073120117188 4.655840873718262 -0.22945548593997955 4657508 0 -1
-3.574352979660034 4.794812202453613 0.3212376832962036 4471684 0 -1
-3.737271308898926 4.721338272094727 0.046140506863594055 4456788 0 -1
-3.5377681255340576 4.84127950668335 -0.5536860823631287 4456788 0 -1
-3.5292739868164062 4.829655647277832 -0.692107617855072 4456788 0 -1
-3.718792676925659 4.697993755340576 -0.5998265743255615 4456788 0 -1
-3.5108518600463867 4.804445743560791 -0.9228101372718811 4456788 0 -1
-3.691132068634033 4.757496356964111 0.046140506863594055 4456788 0 -1
-3.7240817546844482 4.704675674438477 -0.5075455904006958 4456788 0 -1
-3.544360876083374 4.850301265716553 -0.4152645468711853 4456788 0 -1
-3.7284834384918213 4.710236072540283 -0.4152645468711853 4456788 0 -1
-3.544360876083374 4.850301265716553 -0.4152645468711853 4456788 0 -1
-3.7240817546844482 4.704675674438477 -0.5075455904006958 4456788 0 -1
-3.5401763916015625 4.844574928283691 -0.5075455904006958 4456788 0 -1
-3.726393222808838 4.7075958251953125 -0.46140506863594055 4523353 0 -1
-3.5477046966552734 4.85487699508667 -0.3229835331439972 4523353 0 -1
-3.5477046966552734 4.85487699508667 -0.3229835331439972 4590430 0 -1
-3.726393222808838 4.7075958251953125 -0.46140506863594055 4657508 0 -1
-3.7780752182006836 4.677840232849121 0.3229835331439972 4724328 0 -1
-3.595154047012329 4.8227152824401855 -0.27684304118156433 4724328 0 -1
-3.5377681255340576 4.84127950668335 -0.5536860823631287 4725613 0 -1
-3.495594024658203 4.879786014556885 -0.7886285185813904 4456788 0 -1
-3.72556734085083 4.706552505493164 -0.7886285185813904 4456788 0 -1
-3.488070011138916 4.869282245635986 -0.8814083933830261 4456788 0 -1
-3.72556734085083 4.706552505493164 -0.7886285185813904 4456788 0 -1
-3.50528883934021 4.893319606781006 -0.6494588255882263 4456788 0 -1
-3.7292370796203613 4.711188316345215 -0.7422386407852173 4456788 0 -1
-3.50528883934021 4.893319606781006 -0.6494588255882263 4456788 0 -1
-3.683197021484375 4.747269153594971 -0.7422386407852173 4456788 0 -1
-3.50528883934021 4.893319606781006 -0.6494588255882263 4456788 0 -1
-3.686598539352417 4.75165319442749 -0.6958487033843994 4523353 0 -1
-3.510697841644287 4.900870323181152 -0.5566789507865906 4523353 0 -1
-3.8435332775115967 5.155903339385986 1.203144907951355 4456788 0 -1
-3.940654754638672 5.18171501159668 0.6517034769058228 4456788 0 -1
-3.9266085624694824 5.16324520111084 0.8522276282310486 4456788 0 -1
-3.9435746669769287 5.185554504394531 0.6015724539756775 4456788 0 -1
-3.9341061115264893 5.1731038093566895 0.7519655227661133 4523353 0 -1
-3.9487085342407227 5.192305088043213 0.5013103485107422 4657508 0 -1
-3.9598867893218994 5.207004070281982 0.10026207566261292 4724328 0 -1
-3.97713303565979 5.229681491851807 0.2519022226333618 4456788 0 -1
-3.9683539867401123 5.218137741088867 -0.5038044452667236 4456788 0 -1
-3.937649965286255 5.177763938903809 0.957228422164917 4456788 0 -1
-3.9602599143981934 5.207494735717773 0.6549457907676697 4456788 0 -1
-3.95003080368042 5.19404411315918 0.8060871362686157 4456788 0 -1
-3.9570882320404053 5.203323841094971 0.7053261995315552 4456788 0 -1
-3.9570882320404053 5.203323841094971 0.7053261995315552 4456788 0 -1
-3.9631943702697754 5.211353302001953 0.6045653223991394 4456788 0 -1
-3.95003080368042 5.19404411315918 0.8060871362686157 4523353 0 -1
-3.946143865585327 5.1889328956604 0.8564675450325012 4590430 0 -1
-3.9658923149108887 5.214900493621826 0.5541849136352539 4657508 0 -1
-3.97713303565979 5.229681491851807 0.2519022226333618 4724328 0 -1
-3.9063475131988525 5.136603355407715 -1.259511113166809 4725613 0 -1
-3.969585418701172 5.219757080078125 0.8100776672363281 4456788 0 -1
-3.976677656173706 5.229083061218262 0.7088179588317871 4456788 0 -1
-3.9732513427734375 5.2245774269104 0.7594478130340576 4456788 0 -1
-3.9732513427734375 5.2245774269104 0.7594478130340576 4456788 0 -1
-3.9732513427734375 5.2245774269104 0.7594478130340576 4456788 0 -1
-3.9350757598876953 5.278703212738037 0.5569283962249756 4456788 0 -1
-3.969585418701172 5.219757080078125 0.8100776672363281 4523353 0 -1
-3.965679168701172 5.214620590209961 0.8607075214385986 4590430 0 -1
-3.932398796081543 5.275112152099609 0.6075582504272461 4657508 0 -1
-3.979865074157715 5.233273983001709 0.6581881046295166 4724328 0 -1
-3.9571433067321777 5.203396320343018 0.9619672298431396 4725613 0 -1
-3.945681571960449 5.292930603027344 0.7123096585273743 4456788 0 -1
-3.94228196144104 5.288370132446289 0.763188898563385 4456788 0 -1
-3.945681571960449 5.292930603027344 0.7123096585273743 4456788 0 -1
-3.94228196144104 5.288370132446289 0.763188898563385 4456788 0 -1
-3.9488441944122314 5.297173023223877 0.6614304184913635 4456788 0 -1
-4.52825403213501 4.856523036956787 0 4456788 0 -1
-3.9386446475982666 5.2834906578063965 0.8140681982040405 4523353 0 -1
-3.9347689151763916 5.278291702270508 0.8649474382400513 4590430 0 -1
-3.9488441944122314 5.297173023223877 0.6614304184913635 4657508 0 -1
-3.9488441944122314 5.297173023223877 0.6614304184913635 4724328 0 -1
-3.7780752182006836 5.488376617431641 0.3579006791114807 4456788 0 -1
-3.772397994995117 5.480129718780518 0.5112866759300232 4456788 0 -1
-3.7388293743133545 5.431365013122559 -1.0225733518600464 4456788 0 -1
-3.7825217247009277 5.494836330413818 0.15338601171970367 4456788 0 -1
-3.7825217247009277 5.494836330413818 -0.15338601171970367 4456788 0 -1
-4.549917221069336 4.879756450653076 0.10225734114646912 4456788 0 -1
-3.7764062881469727 5.485952377319336 -0.40902936458587646 4456788 0 -1
-3.7764062881469727 5.485952377319336 0.40902936458587646 4523353 0 -1
-3.7807438373565674 5.492253303527832 0.2556433379650116 4590430 0 -1
-3.7825217247009277 5.494836330413818 -0.15338601171970367 4657508 0 -1
-3.8001914024353027 5.520504951477051 -0.20551231503486633 4456788 0 -1
