VERSION .7
FIELDS x y z rgb label object
SIZE 4 4 4 4 4 4
TYPE F F F I I I
COUNT 1 1 1 1 1 1
WIDTH 686
HEIGHT 1
POINTS 686
VIEWPOINT 0 0 0 1 0 0 0
DATA ascii
3.066929817199707 3.952962875366211 0.3072708249092102 2588302 5 -1
3.1988542079925537 3.803600311279297 0.6529505252838135 2588302 5 -1
2.992722749710083 4.014585018157959 0.23045311868190765 2523534 5 -1
2.9902565479278564 4.011276721954346 0.3072708249092102 2458766 5 -1
3.187560558319092 3.8678090572357178 0.07681770622730255 2458766 5 -1
3.0334975719451904 3.9888598918914795 0.11522655934095383 2070922 5 -1
3.034210443496704 3.9897971153259277 -0.038408853113651276 3257723 5 -1
3.0718963146209717 3.959364175796509 0.11522655934095383 3651704 5 -1
3.2148611545562744 3.7455267906188965 -1.0437730550765991 4456788 5 -1
3.212696075439453 3.820058822631836 -0.7345069646835327 4456788 5 -1
3.196467399597168 3.800762176513672 -0.8891400098800659 4523353 5 -1
3.216259241104126 3.82429575920105 -0.6958487033843994 4590430 5 -1
3.222797393798828 3.8320698738098145 -0.6185321807861328 4657508 5 -1
3.2311432361602783 3.841993570327759 -0.5025573968887329 4724328 5 -1
3.205242872238159 3.8892650604248047 -0.2319495677947998 4729209 5 -1
3.241187334060669 3.8539364337921143 -0.3092660903930664 4536450 5 -1
3.2009968757629395 3.88411283493042 -0.3479243516921997 4017546 5 -1
3.169139862060547 3.923884391784668 0.1159747838973999 3107982 5 -1
3.222797393798828 3.8320698738098145 0.6185321807861328 2718350 5 -1
3.0496065616607666 4.010042190551758 -0.2706078290939331 2134668 5 -1
3.043135166168213 4.001532554626465 0.4252408742904663 2070922 5 -1
3.1280081272125244 3.9516489505767822 -0.2319495677947998 2994813 5 -1
3.285855770111084 3.828240156173706 -0.0386582612991333 2994813 5 -1
3.246912717819214 3.8607442378997803 -0.0773165225982666 3257723 5 -1
3.4019269943237305 3.725675582885742 0 5424489 5 -1
3.683197021484375 3.3919379711151123 0.6185321807861328 5424489 0 -1
3.275545120239258 3.816227436065674 -0.7003380656242371 4456788 5 -1
3.3318846225738525 3.8031325340270996 -0.4668920338153839 4456788 5 -1
3.275545120239258 3.816227436065674 -0.7003380656242371 4590430 5 -1
3.0828659534454346 3.9735028743743896 -0.7003380656242371 4657508 5 -1
3.3380937576293945 3.8102195262908936 -0.35016903281211853 4724328 5 -1
3.2292418479919434 3.9183855056762695 -0.038907669484615326 4729209 5 -1
3.267380714416504 3.8850817680358887 -0.11672300845384598 4536450 5 -1
3.1109490394592285 3.6990764141082764 -1.5563068389892578 4471684 0 -1
3.0919859409332275 3.985257625579834 -0.5836150646209717 3692940 5 -1
3.50169038772583 3.6771490573883057 0 3692940 5 -1
2.976036310195923 4.072574138641357 0.5836150646209717 3302798 5 -1
3.2178452014923096 3.9045567512512207 0.427984356880188 2718350 5 -1
3.1904289722442627 3.9502434730529785 0 2523534 5 -1
3.1870553493499756 3.9460666179656982 -0.23344601690769196 2134668 5 -1
2.8395094871520996 4.207947731018066 -0.11672300845384598 2070155 5 -1
2.9902565479278564 4.092033863067627 -0.3112613558769226 2070155 5 -1
3.0758464336395264 3.9644553661346436 0.7781534194946289 2070922 5 -1
3.1093223094940186 4.007602691650391 -0.23344601690769196 2666112 5 -1
3.2635395526885986 3.880514621734619 0.2723536789417267 2666112 5 -1
3.148188829421997 3.9771435260772705 -0.23344601690769196 2994813 5 -1
3.305598258972168 3.85124135017395 -0.1556306779384613 2994813 5 -1
3.3070547580718994 3.852938413619995 -0.038907669484615326 4899181 5 -1
3.0064468383789062 4.032995223999023 -0.9006127715110779 4724328 5 -1
3.519063949584961 3.6953933238983154 -0.27409955859184265 4724328 5 -1
3.1683695316314697 4.00263786315918 -0.2349424660205841 4471684 5 -1
2.851661443710327 4.225955963134766 0.35241371393203735 3757452 5 -1
3.0670523643493652 4.032982349395752 0.6656703352928162 3757452 5 -1
3.1766703128814697 3.9332082271575928 0.7439844608306885 2458766 5 -1
3.123356580734253 4.025691509246826 -0.3915707767009735 2134668 5 -1
3.2774901390075684 3.8971023559570312 0.43072786927223206 2666112 5 -1
3.444204092025757 3.7719757556915283 0.1566283106803894 2666112 5 -1
3.1302664279937744 4.034597396850586 -0.19578538835048676 2994813 5 -1
3.1302664279937744 4.034597396850586 -0.19578538835048676 2994813 5 -1
3.4840590953826904 3.736630439758301 0.11747123301029205 2994813 5 -1
3.060450792312622 4.024301528930664 -0.7439844608306885 3257723 5 -1
3.060450792312622 4.024301528930664 -0.7439844608306885 3257723 5 -1
3.4030635356903076 3.8051064014434814 0.2349424660205841 3257723 5 -1
3.1657586097717285 3.9993395805358887 -0.3132566213607788 3651704 5 -1
3.176222562789917 3.9326536655426025 -0.945755660533905 4664956 5 -1
3.30975604057312 3.9354681968688965 0.07881297171115875 3562893 5 -1
-3.000793218612671 3.8677194118499756 1.5762594938278198 3432845 0 -1
2.9723005294799805 4.149277210235596 -0.63050377368927 3432845 5 -1
3.3840794563293457 3.8627092838287354 -0.27584540843963623 3432845 5 -1
3.0941367149353027 3.988029718399048 0.9851621389389038 2588302 5 -1
3.141965389251709 3.9692811965942383 0.9063491821289062 2523534 5 -1
3.1807548999786377 3.938265800476074 0.9063491821289062 2458766 5 -1
3.4893088340759277 3.821373224258423 0.0793117880821228 3562893 5 -1
-3.3348376750946045 3.8853073120117188 -0.753462016582489 3432845 0 -1
3.118366003036499 4.019258975982666 0.9517414569854736 2977934 5 -1
3.118366003036499 4.019258975982666 0.9517414569854736 2718350 5 -1
3.1311309337615967 4.035711288452148 0.8327738046646118 2588302 5 -1
3.1088767051696777 4.007028102874756 1.0310533046722412 2523534 5 -1
3.1426336765289307 3.970125436782837 1.0707091093063354 2458766 5 -1
3.1978909969329834 4.039932727813721 0.7582007646560669 3302798 5 -1
3.181736946105957 4.019525051116943 0.9178219437599182 2977934 5 -1
3.2409615516662598 4.012810707092285 0.7182954549789429 2718350 5 -1
3.1619138717651367 4.075387477874756 0.7182954549789429 2523534 5 -1
3.3595333099365234 3.914079427719116 0.7182954549789429 2523534 5 -1
3.190208911895752 4.0302276611328125 0.8380113840103149 2458766 5 -1
3.351883888244629 3.9051673412323 0.7981060743331909 2458766 5 -1
3.074064016342163 4.12369966506958 1.003867745399475 3107982 5 -1
3.2678472995758057 4.0460991859436035 0.6424753665924072 3107982 5 -1
3.214111566543579 4.060424327850342 0.803094208240509 2977934 5 -1
3.1781508922576904 4.096315383911133 0.7629395127296448 2912910 5 -1
3.2934725284576416 3.996323347091675 0.803094208240509 2523534 5 -1
3.372833251953125 3.929574489593506 0.803094208240509 2458766 5 -1
3.359727621078491 3.9143059253692627 0.9235583543777466 2328718 5 -1
3.0931575298309326 4.149312973022461 1.0101029872894287 3302798 5 -1
3.167846441268921 4.165520191192627 0.6464658975601196 3107982 5 -1
3.2109084129333496 4.13853645324707 0.6060617566108704 2977934 5 -1
3.2778382301330566 4.058469772338867 0.7676782608032227 2718350 5 -1
3.3055496215820312 4.010977745056152 0.8888906240463257 2523534 5 -1
3.3453755378723145 3.9778215885162354 0.8888906240463257 2458766 5 -1
3.3805956840515137 3.9386184215545654 0.929294764995575 2328718 5 -1
-4.530549049377441 2.709958076477051 -0.5284958481788635 4456788 0 -1
3.2211997509002686 4.151801109313965 0.731763482093811 3107982 5 -1
3.238504648208618 4.174105167388916 0.487842321395874 2977934 5 -1
3.29807186126709 4.083521842956543 0.7724170088768005 2718350 5 -1
3.3214290142059326 4.030246257781982 0.9350311160087585 2523534 5 -1
3.1472487449645996 4.1384358406066895 1.056991696357727 2458766 5 -1
3.3487884998321533 4.063444137573242 0.650456428527832 2458766 5 -1
3.51926589012146 3.935037136077881 0.5284958481788635 2458766 5 -1
-4.537346363067627 2.7140235900878906 -0.7362528443336487 4456788 0 -1
3.1480462551116943 4.307962417602539 0.1636117398738861 3238030 5 -1
3.2911810874938965 4.157787322998047 0.6135440468788147 2977934 5 -1
3.354841470718384 4.070788860321045 0.8180587291717529 2718350 5 -1
3.416019916534424 4.061821460723877 0.5726410746574402 2588302 5 -1
-4.533451080322266 2.8032748699188232 -0.6584374904632568 4456788 0 -1
-4.582083702087402 2.8333468437194824 0.41401752829551697 4456788 0 -1
-4.614584445953369 2.8534436225891113 0.3332092761993408 4456788 0 -1
-4.646045207977295 2.8728976249694824 0.25140342116355896 4456788 0 -1
-4.67191219329834 2.888892650604248 0.29504984617233276 4456788 0 -1
-4.692495346069336 2.9016201496124268 0.423993855714798 4456788 0 -1
-4.642026424407959 3.0565378665924072 0.2985415458679199 4456788 0 -1
-4.5791335105896 3.654909372329712 0 4456788 0 -1
-4.325565814971924 3.9835097789764404 -0.36114299297332764 4456788 0 -1
-4.400982856750488 3.9613466262817383 -0.18156912922859192 4456788 0 -1
-4.426074028015137 3.983931303024292 -0.13692507147789001 4456788 0 -1
-4.432579040527344 3.989786386489868 -0.550693154335022 4456788 0 -1
-4.44672966003418 4.002523422241211 -0.275346577167511 4456788 0 -1
-4.542018413543701 3.9013500213623047 -0.1376732885837555 4456788 0 -1
-4.443065166473389 3.99922513961792 -0.36712878942489624 4523353 0 -1
-4.516988277435303 3.9724719524383545 -0.27684304118156433 4456788 0 -1
-4.520574569702148 3.975625991821289 -0.13842152059078217 4456788 0 -1
-4.5084757804870605 3.9649856090545654 -0.46140506863594055 4456788 0 -1
-4.516988277435303 3.9724719524383545 -0.27684304118156433 4456788 0 -1
-4.5657639503479 3.921746253967285 -0.18456202745437622 4456788 0 -1
-4.516988277435303 3.9724719524383545 -0.27684304118156433 4523353 0 -1
-4.518449783325195 3.973757266998291 -0.23070253431797028 4590430 0 -1
-4.5196452140808105 3.97480845451355 -0.18456202745437622 4657508 0 -1
-4.592466831207275 3.9446825981140137 -0.04638991504907608 4456788 0 -1
-4.546078205108643 3.9980549812316895 -0.04638991504907608 4456788 0 -1
-4.532845973968506 3.9864180088043213 -0.4638991355895996 4456788 0 -1
-2.209918260574341 5.587375640869141 -0.7422386407852173 4456788 4 -1
-4.539667129516602 3.992417097091675 -0.32472941279411316 4456788 0 -1
-4.589229583740234 3.9419021606445312 -0.2319495677947998 4456788 0 -1
-4.542873859405518 3.995237112045288 -0.2319495677947998 4523353 0 -1
-4.356040954589844 4.195337295532227 -0.2783394753932953 4523353 0 -1
-4.591387748718262 3.943755865097046 -0.13916973769664764 4590430 0 -1
-4.350270748138428 4.189779758453369 -0.4175092279911041 4590430 0 -1
-4.592466831207275 3.9446825981140137 -0.04638991504907608 4657508 0 -1
-4.591387748718262 3.943755865097046 0.13916973769664764 4724328 0 -1
-4.539667129516602 3.992417097091675 -0.32472941279411316 4729209 0 -1
-4.6639323234558105 3.9110536575317383 0 4456788 0 -1
-4.428654193878174 4.171429634094238 -0.18655729293823242 4456788 0 -1
-4.6639323234558105 3.9110536575317383 0 4456788 0 -1
-4.429564952850342 4.172287464141846 -0.13991796970367432 4456788 0 -1
-4.6572184562683105 3.905423641204834 -0.32647526264190674 4456788 0 -1
-4.427482604980469 4.170326232910156 -0.23319661617279053 4456788 0 -1
-2.2196133136749268 5.611887454986572 -0.7928684949874878 4456788 4 -1
-4.660508155822754 3.908182144165039 -0.23319661617279053 4456788 0 -1
-4.422403335571289 4.165542125701904 -0.37311458587646484 4456788 0 -1
-4.6106462478637695 3.9602978229522705 -0.32647526264190674 4456788 0 -1
-4.663384437561035 3.9105944633483887 -0.09327864646911621 4523353 0 -1
-4.427482604980469 4.170326232910156 -0.23319661617279053 4523353 0 -1
-4.661741256713867 3.9092161655426025 -0.18655729293823242 4590430 0 -1
-4.420187473297119 4.163454532623291 -0.41975390911102295 4590430 0 -1
-4.663795471191406 3.9109387397766113 -0.046639323234558105 4657508 0 -1
-4.663795471191406 3.9109387397766113 0.046639323234558105 4724328 0 -1
-4.428654193878174 4.171429634094238 -0.18655729293823242 4724328 0 -1
-2.2500643730163574 5.688877582550049 -0.1406661868095398 4456788 4 -1
-2.2496016025543213 5.687707901000977 -0.18755492568016052 4456788 4 -1
-4.406375885009766 4.2438154220581055 -0.1406661868095398 4456788 0 -1
-3.947422504425049 4.323083400726318 -1.7817717790603638 4456788 0 -1
-3.4203643798828125 5.068732738494873 -0.23444364964962006 4456788 0 -1
-2.5639986991882324 5.517327308654785 -0.6564422249794006 4456788 4 -1
-1.1719084978103638 6.004394054412842 -0.1406661868095398 4456788 0 -1
-4.4511590003967285 4.192627429962158 0.23444364964962006 4456788 0 -1
-2.226679563522339 5.629753589630127 -0.8908858895301819 4456788 4 -1
-4.6353020668029785 3.981475830078125 -0.3282211124897003 4456788 0 -1
-4.45233678817749 4.193736553192139 -0.18755492568016052 4456788 0 -1
-2.229149103164673 5.635997772216797 -0.8439971804618835 4456788 4 -1
-4.639803409576416 3.985342264175415 -0.18755492568016052 4456788 0 -1
-4.4511590003967285 4.192627429962158 -0.23444364964962006 4456788 0 -1
-4.686670303344727 3.9301211833953857 -0.18755492568016052 4523353 0 -1
-4.45233678817749 4.193736553192139 -0.18755492568016052 4523353 0 -1
-4.638576507568359 3.984288215637207 -0.23444364964962006 4590430 0 -1
-3.8907363414764404 4.721047401428223 -0.1406661868095398 4664956 0 -1
-4.43227481842041 4.174839973449707 -0.6095535159111023 4600703 0 -1
-2.2113261222839355 5.72827672958374 -0.37710511684417725 4456788 4 -1
-2.3551764488220215 5.678285121917725 -0.23569069802761078 4456788 4 -1
-2.024796724319458 5.802200794219971 0.28282883763313293 4456788 4 -1
-2.741349458694458 5.408778190612793 -1.037039041519165 4456788 0 -1
-2.0221145153045654 5.794514179229736 0.4242432415485382 4456788 4 -1
-3.773087501525879 4.766585350036621 -0.9427627921104431 4456788 0 -1
-2.0725553035736084 5.7874250411987305 0.23569069802761078 4456788 4 -1
-2.4500315189361572 5.639780044555664 -0.18855255842208862 4456788 4 -1
-2.8041903972625732 5.416611671447754 -0.8013483881950378 4456788 0 -1
-2.584975481033325 5.562466144561768 -0.47138139605522156 4456788 4 -1
-2.214451551437378 5.736373424530029 0.18855255842208862 4456788 4 -1
-2.541795253753662 5.592470169067383 -0.3299669623374939 4456788 4 -1
-2.262564182281494 5.7204813957214355 0.047138139605522156 4456788 4 -1
-1.083890676498413 6.053966522216797 0.14141441881656647 4456788 0 -1
-2.540672540664673 5.590000152587891 -0.37710511684417725 4456788 4 -1
-2.262564182281494 5.7204813957214355 0.047138139605522156 4456788 4 -1
-2.4956796169281006 5.615774154663086 -0.28282883763313293 4456788 4 -1
-2.2626307010650635 5.720649242401123 0 4456788 4 -1
-4.711599349975586 3.95102596282959 -0.18855255842208862 4456788 0 -1
-4.521938800811768 4.164353847503662 -0.23569069802761078 4456788 0 -1
-3.9124655723571777 4.7474141120910645 0 4664956 0 -1
-4.444341659545898 4.186205863952637 -0.7542102336883545 4600703 0 -1
-3.909593105316162 4.7439284324646 -0.23569069802761078 4600703 0 -1
-3.3918392658233643 5.02646017074585 -1.037039041519165 3257723 0 -1
-1.9792786836624146 5.8230390548706055 -0.14141441881656647 3651704 4 -1
-1.6951786279678345 5.906919956207275 0.28282883763313293 3651704 0 -1
-1.8383334875106812 5.8705735206604 0.047138139605522156 4045940 4 -1
-5.069352149963379 3.4390439987182617 0.5656576752662659 5424489 0 -1
-3.016486644744873 5.360713481903076 -0.09427627921104431 5424489 0 -1
-3.016486644744873 5.360713481903076 -0.09427627921104431 5424489 0 -1
-2.1652331352233887 5.748757362365723 -0.3299669623374939 5424489 4 -1
-1.54896879196167 5.926723480224609 0.5656576752662659 5424489 0 -1
-3.4117650985717773 5.0559892654418945 -0.8013483881950378 6343264 0 -1
-2.9224789142608643 5.413152694702148 -0.047138139605522156 6343264 0 -1
-1.8853040933609009 5.855088710784912 0.09427627921104431 6343264 4 -1
4.711708068847656 3.760725975036621 -1.2255916595458984 6343264 0 -1
5.518743515014648 1.8111634254455566 -2.026939868927002 6343264 0 -1
-3.54826021194458 4.953306674957275 -0.8484864830970764 6933851 0 -1
-2.0259876251220703 5.8056135177612305 -0.18855255842208862 6933851 4 -1
-2.2743351459503174 5.750241756439209 0.09477509558200836 4456788 4 -1
-2.2679150104522705 5.734009742736816 -0.4738754630088806 4456788 4 -1
-2.455383777618408 5.652100563049316 -0.5212630033493042 4456788 4 -1
-1.9888157844543457 5.851097106933594 0.2369377315044403 4456788 4 -1
-2.5041561126708984 5.634847640991211 -0.4738754630088806 4456788 4 -1
-2.5009002685546875 5.627521514892578 -0.5686505436897278 4456788 4 -1
-2.2192893028259277 5.748904705047607 0.5212630033493042 4456788 4 -1
-2.32089900970459 5.729255199432373 -0.18955019116401672 4456788 4 -1
-2.5079245567321777 5.643327713012695 -0.33171284198760986 4456788 4 -1
-2.034731388092041 5.830668926239014 0.33171284198760986 4456788 4 -1
-2.5088844299316406 5.645486831665039 -0.2843252718448639 4456788 4 -1
-2.4990487098693848 5.623354911804199 -0.6160380840301514 4456788 4 -1
-2.221912384033203 5.755699634552002 0.42648792266845703 4456788 4 -1
-2.2269532680511475 5.768757343292236 0.09477509558200836 4456788 4 -1
-2.497047185897827 5.618851184844971 -0.6634256839752197 4456788 4 -1
-2.4081649780273438 5.672379493713379 -0.5212630033493042 4456788 4 -1
-2.353675127029419 5.6746649742126465 -0.7108132243156433 4456788 4 -1
-3.8784713745117188 4.8021464347839355 -0.37910038232803345 4664956 0 -1
-3.8955764770507812 4.7269206047058105 0.8529758453369141 4600703 0 -1
-3.0787434577941895 5.3602495193481445 -0.18955019116401672 2070922 0 -1
-1.8478972911834717 5.9011149406433105 0.09477509558200836 2070922 4 -1
-1.5099775791168213 5.970215320587158 0.5686505436897278 2070922 0 -1
-2.128429412841797 5.794215679168701 -0.37910038232803345 2006409 4 -1
-1.7057512998580933 5.943760871887207 0.09477509558200836 2006409 0 -1
-3.1242709159851074 5.329629898071289 -0.2843252718448639 4045940 0 -1
-2.1273629665374756 5.7913126945495605 -0.42648792266845703 4045940 4 -1
-1.8478972911834717 5.9011149406433105 0.09477509558200836 4045940 4 -1
-2.8885180950164795 5.463258266448975 0.2369377315044403 5424489 0 -1
-1.99004328250885 5.854708671569824 0.09477509558200836 5424489 4 -1
-1.6526622772216797 5.9366536140441895 0.5212630033493042 5424489 0 -1
-1.942832350730896 5.87111759185791 0.04738754779100418 6343264 4 -1
-1.3127144575119019 5.976034641265869 0.9003633856773376 6343264 0 -1
-1.122480869293213 5.999716758728027 0.9951384663581848 6343264 0 -1
-0.47030070424079895 6.119707107543945 0.7582007646560669 6343264 0 -1
-2.2260169982910156 5.766332626342773 -0.6669173836708069 4456788 4 -1
-2.2859697341918945 5.77965784072876 -0.14291086792945862 4456788 4 -1
-2.4269158840179443 5.716547012329102 -0.28582173585891724 4456788 4 -1
-2.282273769378662 5.770313262939453 -0.38109564781188965 4456788 4 -1
-2.284156084060669 5.77507209777832 -0.28582173585891724 4456788 4 -1
-2.284156084060669 5.77507209777832 -0.28582173585891724 4456788 4 -1
-2.2859697341918945 5.77965784072876 0.14291086792945862 4456788 4 -1
-2.2863054275512695 5.780506610870361 -0.09527391195297241 4456788 4 -1
-2.2768871784210205 5.756694316864014 0.5716434717178345 4456788 4 -1
-2.284156084060669 5.77507209777832 -0.28582173585891724 4456788 4 -1
-2.4759578704833984 5.699460506439209 -0.19054782390594482 4456788 4 -1
-2.0423669815063477 5.852549076080322 0.47636955976486206 4456788 4 -1
-2.462827444076538 5.6692352294921875 -0.6669173836708069 4456788 4 -1
-2.2670915126800537 5.731927871704102 -0.8098282217979431 4456788 4 -1
-2.262211799621582 5.719590187072754 -0.9051021337509155 4456788 4 -1
-2.219860553741455 5.750384330749512 -0.8098282217979431 4456788 4 -1
-3.8575737476348877 4.873317718505859 0.14291086792945862 4664956 0 -1
-3.320460557937622 5.224776268005371 -0.5716434717178345 2070922 0 -1
-3.0484070777893066 5.417440414428711 -0.09527391195297241 2070922 0 -1
-1.8093538284301758 5.944783687591553 0.19054782390594482 2070922 4 -1
-2.1373608112335205 5.8185296058654785 -0.47636955976486206 4045940 4 -1
-3.2358877658843994 5.300741672515869 -0.28582173585891724 4899181 0 -1
-2.1420891284942627 5.831401824951172 -0.23818477988243103 4899181 4 -1
-2.0585694313049316 5.898979187011719 0.1436590850353241 4456788 4 -1
-2.2984778881073 5.811282634735107 -0.04788636416196823 4456788 4 -1
-2.2974655628204346 5.808722972869873 -0.19154545664787292 4456788 4 -1
-2.296114921569824 5.8053083419799805 -0.2873181700706482 4456788 4 -1
-2.2968578338623047 5.807186603546143 -0.23943181335926056 4456788 4 -1
-2.2968578338623047 5.807186603546143 -0.23943181335926056 4456788 4 -1
-2.297938108444214 5.809917449951172 -0.1436590850353241 4456788 4 -1
-2.296114921569824 5.8053083419799805 -0.2873181700706482 4456788 4 -1
-2.2888081073760986 5.786834239959717 -0.5746363401412964 4456788 4 -1
-2.295236587524414 5.8030877113342285 -0.335204541683197 4456788 4 -1
-2.2871134281158447 5.7825493812561035 -0.6225227117538452 4456788 4 -1
-2.294222831726074 5.8005242347717285 -0.38309091329574585 4456788 4 -1
-2.2336807250976562 5.786184787750244 -0.7661818265914917 4456788 4 -1
-4.0684285163879395 4.739989280700684 -0.19154545664787292 4664956 0 -1
-3.8298966884613037 4.936350345611572 -0.1436590850353241 4664956 0 -1
-2.9658150672912598 5.493422508239746 0.2873181700706482 2199437 0 -1
-2.7137720584869385 5.589480400085449 0.670409083366394 2199437 0 -1
-2.3439507484436035 5.786159515380859 -0.2873181700706482 2199437 4 -1
-2.1060101985931396 5.880844593048096 -0.19154545664787292 2199437 4 -1
-1.8170623779296875 5.970110893249512 0.335204541683197 2199437 4 -1
-1.9153982400894165 5.948550701141357 0.04788636416196823 2134668 4 -1
-2.920725107192993 5.524173259735107 0.09577272832393646 2070155 0 -1
-1.7709630727767944 5.990267276763916 0.19154545664787292 2070155 4 -1
-3.0643672943115234 5.445804119110107 -0.09577272832393646 2070922 0 -1
-1.8188269138336182 5.975908279418945 0.19154545664787292 2070922 4 -1
-2.2888081073760986 5.786834239959717 -0.5746363401412964 3651704 4 -1
-3.016752243041992 5.472952842712402 -0.04788636416196823 4045940 0 -1
-3.2485203742980957 5.321435451507568 -0.4309772551059723 4899181 0 -1
-2.968867301940918 5.499075889587402 0.04788636416196823 4899181 0 -1
-2.1054530143737793 5.879289150238037 -0.23943181335926056 4899181 4 -1
-1.7220861911773682 6.000680446624756 0.2873181700706482 4899181 0 -1
-2.677739143371582 5.636716365814209 -0.722036600112915 4456788 4 -1
-2.3088207244873047 5.837432384490967 -0.24067886173725128 4456788 4 -1
-2.358583450317383 5.822281360626221 0.048135772347450256 4456788 4 -1
-2.309906482696533 5.840177536010742 -0.14440731704235077 4456788 4 -1
-2.262314796447754 5.860359191894531 -0.048135772347450256 4456788 4 -1
-2.3102457523345947 5.84103536605835 -0.09627154469490051 4456788 4 -1
-2.3102457523345947 5.84103536605835 -0.09627154469490051 4456788 4 -1
-2.3088207244873047 5.837432384490967 -0.24067886173725128 4456788 4 -1
-2.3088207244873047 5.837432384490967 -0.24067886173725128 4456788 4 -1
-2.3088207244873047 5.837432384490967 -0.24067886173725128 4456788 4 -1
-2.3071911334991455 5.833312034606934 -0.3369503915309906 4456788 4 -1
-2.3088207244873047 5.837432384490967 -0.24067886173725128 4456788 4 -1
-2.3061718940734863 5.830735683441162 -0.38508617877960205 4456788 4 -1
-2.3037242889404297 5.824546813964844 -0.48135772347450256 4456788 4 -1
-2.302295207977295 5.820933818817139 -0.529493510723114 4456788 4 -1
-2.3071911334991455 5.833312034606934 -0.3369503915309906 4456788 4 -1
-2.302295207977295 5.820933818817139 -0.529493510723114 4456788 4 -1
-2.3080739974975586 5.835544109344482 -0.28881463408470154 4456788 4 -1
-2.2930872440338135 5.7976531982421875 -0.7701723575592041 4456788 4 -1
-2.3891830444335938 5.627668380737305 -1.44407320022583 4505456 0 -1
-2.2119040489196777 5.872670650482178 -0.28881463408470154 9360965 4 -1
-1.874592661857605 5.986364841461182 0.3369503915309906 9360965 4 -1
-2.584332227706909 5.686060428619385 0.6739007830619812 12640037 4 -1
-2.2613184452056885 5.857778072357178 -0.19254308938980103 12640037 4 -1
-2.3708043098449707 5.8524489402771 -0.04838518053293228 4456788 4 -1
-2.3218748569488525 5.8704376220703125 0.14515553414821625 4456788 4 -1
-2.3705954551696777 5.851933479309082 -0.09677036106586456 4456788 4 -1
-2.177269220352173 5.9271721839904785 0.04838518053293228 4456788 4 -1
-2.322420358657837 5.871816635131836 0.04838518053293228 4456788 4 -1
-2.273836374282837 5.890204906463623 0.09677036106586456 4456788 4 -1
-2.2740366458892822 5.890723705291748 0.04838518053293228 4456788 4 -1
-2.1148390769958496 5.905498504638672 0.7257776856422424 4456788 4 -1
-2.319145441055298 5.863536357879639 -0.33869627118110657 4456788 4 -1
-2.3207833766937256 5.867678165435791 -0.2419258952140808 4456788 4 -1
-2.3156604766845703 5.8547258377075195 -0.4838517904281616 4456788 4 -1
-2.2686893939971924 5.8768720626831055 -0.43546661734580994 4456788 4 -1
-2.2609806060791016 5.856903553009033 -0.6773925423622131 4456788 4 -1
-2.4588632583618164 5.791798114776611 -0.5322369933128357 4456788 4 -1
-2.2627930641174316 5.861598014831543 -0.6290073394775391 4456788 4 -1
-2.409010171890259 5.808076858520508 -0.580622136592865 2666112 4 -1
-2.210968017578125 5.870185375213623 -0.7257776856422424 2994813 4 -1
-2.414257049560547 5.686729431152344 1.3063998222351074 9360965 0 -1
-2.188556432723999 5.957899570465088 0 4456788 4 -1
-2.285557270050049 5.920567035675049 0.09726917743682861 4456788 4 -1
-2.235548496246338 5.9354472160339355 0.24317294359207153 4456788 4 -1
-2.2847516536712646 5.918480396270752 0.19453835487365723 4456788 4 -1
-2.2857584953308105 5.921088218688965 -0.04863458871841431 4456788 4 -1
-2.33418607711792 5.901564121246338 -0.09726917743682861 4456788 4 -1
-2.089751958847046 5.9883341789245605 0.24317294359207153 4456788 4 -1
-2.0910415649414062 5.992030620574951 -0.09726917743682861 4456788 4 -1
-2.150327444076538 6.004596710205078 -0.1466519832611084 4456788 4 -1
-2.150327444076538 6.004596710205078 -0.1466519832611084 4456788 4 -1
-2.2485978603363037 5.970093250274658 -0.04888399690389633 4456788 4 -1
-2.1956429481506348 5.977190971374512 0.39107197523117065 4456788 4 -1
-2.084102153778076 5.972144603729248 0.8310279250144958 4456788 4 -1
-2.296468496322632 5.948831558227539 0.19553598761558533 4456788 4 -1
-2.0531277656555176 6.0403032302856445 0 4456788 4 -1
-2.0531277656555176 6.0403032302856445 0 4456788 4 -1
-2.053067445755005 6.040125846862793 -0.04888399690389633 4456788 4 -1
-2.101950168609619 6.023289203643799 -0.04888399690389633 4456788 4 -1
-2.053067445755005 6.040125846862793 -0.04888399690389633 4724328 4 -1
-2.052886724472046 6.0395941734313965 -0.09776799380779266 4536450 4 -1
-2.052886724472046 6.0395941734313965 -0.09776799380779266 4471684 4 -1
-2.052886724472046 6.0395941734313965 -0.09776799380779266 4341894 4 -1
-2.053067445755005 6.040125846862793 -0.04888399690389633 4212104 4 -1
-2.4257614612579346 5.848464012145996 -0.7821439504623413 5949540 4 -1
-2.224705696105957 5.906659126281738 0.9287959337234497 10016830 4 -1
-2.412349224090576 5.816127300262451 1.0265638828277588 10672695 4 -1
-2.1616158485412598 6.036118984222412 -0.09826681017875671 4456788 4 -1
-2.3893749713897705 5.898292064666748 0.7861344814300537 4456788 4 -1
-2.2107434272766113 6.018299102783203 -0.09826681017875671 4456788 4 -1
-2.260136604309082 6.000729084014893 0 4456788 4 -1
-2.2109382152557373 6.018829345703125 0.04913340508937836 4456788 4 -1
-2.2099645137786865 6.016178131103516 0.19653362035751343 4456788 4 -1
-2.2093799114227295 6.014586925506592 0.24566702544689178 4456788 4 -1
-2.2505619525909424 5.975308418273926 0.5896008610725403 4456788 4 -1
-2.2451584339141846 5.96096134185791 0.7370010614395142 4456788 4 -1
-2.407466173171997 5.94295072555542 -0.04913340508937836 4456788 4 -1
-2.407466173171997 5.94295072555542 -0.04913340508937836 4456788 4 -1
-2.0155487060546875 5.929745674133301 1.3757352828979492 4456788 0 -1
-2.259871244430542 6.000024795532227 0.09826681017875671 4456788 4 -1
-2.1105024814605713 6.047796249389648 0.29480043053627014 4456788 4 -1
-2.0630576610565186 6.069517135620117 0.14740021526813507 4456788 4 -1
-2.063542366027832 6.0709428787231445 0.04913340508937836 4456788 4 -1
-2.0633606910705566 6.070408344268799 0.09826681017875671 4456788 4 -1
-2.063542366027832 6.0709428787231445 0.04913340508937836 4456788 4 -1
-2.063542366027832 6.0709428787231445 0.04913340508937836 4456788 4 -1
-2.063542366027832 6.0709428787231445 -0.04913340508937836 4536450 4 -1
-2.243086814880371 5.955461502075195 0.7861344814300537 10016830 4 -1
-2.4304957389831543 5.859878063201904 0.9335346817970276 10672695 4 -1
-2.4179811477661133 5.968907833099365 0.2469140589237213 4456788 4 -1
-2.221639394760132 6.0479607582092285 0.14814843237400055 4456788 4 -1
-2.222161293029785 6.049381732940674 0.04938281327486038 4456788 4 -1
-2.2662012577056885 6.016831398010254 0.44444531202316284 4456788 4 -1
-2.2219655513763428 6.048849105834961 0.09876562654972076 4456788 4 -1
-2.222161293029785 6.049381732940674 0.04938281327486038 4456788 4 -1
-2.1697158813476562 6.058737277984619 0.3456796705722809 4456788 4 -1
-2.2603113651275635 6.001193046569824 0.641976535320282 4456788 4 -1
-2.2474067211151123 5.966930866241455 0.9382734298706055 4456788 4 -1
-2.0725553035736084 6.097459316253662 0.2469140589237213 4456788 4 -1
-2.121215581893921 6.078495979309082 0.2962968647480011 4456788 4 -1
-2.0735299587249756 6.1003265380859375 0.14814843237400055 4456788 4 -1
-2.073103666305542 6.099072456359863 0.19753125309944153 4456788 4 -1
-2.0738346576690674 6.101222515106201 0.09876562654972076 4456788 4 -1
-2.4284780025482178 5.994819641113281 0.34742555022239685 4456788 4 -1
-2.231088399887085 6.073683738708496 0.29779332876205444 4456788 4 -1
-2.280668020248413 6.055241107940674 0.29779332876205444 4456788 4 -1
-2.3302478790283203 6.03633451461792 0.29779332876205444 4456788 4 -1
-2.3302478790283203 6.03633451461792 0.29779332876205444 4456788 4 -1
-2.179710865020752 6.0866475105285645 0.39705777168273926 4456788 4 -1
-2.131113290786743 6.106858730316162 0.34742555022239685 4456788 4 -1
-2.319253444671631 6.007854461669922 0.6948511004447937 4456788 4 -1
-2.2587571144104004 5.997066974639893 0.9430121779441833 4456788 4 -1
-2.13017201423645 6.104161262512207 0.39705777168273926 4456788 4 -1
-2.081552505493164 6.123929023742676 0.34742555022239685 4456788 4 -1
-2.133934736251831 6.114943981170654 0.09926444292068481 4456788 4 -1
-2.0806331634521484 6.1212239265441895 0.39705777168273926 4456788 4 -1
-2.034682035446167 6.148681640625 0.09926444292068481 4456788 4 -1
-2.034682035446167 6.148681640625 0.09926444292068481 4456788 4 -1
-2.0349209308624268 6.1494035720825195 0 4456788 4 -1
-1.983189582824707 6.15908670425415 -0.29779332876205444 3107982 4 -1
-2.1729562282562256 6.067785739898682 -0.6452188491821289 2458766 4 -1
-2.1693451404571533 6.05770206451416 -0.7444832921028137 2328718 4 -1
-1.737076759338379 6.239885330200195 0.04963222146034241 2328718 4 -1
-2.437013864517212 6.015891075134277 0.49881628155708313 4456788 4 -1
-2.4383809566497803 6.019265174865723 0.4489346444606781 4456788 4 -1
-2.2393293380737305 6.096118450164795 0.4489346444606781 4456788 4 -1
-2.2831428050994873 6.061811447143555 0.6484611630439758 4456788 4 -1
-2.134242057800293 6.115824222564697 0.6484611630439758 4456788 4 -1
-2.183875560760498 6.0982770919799805 0.6484611630439758 4456788 4 -1
-2.138604164123535 6.128324031829834 0.49881628155708313 4456788 4 -1
-2.0910885334014893 6.151983737945557 0.39905303716659546 4456788 4 -1
-2.0910885334014893 6.151983737945557 0.39905303716659546 4456788 4 -1
-2.0449066162109375 6.179579257965088 0.09976325929164886 4456788 4 -1
-2.0449066162109375 6.179579257965088 0.09976325929164886 4456788 4 -1
-2.0449066162109375 6.179579257965088 0.09976325929164886 4456788 4 -1
-2.0446064472198486 6.1786723136901855 0.1496448814868927 4456788 4 -1
-2.0449066162109375 6.179579257965088 0.09976325929164886 4456788 4 -1
-2.2831428050994873 6.061811447143555 -0.6484611630439758 2328718 4 -1
-2.4491989612579346 6.045970439910889 0.5013103485107422 4456788 4 -1
-2.446014642715454 6.03810977935791 0.6015724539756775 4456788 4 -1
-2.4491989612579346 6.045970439910889 0.5013103485107422 4456788 4 -1
-2.3992154598236084 6.06597900390625 0.5013103485107422 4456788 4 -1
-2.1964213848114014 6.133309841156006 0.6015724539756775 4456788 4 -1
-2.152531623840332 6.168233871459961 0.350917249917984 4456788 4 -1
-2.152531623840332 6.168233871459961 0.350917249917984 4456788 4 -1
-2.10154390335083 6.182743549346924 0.40104830265045166 4456788 4 -1
-2.1449131965637207 6.1464033126831055 0.6517034769058228 4456788 4 -1
-2.147963762283325 6.155145168304443 0.5514414310455322 4456788 4 -1
-2.1004910469055176 6.179645538330078 0.4511793255805969 4456788 4 -1
-2.10154390335083 6.182743549346924 0.40104830265045166 4456788 4 -1
-2.099313497543335 6.176181316375732 0.5013103485107422 4456788 4 -1
-2.0515072345733643 6.199526309967041 0.40104830265045166 4456788 4 -1
-2.053863525390625 6.20664644241333 0.2506551742553711 4456788 4 -1
-2.0524137020111084 6.202265739440918 0.350917249917984 4456788 4 -1
-2.055131196975708 6.210477352142334 0.10026207566261292 4456788 4 -1
-2.055131196975708 6.210477352142334 0.10026207566261292 4456788 4 -1
-2.0544068813323975 6.208288669586182 0.20052415132522583 4456788 4 -1
-2.055131196975708 6.210477352142334 0.10026207566261292 4456788 4 -1
-2.0965840816497803 6.168151378631592 -0.6015724539756775 2588302 4 -1
-2.458184003829956 6.068150043487549 0.6045653223991394 4456788 4 -1
-2.4613840579986572 6.0760498046875 0.5038044452667236 4456788 4 -1
-2.459857225418091 6.0722808837890625 0.5541849136352539 4456788 4 -1
-2.412504196166992 6.0995774269104 0.45342400670051575 4456788 4 -1
-2.162285089492798 6.196183681488037 0.40304356813430786 4456788 4 -1
-2.162285089492798 6.196183681488037 0.40304356813430786 4456788 4 -1
-2.162285089492798 6.196183681488037 0.40304356813430786 4456788 4 -1
-2.205714464187622 6.159259796142578 0.6549457907676697 4456788 4 -1
-2.1520023345947266 6.166717529296875 0.7557066679000854 4456788 4 -1
-2.109757661819458 6.206908702850342 0.5038044452667236 4456788 4 -1
-2.110941171646118 6.210390090942383 0.45342400670051575 4456788 4 -1
-2.0634140968322754 6.235507965087891 0.3022826611995697 4456788 4 -1
-2.0646278858184814 6.239175796508789 0.20152178406715393 4456788 4 -1
-2.470353126525879 6.0981903076171875 0.6075582504272461 4456788 4 -1
-2.4720346927642822 6.102341651916504 0.5569283962249756 4456788 4 -1
-2.47356915473938 6.106129169464111 0.5062985420227051 4456788 4 -1
-2.4230880737304688 6.126337051391602 0.5062985420227051 4456788 4 -1
-2.474956512451172 6.109554290771484 0.45566868782043457 4456788 4 -1
-2.162655830383301 6.197246074676514 0.7594478130340576 4456788 4 -1
-2.4015262126922607 6.071821689605713 1.0125970840454102 4456788 4 -1
-2.1562769412994385 6.178966999053955 0.9113373756408691 4456788 4 -1
-2.0736289024353027 6.266376972198486 0.30377912521362305 4456788 4 -1
-2.0743000507354736 6.268404483795166 0.25314927101135254 4456788 4 -1
-2.0736289024353027 6.266376972198486 0.30377912521362305 4456788 4 -1
-2.072835922241211 6.263979911804199 0.35440897941589355 4456788 4 -1
-2.072835922241211 6.263979911804199 0.35440897941589355 4456788 4 -1
-2.0736289024353027 6.266376972198486 0.30377912521362305 4456788 4 -1
-2.0743000507354736 6.268404483795166 0.25314927101135254 4456788 4 -1
-2.5379066467285156 6.1188435554504395 0.457913339138031 4456788 4 -1
-2.0845181941986084 6.299283027648926 0.25439631938934326 4456788 4 -1
-2.1353600025177 6.282230377197266 0.25439631938934326 4456788 4 -1
-2.0830469131469727 6.29483699798584 0.35615482926368713 4456788 4 -1
-2.2700588703155518 6.179773330688477 -0.8649474382400513 4456788 0 -1
-2.548917531967163 6.14539098739624 0.5112866759300232 4456788 4 -1
-2.291043281555176 6.236898899078369 -0.6135440468788147 4456788 0 -1
-4.443490505218506 4.968451023101807 -0.30677202343940735 4456788 0 -1
-2.6125783920288086 6.153871059417725 0.5137807726860046 4456788 4 -1
-4.46148681640625 4.98857307434082 -0.41102463006973267 4456788 0 -1
-4.410539627075195 5.0343475341796875 -0.7744122743606567 4456788 0 -1
-5.317474842071533 4.137514114379883 -0.05162748694419861 4523353 0 -1
-5.395038604736328 4.08996057510376 0.051876895129680634 4456788 0 -1
-5.3850507736206055 4.082388877868652 -0.41501516103744507 4456788 0 -1
-5.379335403442383 4.0780558586120605 -0.5187689065933228 4456788 0 -1
-5.393771171569824 4.0889997482299805 -0.1556306779384613 4456788 0 -1
-4.456695556640625 5.087031841278076 -0.3112613558769226 4456788 0 -1
-5.3945631980896 4.089600086212158 -0.10375379025936127 4523353 0 -1
-5.391235828399658 4.087077617645264 -0.2593844532966614 4590430 0 -1
-5.393771171569824 4.0889997482299805 -0.1556306779384613 4657508 0 -1
-5.343319892883301 4.157624244689941 0 4724328 0 -1
-5.420976161956787 4.109623432159424 -0.05212630331516266 4456788 0 -1
-5.413331508636475 4.103828430175781 -0.3648841083049774 4456788 0 -1
-5.405197620391846 4.097661972045898 -0.5212630033493042 4456788 0 -1
-5.418588638305664 4.107813358306885 -0.20850521326065063 4456788 0 -1
-5.418588638305664 4.107813358306885 -0.20850521326065063 4456788 0 -1
-4.480755805969238 5.114495277404785 -0.20850521326065063 4456788 0 -1
-5.418588638305664 4.107813358306885 -0.20850521326065063 4523353 0 -1
-5.4171552658081055 4.106727123260498 -0.2606315016746521 4590430 0 -1
-5.420498847961426 4.109261512756348 -0.10425260663032532 4657508 0 -1
-5.421135425567627 4.109744548797607 0 4724328 0 -1
-5.445634365081787 4.128316879272461 -0.15712712705135345 4456788 0 -1
-5.446434020996094 4.128923416137695 -0.10475142300128937 4456788 0 -1
-5.43923282623291 4.123464107513428 -0.366629958152771 4456788 0 -1
-5.436830043792725 4.121642589569092 -0.41900569200515747 4456788 0 -1
-5.444514751434326 4.127468109130859 -0.20950284600257874 4456788 0 -1
-5.444514751434326 4.127468109130859 -0.20950284600257874 4456788 0 -1
-5.445634365081787 4.128316879272461 -0.15712712705135345 4523353 0 -1
-5.443074703216553 4.126376628875732 -0.2618785500526428 4590430 0 -1
-5.446434020996094 4.128923416137695 -0.10475142300128937 4657508 0 -1
-5.447073936462402 4.129408359527588 0 4724328 0 -1
-5.523041248321533 4.076808452606201 -0.21050047874450684 4456788 0 -1
-5.523041248321533 4.076808452606201 -0.21050047874450684 4456788 0 -1
-5.521580696105957 4.075729846954346 -0.26312559843063354 4456788 0 -1
-5.521580696105957 4.075729846954346 -0.26312559843063354 4456788 0 -1
-5.521580696105957 4.075729846954346 -0.26312559843063354 4456788 0 -1
-5.524177074432373 4.077646732330322 -0.15787535905838013 4523353 0 -1
-5.519794464111328 4.074411869049072 -0.31575071811676025 4590430 0 -1
-5.524177074432373 4.077646732330322 -0.15787535905838013 4657508 0 -1
-5.525475025177002 4.078604698181152 -0.05262511968612671 4724328 0 -1
-5.76336145401001 3.4473671913146973 -1.586235761642456 4456788 0 -1
-1.952402949333191 6.2348456382751465 2.2207300662994385 4456788 0 -1
-5.494913578033447 4.165675163269043 -0.2643726170063019 4456788 0 -1
-5.547749042510986 4.095046043395996 -0.2643726170063019 4456788 0 -1
-5.496367454528809 4.16677713394165 -0.21149811148643494 4456788 0 -1
-4.4560418128967285 5.191584587097168 -0.8988669514656067 4456788 0 -1
-5.496367454528809 4.16677713394165 -0.21149811148643494 4523353 0 -1
-5.493136405944824 4.164328098297119 -0.3172471523284912 4590430 0 -1
-5.550358295440674 4.0969719886779785 -0.1586235761642456 4657508 0 -1
-5.494913578033447 4.165675163269043 -0.2643726170063019 4726897 0 -1
-4.4994659423828125 5.242176532745361 -0.5843632817268372 4456788 0 -1
-6.0227155685424805 3.7241663932800293 1.4395837783813477 2458766 0 -1
-5.819066047668457 4.1794023513793945 0.9412662982940674 2458766 0 -1
-6.00167989730835 4.191075801849365 -0.22446732223033905 4456788 0 -1
-6.030479431152344 4.21118688583374 -0.11273247748613358 4456788 0 -1
-5.865503311157227 4.681646347045898 -0.4609062373638153 4456788 0 -1
-5.897661209106445 4.707313537597656 -0.2893134355545044 4456788 0 -1
-5.867770671844482 4.801711559295654 -0.1743362843990326 4456788 0 -1
-6.564085960388184 3.3839128017425537 -1.992771029472351 4456788 0 -1
-6.208527565002441 3.839063882827759 -2.285825729370117 4456788 0 -1
-1.4865676164627075 7.3122453689575195 1.8246699571609497 4456788 0 -1
-6.535190582275391 3.5063538551330566 -2.001250982284546 4456788 0 -1
-6.2654218673706055 3.8742446899414062 -2.1778318881988525 4456788 0 -1
-6.333436965942383 3.7883591651916504 -2.2461698055267334 4456788 0 -1
-6.387726783752441 3.9498722553253174 -1.8994923830032349 4456788 0 -1
-1.9826351404190063 7.121974468231201 2.3150062561035156 4456788 0 -1
-6.496877193450928 4.277862548828125 -0.7182954549789429 4456788 0 -1
-1.8232667446136475 7.208911895751953 2.394318103790283 4456788 0 -1
-1.5423139333724976 7.2936296463012695 2.3344602584838867 4456788 0 -1
-6.59915828704834 3.947301149368286 -1.3767329454421997 4456788 0 -1
-4.487237453460693 6.3900580406188965 0.23943181335926056 4456788 0 -1
-6.5764360427856445 4.066561222076416 -1.322361946105957 4456788 0 -1
-1.4913794994354248 7.3359150886535645 2.344187021255493 4456788 0 -1
-4.447813987731934 6.461300849914551 -0.060107361525297165 4456788 0 -1
-4.526757717132568 6.4463372230529785 0 4456788 0 -1
-4.544262409210205 6.471264362335205 0.18181852996349335 4456788 0 -1
-4.457389831542969 6.605529308319092 -0.3055249750614166 4456788 0 -1
-4.474135398864746 6.630345344543457 -0.36812642216682434 4456788 0 -1
-4.493776321411133 6.659451961517334 -0.3080190420150757 4456788 0 -1
-4.453431606292725 6.7326507568359375 0 4456788 0 -1
-4.47125768661499 6.7596001625061035 0.062102627009153366 4456788 0 -1
-4.496573448181152 6.7978715896606445 -0.5634129643440247 4456788 0 -1
-4.631260395050049 6.7277913093566895 -0.7542102336883545 4456788 0 -1
-4.5771894454956055 6.7830634117126465 -0.5656576752662659 4456788 0 -1
-4.584743499755859 6.7942585945129395 -0.3142542541027069 4456788 0 -1
-4.518747329711914 6.831393718719482 -0.4399559497833252 4456788 0 -1
-4.699556827545166 6.827005386352539 -0.4451935291290283 4456788 0 -1
-3.2340168952941895 7.617656230926514 -0.6359907388687134 4456788 0 -1
-3.064727306365967 7.7486042976379395 0 4456788 0 -1
-3.076608419418335 7.77864408493042 0.06409788876771927 4456788 0 -1
-5.2705979347229 6.79326868057251 -1.2652474641799927 4456788 0 -1
-4.578495502471924 7.350466728210449 -0.7325116991996765 4456788 0 -1
-4.456944465637207 7.450138092041016 -0.3995518386363983 4456788 0 -1
-4.4750847816467285 7.4804606437683105 -0.3342069089412689 4456788 0 -1
-7.244971752166748 5.782691478729248 0.35540661215782166 4456788 0 -1
-4.452908992767334 8.247886657714844 0.1436590850353241 4456788 0 -1
-4.465614318847656 8.2714204788208 -0.36039477586746216 4456788 0 -1
-4.468400955200195 8.276582717895508 -0.7956119775772095 4456788 0 -1
-4.4142279624938965 8.3489408493042 -0.7257776856422424 4456788 0 -1
-4.437760353088379 8.393449783325195 -0.4369630515575409 4456788 0 -1
-4.402381896972656 9.067463874816895 -0.4638991355895996 4456788 0 -1
-6.278434753417969 7.618298530578613 -2.0875461101531982 4590430 0 -1
-4.416583061218262 9.096713066101074 -0.46539559960365295 4456788 0 -1
-4.791975021362305 8.875921249389648 -0.8532252311706543 4523353 0 -1
-4.522332191467285 8.92271900177002 -1.551318645477295 4657508 0 -1
-4.432218074798584 9.128915786743164 -0.38907670974731445 4456788 0 -1
-4.425413131713867 9.315620422363281 -0.3162495195865631 4456788 0 -1
-4.438199520111084 9.342535018920898 -0.396558940410614 4456788 0 -1
-7.0968708992004395 7.452473163604736 -1.1103650331497192 4590430 0 -1
-6.736552715301514 7.848531246185303 -0.396558940410614 4590430 0 -1
-6.4235005378723145 8.114882469177246 -0.1586235761642456 4590430 0 -1
-4.322520732879639 9.099028587341309 -2.3793537616729736 4590430 0 -1
-4.018095016479492 9.464534759521484 1.1896768808364868 4590430 0 -1
-2.2932798862457275 10.062289237976074 0.793117880821228 4590430 0 -1
-1.7956191301345825 10.029256820678711 1.8241711854934692 4590430 0 -1
-8.595099449157715 5.659434795379639 -1.1103650331497192 4657508 0 -1
-4.85325288772583 8.989422798156738 1.6655476093292236 4657508 0 -1
-4.075204372406006 9.17001724243164 2.5379772186279297 4657508 0 -1
-4.4490132331848145 9.365299224853516 -0.5569283962249756 4456788 0 -1
-4.463478088378906 9.60471248626709 -0.650456428527832 4456788 0 -1
-4.38047981262207 10.318123817443848 -1.3847140073776245 4456788 0 -1
-4.384191036224365 10.326866149902344 -1.5622925758361816 4456788 0 -1
-4.4515380859375 10.48550033569336 -1.2290832996368408 4456788 0 -1
5.689681529998779 9.906025886535645 -0.8779166340827942 2271109 6 -1
5.68615198135376 9.899881362915039 -0.965708315372467 2468738 0 -1
5.689681529998779 9.906025886535645 -0.8779166340827942 2666112 6 -1
5.773631572723389 9.849119186401367 -0.965708315372467 2994813 0 -1
5.698243618011475 9.920933723449707 -0.6145416498184204 3257723 6 -1
-4.4677629470825195 10.523717880249023 -1.1445339918136597 4456788 0 -1
5.709045886993408 9.939740180969238 -0.7923696637153625 2458766 6 -1
5.781810760498047 9.863072395324707 -1.1445339918136597 2134668 0 -1
5.702305793762207 9.928006172180176 -0.9684517979621887 2271109 0 -1
5.702305793762207 9.928006172180176 -0.9684517979621887 2468738 0 -1
5.705845355987549 9.934167861938477 -0.8804107308387756 2666112 6 -1
5.705845355987549 9.934167861938477 -0.8804107308387756 2994813 6 -1
5.711907863616943 9.944723129272461 -0.7043285965919495 3651704 6 -1
5.711907863616943 9.944723129272461 -0.7043285965919495 6343264 6 -1
5.711907863616943 9.944723129272461 -0.7043285965919495 6933851 6 -1
5.702305793762207 9.928006172180176 -0.9684517979621887 8705099 0 -1
5.698426723480225 9.921252250671387 -1.0564929246902466 9360965 0 -1
5.725218772888184 9.96789836883545 -0.794614315032959 2458766 6 -1
5.722009181976318 9.962309837341309 -0.8829048275947571 2134668 6 -1
5.714569568634033 9.949357986450195 -1.0594857931137085 2271109 0 -1
5.718459606170654 9.956130027770996 -0.9711952805519104 2468738 6 -1
5.725218772888184 9.96789836883545 -0.794614315032959 2666112 6 -1
5.725218772888184 9.96789836883545 -0.794614315032959 2994813 6 -1
5.728088855743408 9.972895622253418 -0.7063238620758057 3651704 6 -1
5.722009181976318 9.962309837341309 -0.8829048275947571 5949540 6 -1
5.725218772888184 9.96789836883545 -0.794614315032959 6343264 6 -1
5.725218772888184 9.96789836883545 -0.794614315032959 6933851 6 -1
5.718459606170654 9.956130027770996 -0.9711952805519104 8705099 6 -1
5.714569568634033 9.949357986450195 -1.0594857931137085 9360965 0 -1
-4.413979530334473 10.64201831817627 -0.8853989243507385 4456788 0 -1
5.730712413787842 9.977463722229004 -1.0624786615371704 2271109 0 -1
5.734613418579102 9.984254837036133 -0.9739388227462769 5949540 6 -1
5.730712413787842 9.977463722229004 -1.0624786615371704 8705099 0 -1
5.730712413787842 9.977463722229004 -1.0624786615371704 9360965 0 -1
-4.45128059387207 10.731950759887695 -0.8928811550140381 4456788 0 -1
5.640698432922363 10.233281135559082 -0.08953752368688583 11918891 6 -1
6.040460586547852 9.894941329956055 1.7059516906738281 4456788 0 -1
5.543207168579102 10.267389297485352 1.0774431228637695 4899181 6 -1
5.385792255401611 10.403267860412598 0.2693607807159424 5424489 6 -1
5.475555419921875 10.356304168701172 0.2693607807159424 5949540 6 -1
7.182743549346924 9.257831573486328 -0.08978693187236786 5949540 0 -1
5.387057781219482 10.405712127685547 -0.08978693187236786 8705099 6 -1
-4.398810386657715 10.858682632446289 -0.9003633856773376 4456788 0 -1
5.218273639678955 10.51846694946289 -0.4501816928386688 4045940 6 -1
5.222107887268066 10.52619457244873 0 4505456 6 -1
5.571755409240723 10.320266723632812 0.7202907204627991 4899181 6 -1
5.488184452056885 10.380189895629883 0.4501816928386688 5424489 6 -1
5.489636421203613 10.382936477661133 0.36014536023139954 5949540 6 -1
2.8781163692474365 11.379621505737305 -0.5402180552482605 6343264 0 -1
4.768422603607178 10.72989559173584 -0.4501816928386688 6343264 0 -1
5.401546001434326 10.433698654174805 0.18007268011569977 6343264 6 -1
7.022834300994873 9.42077350616455 0 6343264 0 -1
5.229035377502441 10.54015827178955 -0.632000207901001 2666112 6 -1
