VERSION .7
FIELDS x y z rgb label object
SIZE 4 4 4 4 4 4
TYPE F F F I I I
COUNT 1 1 1 1 1 1
WIDTH 690
HEIGHT 1
POINTS 690
VIEWPOINT 0 0 0 1 0 0 0
DATA ascii
-3.5585553646087646 3.9789681434631348 0 4523353 0 -1
-3.346055746078491 4.142933368682861 -0.36812642216682434 4523353 0 -1
-3.353154420852661 4.1517229080200195 -0.12270880490541458 4590430 0 -1
-3.548093318939209 3.9672701358795166 -0.40902936458587646 4724328 0 -1
-3.3219857215881348 4.113131046295166 -0.7362528443336487 4724328 0 -1
-3.3933486938476562 4.117513656616211 0.1636117398738861 4726897 0 -1
-3.579833507537842 4.00275993347168 -0.0823046863079071 4456788 0 -1
-3.3729066848754883 4.1761794090271 -0.1646093726158142 4456788 0 -1
-3.52650785446167 4.025282382965088 -0.45267578959465027 4456788 0 -1
-3.579307794570923 4.002172470092773 -0.12345702946186066 4456788 0 -1
-3.5324459075927734 4.032060146331787 -0.3292187452316284 4456788 0 -1
-4.648985862731934 2.686216115951538 0.12345702946186066 4456788 0 -1
-3.5340070724487305 4.033842086791992 -0.28806641697883606 4523353 0 -1
-3.3624842166900635 4.16327428817749 -0.45267578959465027 4523353 0 -1
-3.7805657386779785 3.803736448287964 0.28806641697883606 4590430 0 -1
-3.5785717964172363 4.001349449157715 -0.1646093726158142 4590430 0 -1
-3.4147419929504395 4.143472671508789 -0.12345702946186066 4590430 0 -1
-3.579833507537842 4.00275993347168 -0.0823046863079071 4657508 0 -1
-3.577625274658203 4.000290870666504 -0.20576171576976776 4724328 0 -1
-3.6629810333251953 3.6854310035705566 -1.3580273389816284 4725613 0 -1
-3.580148696899414 4.00311279296875 0.04115234315395355 4725613 0 -1
-3.7748849391937256 3.798020839691162 0.4115234315395355 4726897 0 -1
-3.577625274658203 4.000290870666504 -0.20576171576976776 4726897 0 -1
-3.804933547973633 3.828253746032715 -0.24841050803661346 4456788 0 -1
-3.8061647415161133 3.8294923305511475 -0.20700876414775848 4456788 0 -1
-3.481654405593872 4.056358337402344 0.7866332530975342 4456788 0 -1
-3.8499107360839844 3.790261745452881 -0.08280350267887115 4456788 0 -1
-3.8499107360839844 3.790261745452881 -0.08280350267887115 4456788 0 -1
-4.6778483390808105 2.702893018722534 0.08280350267887115 4456788 0 -1
-3.847536087036133 3.78792405128479 0.20700876414775848 4523353 0 -1
-3.847536087036133 3.78792405128479 0.20700876414775848 4590430 0 -1
-3.824846029281616 3.765585422515869 0.6210262775421143 4657508 0 -1
-3.8493454456329346 3.789705276489258 -0.12420525401830673 4725613 0 -1
-3.8462915420532227 3.786698818206787 0.24841050803661346 4726897 0 -1
-3.9889919757843018 3.673551321029663 -0.3748604357242584 4456788 0 -1
-3.994283437728882 3.678424119949341 -0.24990695714950562 4456788 0 -1
-3.525350570678711 4.107267379760742 0.49981391429901123 4456788 0 -1
-3.99275541305542 3.6770172119140625 -0.2915581166744232 4456788 0 -1
-3.994283437728882 3.678424119949341 -0.24990695714950562 4456788 0 -1
-4.505728244781494 2.966792345046997 0.6664185523986816 4456788 0 -1
-3.998041868209839 3.6818854808807373 0.0833023190498352 4523353 0 -1
-3.9955756664276123 3.679614305496216 0.208255797624588 4590430 0 -1
-3.854292392730713 3.7945754528045654 0.5414651036262512 4657508 0 -1
-3.9889919757843018 3.673551321029663 -0.3748604357242584 4724328 0 -1
-3.9966328144073486 3.6805877685546875 -0.1666046380996704 4725613 0 -1
-3.9966328144073486 3.6805877685546875 -0.1666046380996704 4725613 0 -1
-4.188088417053223 3.5120232105255127 -0.1676022708415985 4456788 0 -1
-3.968851327896118 3.738332986831665 -0.41900569200515747 4456788 0 -1
-3.6414947509765625 4.071706295013428 -0.25140342116355896 4456788 0 -1
-3.3421905040740967 4.307745933532715 0.41900569200515747 4456788 0 -1
-3.4860098361968994 4.145042896270752 0.7542102336883545 4456788 0 -1
-4.1889495849609375 3.5127453804016113 -0.12570171058177948 4456788 0 -1
-3.9776315689086914 3.74660325050354 -0.20950284600257874 4456788 0 -1
-4.1895647048950195 3.513261318206787 -0.08380113542079926 4456788 0 -1
-4.019501209259033 3.701647996902466 -0.20950284600257874 4456788 0 -1
-4.1895647048950195 3.513261318206787 -0.08380113542079926 4456788 0 -1
-3.6384940147399902 4.068350791931152 0.335204541683197 4456788 0 -1
-4.5650129318237305 2.914498805999756 -0.7542102336883545 4456788 0 -1
-4.021982192993164 3.703932523727417 0.08380113542079926 4523353 0 -1
-3.5906262397766113 4.098469257354736 0.4609062373638153 4523353 0 -1
-4.177738189697266 3.5033438205718994 0.41900569200515747 4590430 0 -1
-4.02139139175415 3.7033886909484863 0.12570171058177948 4590430 0 -1
-3.950525999069214 3.72107195854187 0.670409083366394 4657508 0 -1
-3.576265573501587 4.082077503204346 0.670409083366394 4657508 0 -1
-4.1889495849609375 3.5127453804016113 -0.12570171058177948 4724328 0 -1
-4.019501209259033 3.701647996902466 -0.20950284600257874 4724328 0 -1
-4.020564556121826 3.702627182006836 -0.1676022708415985 4725613 0 -1
-3.8111603260040283 3.917836904525757 0.1676022708415985 4725613 0 -1
-3.596672296524048 4.10537052154541 0.335204541683197 4725613 0 -1
-3.5681610107421875 4.072826385498047 0.9694494605064392 4456788 0 -1
-3.59401273727417 4.102334976196289 0.7165495753288269 4456788 0 -1
-4.170886993408203 3.582568407058716 -0.1685999035835266 4456788 0 -1
-3.5138888359069824 4.178192615509033 0.6743996143341064 4456788 0 -1
-4.172357559204102 3.583831310272217 -0.0842999517917633 4456788 0 -1
-4.677411079406738 2.8922927379608154 0.12644992768764496 4456788 0 -1
-4.16684103012085 3.5790927410125732 -0.29504984617233276 4456788 0 -1
-3.8301262855529785 3.9373340606689453 0.29504984617233276 4456788 0 -1
-3.5138888359069824 4.178192615509033 0.6743996143341064 4456788 0 -1
-4.522436618804932 2.9777939319610596 -0.9694494605064392 4456788 0 -1
-4.172357559204102 3.583831310272217 -0.0842999517917633 4523353 0 -1
-4.169784069061279 3.581620693206787 0.21074987947940826 4590430 0 -1
-4.145193576812744 3.5604989528656006 -0.632249653339386 4657508 0 -1
-3.813514232635498 3.9202568531036377 0.5900996923446655 4657508 0 -1
-4.172725200653076 3.5841469764709473 0.04214997589588165 4724328 0 -1
-3.6221821308135986 4.134488105773926 0.6359907388687134 4456788 0 -1
-3.6221821308135986 4.134488105773926 0.6359907388687134 4456788 0 -1
-3.6221821308135986 4.134488105773926 0.6359907388687134 4456788 0 -1
-3.580063819885254 4.171011924743652 0.6359907388687134 4456788 0 -1
-4.705779075622559 2.909834146499634 0.08479876816272736 4456788 0 -1
-3.5695042610168457 4.158709526062012 0.763188898563385 4456788 0 -1
-4.513913154602051 2.972181797027588 -1.1871827840805054 4456788 0 -1
-4.660508155822754 2.9754669666290283 0.211996927857399 4523353 0 -1
-3.9054574966430664 3.8449480533599854 0.763188898563385 4523353 0 -1
-3.5841596126556396 4.09108829498291 1.017585277557373 4523353 0 -1
-4.689584255218506 2.899820327758789 0.46639323234558105 4590430 0 -1
-4.153187274932861 3.65252685546875 0.1695975363254547 4590430 0 -1
-3.607497453689575 4.117726802825928 0.8055883049964905 4590430 0 -1
-4.705779075622559 2.909834146499634 0.08479876816272736 4657508 0 -1
-3.5841596126556396 4.09108829498291 1.017585277557373 4657508 0 -1
-4.861594200134277 2.608412027359009 -0.423993855714798 4724328 0 -1
-4.1520891189575195 3.6515607833862305 0.211996927857399 4724328 0 -1
-3.62583589553833 4.054197311401367 1.017585277557373 4724328 0 -1
-3.713106632232666 4.066468715667725 -0.8103270530700684 4456788 0 -1
-3.6385233402252197 3.984787940979004 1.3647613525390625 4456788 0 -1
-3.78670597076416 4.061217308044434 0.38383913040161133 4456788 0 -1
-3.573969602584839 4.249631404876709 0.38383913040161133 4456788 0 -1
-4.605528831481934 3.1243865489959717 -0.0852975845336914 4456788 0 -1
-3.6666159629821777 4.099795341491699 0.8529758453369141 4456788 0 -1
-3.6247215270996094 4.223041534423828 0.0852975845336914 4456788 0 -1
-3.6620938777923584 4.094738960266113 0.8956246376037598 4590430 0 -1
-3.6240415573120117 4.052190780639648 1.1941661834716797 4657508 0 -1
-3.708589553833008 4.500029563903809 -1.0440224409103394 4456788 0 -1
-3.4849300384521484 4.768972873687744 0.4539228081703186 4456788 0 -1
-3.8360793590545654 4.469287395477295 -0.6354919672012329 4724328 0 -1
-3.624156951904297 4.578439235687256 -0.9986302256584167 4724328 0 -1
-3.763154983520508 4.566239356994629 -0.6846253275871277 4456788 0 -1
-3.6868133544921875 4.473606109619141 1.3692506551742554 4456788 0 -1
-3.763154983520508 4.566239356994629 -0.6846253275871277 4456788 0 -1
-3.7416296005249023 4.632715225219727 -0.13692507147789001 4456788 0 -1
-3.717815637588501 4.603229522705078 -0.6846253275871277 4456788 0 -1
-3.5473835468292236 4.758634090423584 0.5020585656166077 4456788 0 -1
-3.73987078666687 4.630537509918213 -0.22820845246315002 4523353 0 -1
-3.487898588180542 4.773035049438477 -0.7302670478820801 4523353 0 -1
-3.733708620071411 4.622907638549805 0.41077521443367004 4590430 0 -1
-3.693848133087158 4.573554515838623 -0.9584754705429077 4657508 0 -1
-3.7068498134613037 4.5896525382995605 -0.8215504288673401 4724328 0 -1
-3.7372310161590576 4.6272687911987305 -0.31949183344841003 4725613 0 -1
-3.6984095573425293 4.579202175140381 -0.9128338098526001 4726897 0 -1
-3.649048328399658 4.51808500289917 1.3236089944839478 4729209 0 -1
-3.671180009841919 4.731780529022217 -0.04589109867811203 4456788 0 -1
-3.716742515563965 4.695403575897217 -0.09178219735622406 4456788 0 -1
-3.7590909004211426 4.654335021972656 -0.275346577167511 4456788 0 -1
-3.7170698642730713 4.695817470550537 -0.04589109867811203 4456788 0 -1
-3.5298781394958496 4.830482482910156 -0.275346577167511 4456788 0 -1
-3.5689821243286133 4.787607192993164 -0.4589109718799591 4456788 0 -1
-4.550009250640869 3.815520763397217 -0.7801486849784851 4456788 0 -1
-3.7603073120117188 4.655840873718262 0.22945548593997955 4456788 0 -1
-3.5285279750823975 4.828634738922119 -0.3212376832962036 4456788 0 -1
-3.7613019943237305 4.6570725440979 -0.18356439471244812 4523353 0 -1
-3.513223886489868 4.80769157409668 -0.6424753665924072 4523353 0 -1
-3.7590909004211426 4.654335021972656 0.275346577167511 4590430 0 -1
-3.531954526901245 4.8333234786987305 -0.18356439471244812 4590430 0 -1
-3.579085350036621 4.8011603355407715 -0.09178219735622406 4657508 0 -1
-3.738131523132324 4.628384113311768 -0.6883664727210999 4724328 0 -1
-3.7603073120117188 4.655840873718262 -0.22945548593997955 4725613 0 -1
-3.5525028705596924 4.765501499176025 -0.7342575788497925 4725613 0 -1
-3.747128486633301 4.639523506164551 -0.550693154335022 4726897 0 -1
-3.579505681991577 4.801723957061768 0 4726897 0 -1
-3.6803884506225586 4.743649005889893 0.46140506863594055 4456788 0 -1
-3.678105354309082 4.740706443786621 -0.5075455904006958 4456788 0 -1
-3.733429193496704 4.716484069824219 -0.27684304118156433 4456788 0 -1
-3.726393222808838 4.7075958251953125 -0.46140506863594055 4456788 0 -1
-3.597268581390381 4.825551986694336 0.18456202745437622 4456788 0 -1
-4.56455659866333 3.9207091331481934 0.23070253431797028 4456788 0 -1
-3.718792676925659 4.697993755340576 -0.5998265743255615 4456788 0 -1
-3.551149845123291 4.859591484069824 -0.18456202745437622 4456788 0 -1
-3.733429193496704 4.716484069824219 -0.27684304118156433 4523353 0 -1
-3.5323173999786377 4.833820343017578 -0.6459670662879944 4523353 0 -1
-3.5963172912597656 4.824275970458984 -0.23070253431797028 4590430 0 -1
-3.5861527919769287 4.810640811920166 -0.5075455904006958 4657508 0 -1
-3.761688709259033 4.657551288604736 -0.6459670662879944 4724328 0 -1
-3.595154047012329 4.8227152824401855 0.27684304118156433 4724328 0 -1
-3.5682952404022217 4.786685943603516 -0.7843886017799377 4725613 0 -1
-3.679572582244873 4.742597579956055 -0.7886285185813904 4456788 0 -1
-3.679572582244873 4.742597579956055 -0.7886285185813904 4456788 0 -1
-3.675724744796753 4.737637996673584 -0.8350184559822083 4456788 0 -1
-3.4529972076416016 4.9172468185424805 -0.7422386407852173 4456788 0 -1
-3.717548131942749 4.6964216232299805 -0.8814083933830261 4590430 0 -1
-3.930476188659668 5.168330669403076 0.8020966053009033 4456788 0 -1
-3.940654754638672 5.18171501159668 0.6517034769058228 4456788 0 -1
-3.9341061115264893 5.1731038093566895 0.7519655227661133 4456788 0 -1
-4.507022380828857 4.732855319976807 -0.30078622698783875 4523353 0 -1
-3.909761667251587 5.24474573135376 -0.10026207566261292 4523353 0 -1
-3.960235595703125 5.207462787628174 0.05013103783130646 4725613 0 -1
-3.9374985694885254 5.177565097808838 0.701834499835968 4726897 0 -1
-3.9087443351745605 5.139754772186279 1.0527517795562744 4728182 0 -1
-3.9781851768493652 5.231065273284912 0.20152178406715393 4456788 0 -1
-3.95003080368042 5.19404411315918 0.8060871362686157 4456788 0 -1
-3.95003080368042 5.19404411315918 0.8060871362686157 4456788 0 -1
-3.9570882320404053 5.203323841094971 0.7053261995315552 4456788 0 -1
-3.95003080368042 5.19404411315918 0.8060871362686157 4456788 0 -1
-3.9602599143981934 5.207494735717773 0.6549457907676697 4456788 0 -1
-3.903632164001465 5.236523151397705 0.7557066679000854 4456788 0 -1
-3.9296746253967285 5.271458148956299 0 4523353 0 -1
-3.975846767425537 5.22799015045166 -0.3022826611995697 4657508 0 -1
-3.975846767425537 5.22799015045166 0.3022826611995697 4725613 0 -1
-3.95003080368042 5.19404411315918 0.8060871362686157 4726897 0 -1
-3.9281907081604004 5.16532564163208 1.0579893589019775 4728182 0 -1
-3.969585418701172 5.219757080078125 0.8100776672363281 4456788 0 -1
-3.965679168701172 5.214620590209961 0.8607075214385986 4456788 0 -1
-3.9732513427734375 5.2245774269104 0.7594478130340576 4456788 0 -1
-3.969585418701172 5.219757080078125 0.8100776672363281 4456788 0 -1
-3.979865074157715 5.233273983001709 0.6581881046295166 4456788 0 -1
-4.545838832855225 4.773616313934326 0.45566868782043457 4456788 0 -1
-3.9350757598876953 5.278703212738037 0.5569283962249756 4456788 0 -1
-3.9462292194366455 5.293664932250977 0.25314927101135254 4523353 0 -1
-3.985525369644165 5.240716934204102 0.5569283962249756 4725613 0 -1
-3.965679168701172 5.214620590209961 0.8607075214385986 4726897 0 -1
-3.95251202583313 5.1973066329956055 1.0125970840454102 4728182 0 -1
-3.9852147102355957 5.2403082847595215 0.8649474382400513 4456788 0 -1
-3.9852147102355957 5.2403082847595215 0.8649474382400513 4456788 0 -1
-3.94228196144104 5.288370132446289 0.763188898563385 4456788 0 -1
-3.951770305633545 5.301097869873047 0.610551118850708 4456788 0 -1
-4.528121471405029 4.856380462646484 0.05087926238775253 4456788 0 -1
-3.959134340286255 5.310976505279541 0.457913339138031 4523353 0 -1
-3.951770305633545 5.301097869873047 0.610551118850708 4590430 0 -1
-3.9569149017333984 5.307999134063721 0.5087926387786865 4657508 0 -1
-3.945681571960449 5.292930603027344 0.7123096585273743 4725613 0 -1
-3.9262993335723877 5.266930103302002 0.9667059779167175 4726897 0 -1
-3.9766366481781006 5.229028701782227 0.9667059779167175 4728182 0 -1
-3.991452932357788 5.24851131439209 1.0225733518600464 4456788 0 -1
-3.7076776027679443 5.386111259460449 1.3293453454971313 4456788 0 -1
-3.734218120574951 5.424666404724121 1.073702096939087 4456788 0 -1
-3.7807438373565674 5.492253303527832 -0.2556433379650116 4456788 0 -1
-3.7807438373565674 5.492253303527832 -0.2556433379650116 4456788 0 -1
-4.548313617706299 4.8780364990234375 -0.20451468229293823 4456788 0 -1
-3.7745139598846436 5.483203887939453 -0.46015802025794983 4523353 0 -1
-3.7834105491638184 5.496127605438232 -0.05112867057323456 4590430 0 -1
-3.7795207500457764 5.490477085113525 -0.30677202343940735 4657508 0 -1
-3.7817440032958984 5.493706703186035 -0.20451468229293823 4724328 0 -1
-3.7825217247009277 5.494836330413818 -0.15338601171970367 4725613 0 -1
-3.893254041671753 5.434912204742432 -0.5137807726860046 4456788 0 -1
-3.842027187347412 5.471245288848877 -0.5137807726860046 4456788 0 -1
-3.7965047359466553 5.5151495933532715 -0.3596465289592743 4456788 0 -1
-3.7965047359466553 5.5151495933532715 -0.3596465289592743 4456788 0 -1
-3.7478461265563965 5.554036617279053 -0.2568903863430023 4456788 0 -1
-4.507978439331055 4.936985492706299 -0.5137807726860046 4456788 0 -1
-3.7504894733428955 5.55795431137085 0.05137807875871658 4456788 0 -1
-3.746633768081665 5.552240371704102 -0.3082684576511383 4523353 0 -1
-3.8009731769561768 5.521640300750732 -0.15413422882556915 4590430 0 -1
-3.79292631149292 5.509951114654541 -0.46240270137786865 4657508 0 -1
-3.7991864681243896 5.519044876098633 -0.2568903863430023 4724328 0 -1
-3.7965047359466553 5.5151495933532715 -0.3596465289592743 4725613 0 -1
-3.8009731769561768 5.521640300750732 -0.15413422882556915 4726897 0 -1
-3.9143476486206055 5.464358329772949 -0.4646473824977875 4456788 0 -1
-3.761718988418579 5.5745954513549805 -0.41301989555358887 4456788 0 -1
-3.7648212909698486 5.579193115234375 -0.30976492166519165 4456788 0 -1
-3.9180407524108887 5.469513893127441 -0.36139240860939026 4456788 0 -1
-3.767035722732544 5.582474708557129 -0.20650994777679443 4456788 0 -1
-4.52705192565918 4.957874298095703 -0.5679023265838623 4456788 0 -1
-3.9695940017700195 5.43221378326416 -0.36139240860939026 4523353 0 -1
-3.767810583114624 5.583622932434082 -0.15488246083259583 4523353 0 -1
-3.9163100719451904 5.467097759246826 -0.41301989555358887 4590430 0 -1
-3.867967128753662 5.508185386657715 -0.30976492166519165 4657508 0 -1
-3.869218587875366 5.50996732711792 -0.25813743472099304 4724328 0 -1
-3.9742658138275146 5.438607215881348 -0.15488246083259583 4725613 0 -1
-3.8384392261505127 5.5760674476623535 -0.10375379025936127 4456788 0 -1
-3.942180871963501 5.503212928771973 -0.10375379025936127 4456788 0 -1
-3.942180871963501 5.503212928771973 -0.10375379025936127 4456788 0 -1
-4.513157367706299 5.0463480949401855 0.051876895129680634 4456788 0 -1
-4.396572113037109 5.122298240661621 -0.5187689065933228 4523353 0 -1
-3.9384748935699463 5.498039722442627 -0.3112613558769226 4523353 0 -1
-3.7351362705230713 5.646739482879639 0 4523353 0 -1
-4.5349884033203125 5.07075834274292 0 4456788 0 -1
-5.269850254058838 4.312421798706055 0.8946269750595093 4456788 0 -1
-5.1424102783203125 4.20813512802124 -1.7366288900375366 4456788 0 -1
-5.377346038818359 4.292015552520752 0.5287452340126038 4456788 0 -1
-5.37401008605957 4.289353370666504 0.5816197991371155 4456788 0 -1
-5.377346038818359 4.292015552520752 0.5287452340126038 4456788 0 -1
-5.283429145812988 4.323533535003662 1.0046160221099854 4724328 0 -1
-5.455678462982178 4.245049953460693 0.5312393307685852 4456788 0 -1
-5.405741214752197 4.3146796226501465 0.47811540961265564 4456788 0 -1
-5.45229434967041 4.242416858673096 0.5843632817268372 4456788 0 -1
-5.484366416931152 4.267372131347656 0.48036009073257446 4456788 0 -1
-4.378203392028809 5.53103494644165 -1.8436249494552612 4456788 0 -1
-4.081188678741455 5.697265148162842 -2.0112273693084717 4456788 0 -1
-4.4340691566467285 5.83052396774292 -0.6763948798179626 4456788 0 -1
-4.051720142364502 5.885899066925049 -1.747353434562683 4456788 0 -1
-4.509166717529297 5.81186056137085 0.05636623874306679 4456788 0 -1
-4.391917705535889 5.891533374786377 0.3381974399089813 4523353 0 -1
-4.469352722167969 5.876919269561768 0.28307825326919556 4456788 0 -1
-4.479132175445557 5.889779090881348 0.5686505436897278 4456788 0 -1
-4.507271766662598 5.926780700683594 0.3426867723464966 4456788 0 -1
-4.528419017791748 5.954587936401367 0.28681936860084534 4456788 0 -1
-4.704946517944336 6.438511371612549 -0.061104994267225266 4456788 0 -1
-4.435344219207764 6.705306053161621 -0.061603810638189316 4456788 0 -1
-6.176418304443359 5.179385662078857 -0.4329725205898285 4456788 0 -1
-4.514754772186279 6.690539836883545 -0.12370643764734268 4456788 0 -1
-4.453431606292725 6.7326507568359375 0 4456788 0 -1
-4.533358573913574 6.718109607696533 0.062102627009153366 4456788 0 -1
-4.506113052368164 6.812293529510498 -0.18780432641506195 4456788 0 -1
-4.556469917297363 6.752358913421631 -0.6260144114494324 4456788 0 -1
-4.516751289367676 6.828376293182373 -0.5028068423271179 4456788 0 -1
-6.547975540161133 4.8333587646484375 -1.7877575159072876 4456788 0 -1
-5.02076530456543 6.471259593963623 -1.5323636531829834 4456788 0 -1
-4.528449058532715 6.984254837036133 -0.38309091329574585 4456788 0 -1
-4.528449058532715 6.984254837036133 -0.38309091329574585 4523353 0 -1
-4.477189064025879 7.483978748321533 -0.20052415132522583 4456788 0 -1
-4.4865922927856445 8.310276985168457 -0.7257776856422424 4456788 0 -1
-4.434103488922119 8.3865327835083 -0.5826174020767212 4456788 0 -1
-2.526460886001587 9.362786293029785 -0.8203033804893494 4341894 4 -1
-2.528028964996338 9.368597984313965 -0.7457303404808044 4212104 4 -1
-2.529446840286255 9.373852729797363 -0.6711573004722595 4147337 4 -1
-2.528028964996338 9.368597984313965 -0.7457303404808044 4017546 4 -1
-2.5354087352752686 9.395946502685547 -0.07457303255796432 2588302 4 -1
-2.5354087352752686 9.395946502685547 -0.07457303255796432 2523534 4 -1
-2.534813165664673 9.393739700317383 -0.22371910512447357 2199437 4 -1
-2.5354831218719482 9.396222114562988 0 2070155 4 -1
-2.5354831218719482 9.396222114562988 0 2070922 4 -1
-2.5354087352752686 9.395946502685547 -0.07457303255796432 2006409 4 -1
-2.5349104404449463 9.394100189208984 -0.823046863079071 4725613 4 -1
-2.5331859588623047 9.387709617614746 -0.8978692889213562 4726897 4 -1
-2.5364840030670166 9.399930953979492 -0.7482244372367859 4536450 4 -1
-2.5349104404449463 9.394100189208984 -0.823046863079071 4471684 4 -1
-2.5364840030670166 9.399930953979492 -0.7482244372367859 4341894 4 -1
-2.5364840030670166 9.399930953979492 -0.7482244372367859 4212104 4 -1
-2.5364840030670166 9.399930953979492 -0.7482244372367859 4147337 4 -1
-2.5364840030670166 9.399930953979492 -0.7482244372367859 4017546 4 -1
-2.5349104404449463 9.394100189208984 -0.823046863079071 3887499 4 -1
-2.5331859588623047 9.387709617614746 -0.8978692889213562 3757452 4 -1
-2.5349104404449463 9.394100189208984 -0.823046863079071 3692940 4 -1
-2.5436642169952393 9.426541328430176 -0.1496448814868927 2588302 4 -1
-2.543290853500366 9.425156593322754 -0.22446732223033905 2523534 4 -1
-2.5438883304595947 9.42737102508545 -0.07482244074344635 2070155 4 -1
-2.5439629554748535 9.427647590637207 0 2070922 4 -1
-2.5438883304595947 9.42737102508545 -0.07482244074344635 2006409 4 -1
-2.5439629554748535 9.427647590637207 0 2072968 4 -1
-2.5438883304595947 9.42737102508545 0.07482244074344635 3257723 4 -1
-2.468850612640381 9.4464111328125 0.1496448814868927 3651704 4 -1
-2.4679806232452393 9.443081855773926 0.2992897629737854 4045940 4 -1
-2.319495677947998 9.485369682312012 0 4505456 0 -1
-2.2444095611572266 9.502238273620605 -0.1496448814868927 4899181 0 -1
-2.5439629554748535 9.427647590637207 0 5424489 4 -1
-2.244673252105713 9.5033540725708 0 5424489 0 -1
-2.6175551414489746 9.402719497680664 0.2992897629737854 5949540 4 -1
-2.2436187267303467 9.498888969421387 -0.2992897629737854 5949540 0 -1
-2.5247721672058105 9.356529235839844 1.1971590518951416 6343264 0 -1
-2.1692774295806885 9.518200874328613 0.22446732223033905 6343264 0 -1
-2.5438883304595947 9.42737102508545 -0.07482244074344635 6933851 4 -1
-2.5433602333068848 9.425414085388184 -0.8257903456687927 4725613 4 -1
-2.539748191833496 9.412028312683105 -0.9759340882301331 4726897 4 -1
-2.544938802719116 9.43126392364502 -0.7507185339927673 4536450 4 -1
-2.544938802719116 9.43126392364502 -0.7507185339927673 4471684 4 -1
-2.5463662147521973 9.436553955078125 -0.6756466627120972 4341894 4 -1
-2.544938802719116 9.43126392364502 -0.7507185339927673 4212104 4 -1
-2.5463662147521973 9.436553955078125 -0.6756466627120972 4147337 4 -1
-2.544938802719116 9.43126392364502 -0.7507185339927673 4017546 4 -1
-2.5433602333068848 9.425414085388184 -0.8257903456687927 3887499 4 -1
-2.5416300296783447 9.419002532958984 -0.9008622169494629 3757452 4 -1
-2.5433602333068848 9.425414085388184 -0.8257903456687927 3692940 4 -1
-2.5487687587738037 9.445457458496094 -0.5255029797554016 2264205 4 -1
-2.5517685413360596 9.456574440002441 -0.22521555423736572 2006409 4 -1
-2.4773709774017334 9.479012489318848 0 2994813 4 -1
-2.4762072563171387 9.47455883026123 0.3002873957157135 3651704 4 -1
-2.4755523204803467 9.472052574157715 0.37535926699638367 4045940 4 -1
-2.4016644954681396 9.495805740356445 0.22521555423736572 4505456 0 -1
-2.4016644954681396 9.495805740356445 0.22521555423736572 4899181 0 -1
-2.552367925643921 9.458795547485352 0.07507184892892838 5424489 4 -1
-2.252089500427246 9.534751892089844 -0.07507184892892838 5424489 0 -1
-2.3269541263580322 9.515870094299316 0.15014369785785675 5949540 0 -1
-2.552143096923828 9.457962989807129 0.15014369785785675 6343264 4 -1
-2.552367925643921 9.458795547485352 -0.07507184892892838 6933851 4 -1
-2.402299165725708 9.498315811157227 0 7589974 0 -1
-2.552367925643921 9.458795547485352 -0.07507184892892838 8180304 4 -1
-2.5500738620758057 9.450294494628906 -0.9038550853729248 4726897 4 -1
-2.5561068058013916 9.472651481628418 -0.6025700569152832 4212104 4 -1
-2.5561068058013916 9.472651481628418 -0.6025700569152832 4147337 4 -1
-2.554826021194458 9.467905044555664 -0.6778913140296936 4017546 4 -1
-2.553393840789795 9.462596893310547 -0.753212571144104 3887499 4 -1
-2.554826021194458 9.467905044555664 -0.6778913140296936 2718350 4 -1
-2.5561068058013916 9.472651481628418 -0.6025700569152832 2588302 4 -1
-2.5597195625305176 9.486040115356445 -0.3012850284576416 2264205 4 -1
-2.635547399520874 9.467350959777832 -0.2259637713432312 2006409 4 -1
-2.5597195625305176 9.486040115356445 -0.3012850284576416 2139270 4 -1
-2.560922861099243 9.490499496459961 0 2994813 4 -1
-2.635547399520874 9.467350959777832 -0.2259637713432312 3257723 4 -1
-2.560621976852417 9.489384651184082 0.1506425142288208 4045940 4 -1
-2.4849448204040527 9.507990837097168 0.2259637713432312 4899181 4 -1
-2.5597195625305176 9.486040115356445 0.3012850284576416 5424489 4 -1
-2.407731771469116 9.519794464111328 0.4519275426864624 5949540 0 -1
-2.4855284690856934 9.510224342346191 0.0753212571144104 7589974 4 -1
-2.5590426921844482 9.48353099822998 -0.376606285572052 8180304 4 -1
-2.4855284690856934 9.510224342346191 -0.0753212571144104 10016830 4 -1
-2.564570665359497 9.50401782989502 -0.6045653223991394 3432845 4 -1
-2.566685914993286 9.511856079101562 -0.45342400670051575 3238030 4 -1
-2.5632855892181396 9.499256134033203 -0.6801360249519348 2718350 4 -1
-2.6411659717559814 9.487533569335938 -0.5289946794509888 2588302 4 -1
-2.567516326904297 9.514933586120605 -0.3778533339500427 2139270 4 -1
-2.569100856781006 9.520806312561035 0.15114133059978485 2994813 4 -1
-2.643730640411377 9.496746063232422 -0.3022826611995697 3257723 4 -1
-2.5694026947021484 9.52192497253418 0 4899181 4 -1
-2.4937589168548584 9.541715621948242 0.07557066529989243 6933851 4 -1
-2.4937589168548584 9.541715621948242 0.07557066529989243 7589974 4 -1
-2.493173122406006 9.539474487304688 -0.22671200335025787 8180304 4 -1
-2.569100856781006 9.520806312561035 -0.15114133059978485 10016830 4 -1
-2.4920010566711426 9.534990310668945 -0.3778533339500427 11918891 4 -1
-2.2745354175567627 9.629782676696777 -0.07582007348537445 2718350 0 -1
-2.653001308441162 9.530048370361328 -0.22746022045612335 2588302 0 -1
-2.273533582687378 9.625540733337402 -0.3032802939414978 2588302 0 -1
-2.5772013664245605 9.550826072692871 -0.22746022045612335 2199437 4 -1
-2.5766713619232178 9.548861503601074 -0.3032802939414978 2139270 4 -1
-2.5751566886901855 9.543248176574707 -0.4549204409122467 2468738 4 -1
-2.5703036785125732 9.525263786315918 0.7582007646560669 2994813 4 -1
-2.257443428039551 9.557418823242188 1.2131211757659912 2994813 0 -1
-2.6524558067321777 9.528088569641113 0.3032802939414978 4045940 4 -1
-2.3498013019561768 9.609301567077637 0.22746022045612335 4045940 0 -1
-2.651754379272461 9.525568962097168 -0.37910038232803345 5949540 0 -1
-2.5017685890197754 9.572362899780273 -0.1516401469707489 6343264 4 -1
-2.5778825283050537 9.553350448608398 0 6933851 4 -1
-2.5020625591278076 9.573487281799316 0 7589974 4 -1
-2.5020625591278076 9.573487281799316 0 12640037 4 -1
-2.2818164825439453 9.660608291625977 -0.15213896334171295 2718350 0 -1
-2.738179922103882 9.541300773620605 0.15213896334171295 2006409 0 -1
-2.583627700805664 9.574640274047852 -0.45641690492630005 2468738 4 -1
-2.581498622894287 9.566750526428223 0.6085558533668518 2994813 4 -1
-2.290661096572876 9.367452621459961 -2.358154058456421 2994813 0 -1
-2.4996585845947266 9.564289093017578 -0.9128338098526001 6343264 0 -1
-2.5862865447998047 9.584494590759277 -0.07606948167085648 6933851 4 -1
-2.6617283821105957 9.561397552490234 0.22820845246315002 7589974 0 -1
-2.5102193355560303 9.604697227478027 -0.07606948167085648 12640037 4 -1
-1.5856208801269531 9.725619316101074 -1.450058937072754 4456788 0 -1
-2.793879270553589 9.179524421691895 2.67116117477417 4456788 0 -1
-1.4085566997528076 9.57199478149414 2.3658857345581055 4456788 0 -1
-3.530844211578369 9.146390914916992 1.755334496498108 4456788 0 -1
-1.4112273454666138 9.590143203735352 2.2895667552948 4456788 0 -1
-3.2681055068969727 9.12589168548584 2.2895667552948 4456788 0 -1
-2.463465929031372 9.129334449768066 3.1290745735168457 4456788 0 -1
-2.744575023651123 9.563584327697754 -0.457913339138031 2328718 0 -1
-2.74739933013916 9.573427200317383 -0.0763188898563385 2006409 0 -1
-2.74739933013916 9.573427200317383 -0.0763188898563385 2072968 0 -1
-2.6710827350616455 9.594999313354492 0.0763188898563385 2994813 0 -1
-2.5125274658203125 9.613529205322266 0.6868700385093689 4045940 4 -1
-2.823716163635254 9.55119514465332 0.0763188898563385 7589974 0 -1
-2.4208083152770996 9.262589454650879 -2.7474801540374756 7589974 0 -1
-2.8932135105133057 9.505895614624023 -0.6868700385093689 11918891 0 -1
-2.8932135105133057 9.505895614624023 -0.6868700385093689 11918891 0 -1
-2.287885904312134 9.686304092407227 0.3815944492816925 11918891 0 -1
-1.9508689641952515 9.596088409423828 1.9907758235931396 4456788 0 -1
-3.6226818561553955 9.15929126739502 1.6845026016235352 4456788 0 -1
-3.0372819900512695 9.178475379943848 2.5267539024353027 4456788 0 -1
-0.8650246262550354 9.367791175842285 3.3690052032470703 4456788 0 -1
-3.365338087081909 9.161447525024414 2.1439123153686523 4456788 0 -1
-1.567733883857727 9.615906715393066 2.2204806804656982 4456788 0 -1
-4.869264125823975 8.47763729095459 2.0673441886901855 4456788 0 -1
-3.284775733947754 9.172442436218262 2.2204806804656982 4456788 0 -1
-2.338224172592163 9.244972229003906 2.98616361618042 2588302 0 -1
-2.74989652633667 9.582127571105957 -0.6891146898269653 2006409 0 -1
-2.756377935409546 9.60471248626709 0.07656829804182053 2072968 0 -1
-2.755730390548706 9.602456092834473 -0.22970490157604218 2666112 0 -1
-2.6798903942108154 9.626638412475586 0 2994813 0 -1
-2.5193252563476562 9.639538764953613 0.7656829953193665 3651704 4 -1
-2.5220022201538086 9.649781227111816 0.6125463843345642 4045940 4 -1
-2.4579553604125977 9.10891342163086 3.2924368381500244 11197490 0 -1
-3.6344821453094482 9.189126014709473 1.6899895668029785 4456788 0 -1
-3.134002208709717 9.220236778259277 2.3813488483428955 4456788 0 -1
-2.618316888809204 9.12363338470459 3.2263436317443848 4456788 0 -1
-2.327392816543579 9.202146530151367 3.2263436317443848 4456788 0 -1
-1.3320661783218384 9.565692901611328 2.68861985206604 4456788 0 -1
-4.943212985992432 8.432525634765625 2.2277135848999023 4456788 0 -1
-2.805817127227783 9.21874713897705 2.765437364578247 4456788 0 -1
-2.31424617767334 9.150167465209961 3.379979133605957 4456788 0 -1
-3.139944553375244 9.23771858215332 2.3045313358306885 4456788 0 -1
3.917587995529175 9.227792739868164 0.07681770622730255 2666112 0 -1
-2.4535439014434814 9.700928688049316 0.6145416498184204 3651704 4 -1
-2.351655960083008 9.298079490661621 2.9190728664398193 7589974 0 -1
-2.805817127227783 9.21874713897705 2.765437364578247 8180304 0 -1
-3.3175904750823975 9.264074325561523 2.0808122158050537 4456788 0 -1
-2.821270227432251 9.269519805908203 2.6973490715026855 4456788 0 -1
-3.717182159423828 9.176050186157227 1.7725436687469482 4456788 0 -1
-3.4846267700195312 9.251787185668945 1.8496108055114746 4456788 0 -1
-2.814926862716675 9.248678207397461 2.774416208267212 4456788 0 -1
-3.3872621059417725 9.221131324768066 2.15787935256958 4456788 0 -1
-2.8822951316833496 9.20438289642334 2.8514833450317383 4456788 0 -1
3.9304230213165283 9.258025169372559 0 2666112 0 -1
-2.5305659770965576 9.682548522949219 -1.0018725395202637 2994813 0 -1
4.0073723793029785 9.224656105041504 -0.07706711441278458 2994813 0 -1
-2.4660754203796387 9.750475883483887 -0.07706711441278458 6933851 0 -1
-2.5324409008026123 9.689723014831543 -0.9248054027557373 9360965 0 -1
3.7761778831481934 9.321683883666992 -0.07706711441278458 9360965 0 -1
-2.0353548526763916 9.625228881835938 2.2421791553497314 4456788 0 -1
-2.7497198581695557 9.300904273986816 2.7833948135375977 2912910 0 -1
-2.2929599285125732 9.376853942871094 2.938027858734131 2912910 0 -1
3.9095458984375 9.208849906921387 -1.3143808841705322 2912910 0 -1
3.9430270195007324 9.287714004516602 0.0773165225982666 2666112 0 -1
3.787508487701416 9.349654197692871 -0.2319495677947998 9360965 5 -1
3.787508487701416 9.349654197692871 -0.2319495677947998 10016830 5 -1
3.78806471824646 9.351027488708496 -0.1546330451965332 10672695 5 -1
3.7867298126220703 9.347731590270996 -0.3092660903930664 11197490 5 -1
-4.162402629852295 8.573184967041016 -3.412900924682617 4456788 0 -1
-4.109063148498535 9.246206283569336 -0.3102637231349945 4456788 0 -1
-4.4180121421813965 9.09965705871582 -0.38782966136932373 4456788 0 -1
-5.253168106079102 8.265910148620605 -2.559675693511963 4523353 0 -1
-5.253168106079102 8.265910148620605 -2.559675693511963 4523353 0 -1
-4.495521068572998 9.061614990234375 -0.38782966136932373 4523353 0 -1
-4.110511779785156 9.249465942382812 -0.15513186156749725 4523353 0 -1
-2.480287551879883 9.806669235229492 -0.38782966136932373 4523353 0 -1
3.9417858123779297 9.2847900390625 -0.8532252311706543 2912910 0 -1
3.955862522125244 9.317947387695312 0 2666112 0 -1
3.8002843856811523 9.381192207336426 -0.15513186156749725 4899181 5 -1
3.7967119216918945 9.372373580932617 -0.46539559960365295 10016830 5 -1
-2.4774420261383057 9.795418739318848 -0.620527446269989 10672695 0 -1
3.7989449501037598 9.377885818481445 -0.3102637231349945 10672695 5 -1
3.795259475708008 9.36878776550293 -0.5429615378379822 11197490 5 -1
-2.4908201694488525 9.230706214904785 3.423874855041504 4017546 0 -1
-2.3510468006134033 9.295671463012695 3.346059560775757 3757452 0 -1
-2.733396053314209 9.245688438415527 3.1904289722442627 3692940 0 -1
-2.3821969032287598 9.41883373260498 2.9569828510284424 3692940 0 -1
3.9262993335723877 9.248311996459961 -1.4784914255142212 3692940 0 -1
3.888939142227173 9.3761568069458 -0.3112613558769226 2458766 5 -1
3.810152292251587 9.40555191040039 -0.38907670974731445 2666112 5 -1
3.8125038146972656 9.411356925964355 0.1556306779384613 3651704 5 -1
3.8815042972564697 9.358231544494629 -0.7003380656242371 8705099 5 -1
3.871415853500366 9.333908081054688 -1.0115994215011597 10016830 5 -1
-2.566969633102417 9.821837425231934 -0.8587122559547424 4728182 0 -1
-2.519819736480713 9.338175773620605 3.2006547451019287 4212104 0 -1
-3.4369122982025146 9.356294631958008 2.10774827003479 4017546 0 -1
-2.9126079082489014 9.30118465423584 2.9664604663848877 4017546 0 -1
-2.607414960861206 9.366293907165527 3.044525146484375 4017546 0 -1
-3.3428659439086914 9.334653854370117 2.341942548751831 3887499 0 -1
-2.6608219146728516 9.271743774414062 3.278719425201416 3757452 0 -1
-2.3585822582244873 9.325465202331543 3.3567841053009033 3757452 0 -1
-2.7347335815429688 9.250212669372559 3.278719425201416 3692940 0 -1
-2.3839223384857178 9.42565631866455 3.044525146484375 3692940 0 -1
3.9014036655426025 9.406208038330078 0.3122589886188507 2328718 5 -1
3.824723482131958 9.441521644592285 -0.15612949430942535 4505456 5 -1
3.822364330291748 9.435697555541992 -0.3903237283229828 5949540 5 -1
3.900371789932251 9.40372085571289 -0.3903237283229828 11918891 5 -1
-2.566969633102417 9.821837425231934 -0.8587122559547424 12640037 0 -1
3.9644362926483154 9.338142395019531 -0.9367769956588745 12640037 0 -1
-2.4662742614746094 9.436553001403809 3.0542521476745605 4017546 0 -1
-2.5805158615112305 9.269667625427246 3.4458229541778564 3757452 0 -1
3.9138681888580322 9.436260223388672 0.3132566213607788 2523534 5 -1
3.914673089981079 9.438200950622559 -0.2349424660205841 5424489 5 -1
3.8372809886932373 9.472519874572754 -0.0783141553401947 5949540 5 -1
3.8363797664642334 9.470294952392578 -0.2349424660205841 8705099 5 -1
3.91570782661438 9.440695762634277 0 11918891 5 -1
3.6907527446746826 9.560622215270996 0.3142542541027069 4899181 5 -1
3.9277169704437256 9.469649314880371 -0.15712712705135345 5424489 5 -1
3.799450159072876 9.379132270812988 -1.6498348712921143 8705099 0 -1
3.838296890258789 9.475028038024902 -0.7856356501579285 12640037 5 -1
3.8583292961120605 8.881570816040039 3.46777081489563 2006409 0 -1
3.625396728515625 9.625535011291504 0 4899181 5 -1
3.7820229530334473 9.562155723571777 -0.23643891513347626 5949540 5 -1
3.761192798614502 9.509490966796875 -1.103381633758545 8705099 5 -1
3.7468678951263428 9.473272323608398 -1.4186334609985352 9360965 5 -1
3.8480935096740723 9.499211311340332 -0.8669427037239075 12640037 5 -1
-4.385179042816162 9.230926513671875 -1.4231228828430176 4456788 0 -1
3.707085371017456 9.602930068969727 -0.7115614414215088 2006409 5 -1
3.7089438438415527 9.607744216918945 -0.6324990391731262 2271109 5 -1
3.6364424228668213 9.654862403869629 -0.15812475979328156 4899181 5 -1
3.714186191558838 9.62132453918457 -0.3162495195865631 5949540 5 -1
3.7730953693389893 9.539584159851074 -1.1068732738494873 8705099 5 -1
3.7663660049438477 9.522570610046387 -1.2649980783462524 9360965 5 -1
3.7730953693389893 9.539584159851074 -1.1068732738494873 10016830 5 -1
3.7001900672912598 9.585068702697754 -0.9487485885620117 11918891 5 -1
3.6879000663757324 9.553232192993164 -1.2649980783462524 12640037 5 -1
3.7187795639038086 9.633223533630371 -0.7138060927391052 2070155 5 -1
3.7166948318481445 9.627822875976562 -0.793117880821228 2139270 5 -1
3.7187795639038086 9.633223533630371 -0.7138060927391052 2271109 5 -1
3.6482350826263428 9.686172485351562 -0.0793117880821228 4899181 5 -1
3.5686113834381104 9.714818000793457 0.1586235761642456 8705099 5 -1
3.720643997192383 9.638052940368652 -0.6344943046569824 9360965 5 -1
3.7849977016448975 9.569677352905273 -1.1103650331497192 11197490 5 -1
3.7091143131256104 9.608185768127441 -1.0310533046722412 11918891 5 -1
3.7036385536193848 9.594001770019531 -1.4321016073226929 2782862 5 -1
3.7235350608825684 9.64554214477539 -0.9547343850135803 2523534 5 -1
3.658095598220825 9.71235179901123 -0.3182447850704193 5424489 5 -1
3.659707546234131 9.716631889343262 -0.07956119626760483 8705099 5 -1
3.6598150730133057 9.716917037963867 0 9360965 5 -1
3.658095598220825 9.71235179901123 0.3182447850704193 10016830 5 -1
-4.389067649841309 9.444592475891113 0.1596212089061737 4456788 0 -1
-4.3863606452941895 9.438766479492188 0.39905303716659546 4523353 0 -1
3.86426043510437 9.102180480957031 3.2722349166870117 4341894 0 -1
3.673724412918091 9.288342475891113 2.9529924392700195 3562893 0 -1
3.7152485847473145 9.624076843261719 -1.4365909099578857 2782862 5 -1
3.5905282497406006 9.774481773376465 0.23943181335926056 2666112 5 -1
3.6703176498413086 9.74480152130127 0.23943181335926056 2994813 5 -1
3.5888404846191406 9.769887924194336 0.39905303716659546 4045940 5 -1
3.671180009841919 9.747091293334961 0.07981060445308685 8705099 5 -1
3.6685924530029297 9.74022102355957 -0.39905303716659546 9360965 5 -1
3.6660029888153076 9.733345985412598 0.5586742162704468 10016830 0 -1
-4.398644924163818 9.465200424194336 0.48036009073257446 4523353 0 -1
3.6483163833618164 9.224102973937988 3.2824604511260986 3562893 0 -1
3.835653781890869 9.697751998901367 0.640480101108551 2199437 0 -1
3.920060634613037 9.676865577697754 0.4003000557422638 2994813 5 -1
3.600055694580078 9.800418853759766 0.4003000557422638 4045940 5 -1
3.5874385833740234 9.766071319580078 -0.9607201814651489 7589974 5 -1
3.5359814167022705 9.62598991394043 -2.001500368118286 8705099 0 -1
3.67193341255188 9.749092102050781 -0.8006001114845276 9360965 5 -1
3.6291587352752686 9.175666809082031 -3.5336146354675293 2134668 0 -1
3.612968921661377 9.835573196411133 0.2409282624721527 2468738 5 -1
3.925793170928955 9.691017150878906 -0.7227848172187805 2468738 0 -1
3.9333128929138184 9.709579467773438 0.3212376832962036 2994813 0 -1
3.571235179901123 9.72196102142334 -1.606188416481018 3257723 0 -1
3.6413655281066895 9.667933464050293 -1.7668073177337646 8180304 0 -1
3.6460936069488525 9.680485725402832 -1.6864978075027466 8705099 0 -1
3.7527618408203125 9.721251487731934 -1.1243319511413574 9360965 5 -1
3.564587116241455 9.23379898071289 -3.544588565826416 2134668 0 -1
3.757401466369629 9.275333404541016 -3.222353219985962 2072968 0 -1
3.9469192028045654 9.743167877197266 0.16111765801906586 2468738 0 -1
3.9472668170928955 9.744025230407715 0.08055882900953293 2994813 0 -1
3.716146230697632 9.626401901245117 -2.0139708518981934 8180304 0 -1
3.7489535808563232 9.25447940826416 -3.3939459323883057 2072968 0 -1
3.8087027072906494 9.866162300109863 0.24317294359207153 2070155 0 -1
3.807919502258301 9.864133834838867 0.3242305815219879 2070922 0 -1
-7.771434783935547 6.675245761871338 -2.764439821243286 2328718 0 -1
-5.420478820800781 9.060762405395508 -1.056991696357727 2328718 0 -1
-0.23782283067703247 10.343111038208008 2.3579046726226807 2328718 0 -1
3.7361698150634766 9.91964054107666 0.487842321395874 2070922 0 -1
3.739136219024658 9.92751693725586 0.243921160697937 2072968 0 -1
-7.699746608734131 6.771553039550781 -2.8544762134552 2328718 0 -1
3.7476303577423096 9.950069427490234 0.48933878540992737 2070922 0 -1
-8.115083694458008 6.805100440979004 -1.0602340698242188 2666112 0 -1
-7.993245601654053 6.865768909454346 -1.7179232835769653 2666112 0 -1
-7.563440799713135 7.124142169952393 -2.454176187515259 2666112 0 -1
-7.723293304443359 6.792261123657227 -2.8632054328918457 2994813 0 -1
-5.087277889251709 9.422895431518555 -0.08205527812242508 2199437 0 -1
-0.1608208268880844 10.492886543273926 2.133437156677246 2199437 0 -1
-7.636837005615234 7.032932758331299 -2.6257688999176025 2468738 0 -1
-7.854160308837891 6.907352924346924 -2.2975478172302246 2994813 0 -1
-1.1114420890808105 10.300993919372559 2.707824230194092 2994813 0 -1
-7.6600494384765625 7.054309368133545 -2.6337499618530273 2468738 0 -1
-7.134608745574951 7.977501392364502 -1.2383114099502563 5949540 0 -1
-4.1969194412231445 9.234082221984863 3.632380247116089 5949540 0 -1
-1.6988837718963623 10.420331954956055 2.146406412124634 5949540 0 -1
-10.231898307800293 3.357945680618286 0.3302163779735565 10016830 0 -1
-7.858015060424805 7.401607036590576 0.49682101607322693 5424489 0 -1
-8.225475311279297 6.897672176361084 1.2420525550842285 5949540 0 -1
-7.010989189147949 7.839277267456055 2.484105110168457 5949540 0 -1
-3.0818238258361816 10.424242973327637 -0.1666046380996704 2718350 0 -1
-4.47170352935791 11.03862476348877 0.27385014295578003 4456788 0 -1
-4.472360134124756 11.040245056152344 0.18256676197052002 4523353 0 -1
1.2918962240219116 11.973467826843262 -0.09228101372718811 4536450 6 -1
1.3841745853424072 11.963150978088379 -0.09228101372718811 4341894 6 -1
1.2917824983596802 11.972413063049316 -0.18456202745437622 4212104 6 -1
1.2913272380828857 11.968194007873535 -0.36912405490875244 4147337 6 -1
1.2915928363800049 11.97065544128418 -0.27684304118156433 4017546 6 -1
1.2915928363800049 11.97065544128418 -0.27684304118156433 3887499 6 -1
1.2919341325759888 11.9738187789917 0 3757452 6 -1
-1.4592996835708618 11.813255310058594 -2.0356693267822266 4456788 0 -1
0.7359718084335327 11.983602523803711 -1.2954258918762207 4456788 0 -1
1.2923418283462524 11.9775972366333 -0.8327738046646118 4456788 6 -1
1.295273780822754 12.00477123260498 -0.18506084382534027 4536450 6 -1
1.3869372606277466 11.987029075622559 -0.4626521170139313 4341894 6 -1
1.2940561771392822 11.993485450744629 -0.5551825165748596 4212104 6 -1
1.2028955221176147 12.015804290771484 0 4147337 6 -1
1.2950835227966309 12.003007888793945 -0.2775912582874298 3887499 6 -1
1.2950835227966309 12.003007888793945 -0.2775912582874298 3757452 6 -1
1.2944748401641846 11.997365951538086 -0.4626521170139313 3562893 6 -1
-10.751495361328125 5.313193321228027 1.6700369119644165 4456788 0 -1
-1.9062235355377197 11.692078590393066 -2.5050554275512695 4456788 0 -1
-0.09029524773359299 11.7838134765625 -2.7833948135375977 4456788 0 -1
1.2038695812225342 12.025533676147461 -0.7422386407852173 4456788 6 -1
1.2865036725997925 11.92348861694336 -1.6700369119644165 4456788 0 -1
-1.0194989442825317 12.052569389343262 -0.5566789507865906 4456788 0 -1
1.206137776374817 12.048192024230957 0 4456788 6 -1
1.2979639768600464 12.029704093933105 -0.4638991355895996 4456788 6 -1
1.375258207321167 11.886089324951172 -1.8555965423583984 4456788 0 -1
0.9260534644126892 12.050111770629883 -0.7422386407852173 4456788 0 -1
1.2989176511764526 12.038542747497559 0 4456788 6 -1
1.2979639768600464 12.029704093933105 0.4638991355895996 4657508 0 -1
1.2989176511764526 12.038542747497559 0 4724328 6 -1
1.3492132425308228 11.66098690032959 -2.968954563140869 4471684 0 -1
1.4791947603225708 11.974309921264648 -1.020578145980835 4341894 6 -1
1.2970478534698486 12.021212577819824 0.6494588255882263 4147337 0 -1
1.2988795042037964 12.038188934326172 0.09277983009815216 3887499 6 -1
1.2983072996139526 12.032886505126953 -0.37111932039260864 3757452 6 -1
1.3867450952529907 11.985367774963379 -1.020578145980835 3562893 6 -1
1.3022563457489014 12.069486618041992 0.18605847656726837 4456788 6 -1
1.109908938407898 12.019767761230469 -1.302409291267395 4456788 0 -1
1.3754686117172241 11.887907028198242 -2.0466432571411133 4456788 0 -1
1.2084921598434448 12.071709632873535 -0.46514618396759033 4456788 6 -1
1.3010321855545044 12.058140754699707 0.5581754446029663 4456788 0 -1
1.209060549736023 12.077386856079102 -0.27908772230148315 4456788 6 -1
1.3022563457489014 12.069486618041992 -0.18605847656726837 4456788 6 -1
1.3023710250854492 12.070549964904785 -0.09302923828363419 4456788 6 -1
1.302409291267395 12.070903778076172 0 4590430 6 -1
0.9296093583106995 12.096382141113281 -0.46514618396759033 4471684 0 -1
1.2698473930358887 11.769116401672363 -2.697847843170166 4471684 0 -1
1.3023710250854492 12.070549964904785 0.09302923828363419 4212104 6 -1
1.2993086576461792 12.042166709899902 0.8372631072998047 4147337 0 -1
1.2600847482681274 11.678634643554688 -3.06996488571167 4017546 0 -1
1.4849241971969604 12.020689964294434 -0.8372631072998047 3757452 6 -1
1.305287480354309 12.097579002380371 -0.37311458587646484 4456788 6 -1
1.30494225025177 12.094379425048828 -0.46639323234558105 4456788 6 -1
1.3040212392807007 12.085843086242676 -0.6529505252838135 4456788 6 -1
1.3055559396743774 12.100067138671875 -0.27983593940734863 4456788 6 -1
1.302061676979065 12.067682266235352 -0.9327864646911621 4456788 6 -1
1.3990153074264526 12.09141731262207 0.18655729293823242 4456788 6 -1
1.3591336011886597 11.746726989746094 -2.8916380405426025 4729209 0 -1
1.2580626010894775 11.659892082214355 -3.2647526264190674 4600703 0 -1
1.3045201301574707 12.09046745300293 -0.5596718788146973 4212104 6 -1
1.260805368423462 11.68531322479248 -3.171473979949951 4147337 0 -1
1.3922207355499268 12.032692909240723 -1.2126224040985107 4017546 6 -1
1.291987419128418 11.974312782287598 -1.772294282913208 3757452 0 -1
1.307507872581482 12.118158340454102 -0.6546963453292847 4456788 6 -1
1.3084313869476318 12.126717567443848 -0.4676402509212494 4456788 6 -1
1.3084313869476318 12.126717567443848 0.4676402509212494 4456788 0 -1
1.3069303035736084 12.112805366516113 -0.7482244372367859 4456788 6 -1
1.306275486946106 12.106736183166504 -0.8417524695396423 4456788 6 -1
