VERSION .7
FIELDS x y z rgb label object
SIZE 4 4 4 4 4 4
TYPE F F F I I I
COUNT 1 1 1 1 1 1
WIDTH 681
HEIGHT 1
POINTS 681
VIEWPOINT 0 0 0 1 0 0 0
DATA ascii
-0.5434542894363403 0.3578369617462158 -0.019952651113271713 4456788 0 -1
0.49868446588516235 0.41818398237228394 -0.014964488334953785 4456788 0 -1
0.46625328063964844 0.400486558675766 0.21449099481105804 4456788 0 -1
-0.6039651036262512 0.22944366931915283 0.07981060445308685 4456788 0 -1
-0.5736616849899292 0.28349316120147705 0.11971590667963028 4456788 0 -1
0.6030074954032898 0.14268532395362854 -0.19952651858329773 4456788 0 -1
-0.5971137285232544 0.21177716553211212 -0.1496448814868927 4456788 0 -1
-0.5695701837539673 0.2936244308948517 -0.11472774296998978 4456788 0 -1
0.5093443989753723 0.35568395256996155 -0.19453835487365723 4456788 0 -1
-0.6104925274848938 0.2165221869945526 0.06484611332416534 4456788 0 -1
-0.5809036493301392 0.20602796971797943 -0.20950284600257874 4725613 0 -1
0.4132673144340515 0.47171807289123535 0.17458570003509521 4600703 0 -1
0.5387057662010193 0.3654575049877167 0.004988162778317928 2328718 0 -1
-0.6475493907928467 0.21251538395881653 0.052375711500644684 4456788 0 -1
0.5181388258934021 0.44505345821380615 -0.026187855750322342 4456788 0 -1
-0.5127392411231995 0.4509292542934418 0.03142542764544487 4456788 0 -1
0.6253825426101685 0.2673702538013458 -0.06808841973543167 4456788 0 -1
0.6592361330986023 0.17789436876773834 -0.03142542764544487 4456788 0 -1
0.5497996211051941 0.4058321416378021 -0.015712713822722435 4456788 0 -1
0.5802770853042603 0.3588162660598755 0.04190056771039963 4456788 0 -1
0.6440510153770447 0.2284243255853653 -0.015712713822722435 4456788 0 -1
0.6440510153770447 0.2284243255853653 -0.015712713822722435 4456788 0 -1
-0.6410171389579773 0.22734829783439636 0.06808841973543167 4456788 0 -1
0.4698345363140106 0.4525013267993927 0.2042652666568756 4724328 0 -1
0.5600733160972595 0.3463231921195984 0.1833149790763855 4724328 0 -1
0.5835230350494385 0.2756901681423187 0.22521555423736572 4724328 0 -1
0.5574101209640503 0.3558743894100189 0.17283983528614044 4725613 0 -1
0.538234531879425 0.38657382130622864 0.1676022708415985 4600703 0 -1
0.555400550365448 0.3322140574455261 0.2199779748916626 4600703 0 -1
0.5751762390136719 0.35566213726997375 0.09951385110616684 4341894 0 -1
0.5793015956878662 0.3582130968570709 0.05761327967047691 2328718 0 -1
0.6032043099403381 0.2980926036834717 0.12046413123607635 2328718 0 -1
0.6256674528121948 0.20533406734466553 0.1833149790763855 2328718 0 -1
-0.6491536498069763 0.21304187178611755 0.020950283855199814 2072968 0 -1
-0.6092596650123596 0.30108505487442017 0.0733259916305542 2072968 0 -1
0.493329793214798 0.46467629075050354 -0.08903870731592178 2072968 0 -1
0.5603542923927307 0.39130499958992004 -0.010475141927599907 2072968 0 -1
0.659623920917511 0.17799900472164154 -0.020950283855199814 2072968 0 -1
-0.6479126214981079 0.21263457834720612 0.047138139605522156 4899181 0 -1
0.5125430822372437 0.4507567584514618 -0.0366629958152771 4899181 0 -1
0.6650934219360352 0.1573762595653534 0.010475141927599907 4899181 0 -1
0.6551626920700073 0.2801021933555603 -0.071330726146698 4456788 0 -1
0.6906283497810364 0.1863655298948288 -0.03292187303304672 4456788 0 -1
-0.6079940795898438 0.36367300152778625 0.10425260663032532 4456788 0 -1
-0.6710039377212524 0.23798365890979767 0.07681770622730255 4456788 0 -1
-0.6234087944030762 0.26652640104293823 0.23045311868190765 4724328 0 -1
0.5916963815689087 0.3418862223625183 0.213992178440094 4724328 0 -1
0.583727240562439 0.33728161454200745 0.24142707884311676 4600703 0 -1
-0.6087647676467896 0.33925315737724304 0.1646093726158142 4341894 0 -1
0.6173644661903381 0.34404563903808594 0.11522655934095383 4341894 0 -1
-0.6529505252838135 0.29400524497032166 0 3257723 0 -1
0.6021307706832886 0.38442593812942505 -0.04938281327486038 3257723 0 -1
0.6585400104522705 0.28154608607292175 0.2179827094078064 4456788 0 -1
0.6120163202285767 0.3536272346973419 0.24666465818881989 4456788 0 -1
-0.6933689117431641 0.2802044153213501 0.03441832214593887 4456788 0 -1
-0.679728627204895 0.24107801914215088 0.20077355206012726 4657508 0 -1
0.5949018597602844 0.4272737205028534 0.15488246083259583 4657508 0 -1
0.6224746704101562 0.34689342975616455 0.22945548593997955 4657508 0 -1
-0.6445127129554749 0.2902059555053711 0.24666465818881989 4724328 0 -1
0.6161141991615295 0.3685300648212433 0.21224632859230042 4724328 0 -1
-0.6530521512031555 0.29405102133750916 0.2179827094078064 4725613 0 -1
-0.6530521512031555 0.29405102133750916 0.2179827094078064 4725613 0 -1
0.6085219979286194 0.4006807208061218 0.17209161818027496 4725613 0 -1
0.6082957983016968 0.36385348439216614 0.2409282624721527 4600703 0 -1
-0.04779630899429321 0.7782526016235352 -0.04788636416196823 4657508 0 -1
0.10769369453191757 0.7733585834503174 -0.023943182080984116 4657508 0 -1
0.15526017546653748 0.7637059688568115 0.053872156888246536 4657508 0 -1
0.6347434520721436 0.37967321276664734 0.25140342116355896 4600703 0 -1
0.0744503065943718 0.8062602281570435 -0.08105764538049698 4657508 0 -1
0.11220400780439377 0.8057475090026855 -0.018705610185861588 4657508 0 -1
-0.2274009734392166 0.7691818475723267 -0.13717447221279144 4664956 0 -1
0.14265726506710052 0.8341513872146606 0.006484611891210079 4657508 0 -1
-0.019453834742307663 0.8460633754730225 0 4725613 0 -1
0.07729964703321457 0.8371171951293945 -0.09726917743682861 4725613 0 -1
0.12317506223917007 0.8370490670204163 -0.019453834742307663 4725613 0 -1
-0.17357824742794037 1.6087465286254883 -0.17458570003509521 4657508 0 -1
0.274276465177536 1.6037604808807373 0.037411220371723175 4657508 0 -1
0.3660183548927307 1.549625039100647 -0.33670100569725037 4600703 0 -1
-0.17637550830841064 1.6346718072891235 -0.2289566695690155 4657508 0 -1
-0.05084190517663956 1.6580264568328857 -0.06359907984733582 4657508 0 -1
-0.1384272277355194 1.6364936828613281 -0.24167649447917938 4600703 0 -1
-0.12883274257183075 1.676413893699646 0.19453835487365723 4456788 0 -1
-0.03818713128566742 1.6607898473739624 0.3242305815219879 4456788 0 -1
0.29985907673835754 1.6027617454528809 0.4539228081703186 4456788 0 -1
1.2911458015441895 1.0565699338912964 0.285322904586792 4657508 0 -1
-0.05187537148594856 1.691729187965393 -0.012969223782420158 4341894 0 -1
0.3232773542404175 1.6563448905944824 0.1296922266483307 4341894 0 -1
-1.6700369119644165 0.5480794310569763 0 4523353 0 -1
-0.26617902517318726 1.7163938283920288 -0.2693607807159424 4657508 0 -1
-1.1578787565231323 1.2946721315383911 0.2693607807159424 4341894 0 -1
0.26703596115112305 1.637900948524475 -0.579125702381134 4341894 0 -1
0.30587002635002136 1.7084074020385742 0.4389583170413971 4456788 0 -1
0.3483484089374542 1.7134835720062256 0.38408854603767395 4456788 0 -1
0.6007546782493591 1.6354323625564575 0.4115234315395355 4456788 0 -1
0.8991851210594177 1.5030595064163208 0.37037110328674316 4456788 0 -1
-0.09597702324390411 1.7868056297302246 -0.05486978963017464 4657508 0 -1
0.1506747156381607 1.781284213066101 -0.09602213650941849 4657508 0 -1
-0.06592615693807602 1.7195011377334595 0.4938281178474426 4341894 0 -1
-0.06982608139514923 1.8212199211120605 -0.02793371118605137 4456788 0 -1
-0.08373960852622986 1.8195078372955322 -0.06983427703380585 4657508 0 -1
0.20934902131557465 1.8093628883361816 -0.06983427703380585 4657508 0 -1
-0.3824218809604645 1.677963376045227 0.600574791431427 4341894 0 -1
-0.06574562937021255 1.7147926092147827 -0.6145416498184204 4341894 0 -1
0.3256106376647949 1.7404052019119263 -0.4329725205898285 4341894 0 -1
-1.811832308769226 1.6308393478393555 -0.1309392750263214 4523353 0 -1
-1.8468725681304932 1.6242347955703735 0.26537024974823 4456788 0 -1
-1.8573737144470215 1.6334699392318726 -0.037910036742687225 4456788 0 -1
-1.8571009635925293 1.633230209350586 -0.05686505511403084 4523353 0 -1
-2.077632427215576 1.3264491558074951 -0.20850521326065063 4017546 0 -1
-2.0087010860443115 1.4427005052566528 -0.05686505511403084 4017546 0 -1
-1.5142186880111694 1.9516749382019043 -0.132685124874115 4017546 0 -1
-1.9072595834732056 1.4458870887756348 0.6255156397819519 5424489 0 -1
-1.8811496496200562 1.6543797254562378 -0.07681770622730255 4456788 0 -1
-1.8815364837646484 1.6547200679779053 -0.05761327967047691 4456788 0 -1
-1.8815364837646484 1.6547200679779053 -0.05761327967047691 4523353 0 -1
-1.8048127889633179 1.587245225906372 0.7105637788772583 4657508 0 -1
-1.9059721231460571 1.6762099266052246 -0.05836150422692299 4456788 0 -1
-1.9059721231460571 1.6762099266052246 -0.05836150422692299 4456788 0 -1
-1.9059721231460571 1.6762099266052246 -0.05836150422692299 4523353 0 -1
-1.9300106763839722 1.6973506212234497 -0.07881297171115875 4523353 0 -1
-1.707275390625 2.156820774078369 -0.6726537346839905 4456788 0 -1
-1.6254867315292358 2.2691500186920166 -0.47736719250679016 4456788 0 -1
-1.4294084310531616 2.4383983612060547 -0.17358806729316711 4456788 0 -1
-1.561145544052124 2.3601231575012207 -0.10849253833293915 4456788 0 -1
-1.4053841829299927 2.446845531463623 0.23868359625339508 4456788 0 -1
-1.61183500289917 2.2953362464904785 -0.3905731439590454 4456788 0 -1
-1.410237431526184 2.4552953243255615 -0.04339701682329178 4456788 0 -1
-1.5383764505386353 2.372647285461426 -0.15188956260681152 4456788 0 -1
-1.7771055698394775 2.1130688190460205 -0.6292567253112793 4456788 0 -1
-1.5383764505386353 2.372647285461426 -0.15188956260681152 4456788 0 -1
-1.563349962234497 2.3167717456817627 -0.45566868782043457 4456788 0 -1
-1.4097404479980469 2.454430103302002 -0.08679403364658356 4456788 0 -1
-1.5204554796218872 2.2986083030700684 -0.6509552597999573 4456788 0 -1
-1.4773825407028198 2.278576135635376 -0.8028448224067688 4657508 0 -1
-1.5303843021392822 2.360321283340454 -0.32547762989997864 4724328 0 -1
-1.6468746662139893 2.2536752223968506 -0.47736719250679016 2588302 0 -1
-1.3764581680297852 2.3008596897125244 0.9113373756408691 2588302 0 -1
-1.794253945350647 2.1334590911865234 -0.6584374904632568 4456788 0 -1
-1.794253945350647 2.1334590911865234 -0.6584374904632568 4456788 0 -1
-1.689629077911377 2.2665512561798096 -0.4609062373638153 4456788 0 -1
-1.5517005920410156 2.393197536468506 -0.2633749842643738 4456788 0 -1
-1.5723904371261597 2.3771231174468994 -0.285322904586792 4456788 0 -1
-1.9743844270706177 2.073314666748047 -0.08779166638851166 4456788 0 -1
-1.448562502861023 2.4710731506347656 0 4456788 0 -1
-1.2911200523376465 2.547424793243408 0.21947915852069855 4456788 0 -1
-1.4481797218322754 2.4704201221466064 -0.06584374606609344 4456788 0 -1
-2.1062653064727783 1.8958598375320435 -0.41701042652130127 4456788 0 -1
-1.7149460315704346 2.2103922367095947 -0.6145416498184204 4456788 0 -1
-1.4464772939682007 2.4675159454345703 -0.1536354124546051 4456788 0 -1
-1.7046852111816406 2.286748170852661 -0.2633749842643738 4456788 0 -1
-1.5772782564163208 2.384512424468994 -0.17558333277702332 4456788 0 -1
-1.6719837188720703 2.2880358695983887 -0.41701042652130127 4456788 0 -1
-1.5505516529083252 2.391425371170044 -0.285322904586792 4456788 0 -1
-1.4046666622161865 2.496286630630493 0 4456788 0 -1
-1.5772782564163208 2.384512424468994 -0.17558333277702332 4456788 0 -1
-1.5667858123779297 2.368649959564209 -0.37311458587646484 4456788 0 -1
-1.5555158853530884 2.3516123294830322 -0.5048021078109741 4456788 0 -1
-1.5772782564163208 2.384512424468994 -0.17558333277702332 4523353 0 -1
-1.5772782564163208 2.384512424468994 0.17558333277702332 4657508 0 -1
-1.5667858123779297 2.368649959564209 -0.37311458587646484 4724328 0 -1
-1.6463053226470947 2.2982122898101807 -0.4609062373638153 3757452 0 -1
-1.663537859916687 2.2764780521392822 -0.5048021078109741 2588302 0 -1
-1.563413381576538 2.363551616668701 -0.41701042652130127 7589974 0 -1
-2.171577215194702 1.8652682304382324 -0.4439464807510376 4456788 0 -1
-1.5072453022003174 2.469034194946289 -0.15538127720355988 4456788 0 -1
-2.141289472579956 1.8831599950790405 -0.5105384588241577 4456788 0 -1
-1.7344340085983276 2.2355103492736816 -0.6215251088142395 4456788 0 -1
-1.7031118869781494 2.3306334018707275 -0.24417057633399963 4456788 0 -1
-1.5737414360046387 2.4271910190582275 -0.15538127720355988 4456788 0 -1
-1.417246699333191 2.5186431407928467 0.19977591931819916 4456788 0 -1
-1.690983533859253 2.3140363693237305 -0.42174917459487915 4456788 0 -1
-1.5492445230484009 2.437751054763794 -0.2219732403755188 4456788 0 -1
-1.7808012962341309 2.204906940460205 -0.5993277430534363 4456788 0 -1
-1.6146385669708252 2.392777681350708 -0.24417057633399963 4456788 0 -1
-1.565565586090088 2.414581537246704 -0.3329598605632782 4456788 0 -1
-1.5811793804168701 2.3904101848602295 -0.42174917459487915 4456788 0 -1
-1.5731922388076782 2.3783352375030518 -0.5105384588241577 4456788 0 -1
-1.5861510038375854 2.397926092147827 -0.35515719652175903 4523353 0 -1
-1.5773810148239136 2.3846678733825684 -0.46614381670951843 4724328 0 -1
-1.6824417114257812 2.302347183227539 -0.5105384588241577 3757452 0 -1
-1.562582015991211 2.409979820251465 -0.37735453248023987 3757452 0 -1
-1.5729501247406006 2.4259707927703857 -0.47138139605522156 4456788 0 -1
-1.857224941253662 2.3462538719177246 -0.11472774296998978 4456788 0 -1
-1.8580983877182007 2.3473572731018066 -0.06883664429187775 4456788 0 -1
-1.8810378313064575 2.3290152549743652 -0.06883664429187775 4456788 0 -1
-1.8810378313064575 2.3290152549743652 -0.06883664429187775 4523353 0 -1
-1.8814797401428223 2.3295624256134033 -0.022945549339056015 4724328 0 -1
-1.8785709142684937 2.373220443725586 -0.04638991504907608 4456788 0 -1
-1.9710503816604614 2.2964046001434326 -0.06958486884832382 4456788 0 -1
-1.8779088258743286 2.3723840713500977 -0.09277983009815216 4456788 0 -1
-1.9701238870620728 2.2953250408172607 -0.1159747838973999 4523353 0 -1
-1.8782950639724731 2.3728718757629395 -0.06958486884832382 4523353 0 -1
-1.8785709142684937 2.373220443725586 -0.04638991504907608 4590430 0 -1
-1.9918348789215088 2.320619821548462 -0.09377746284008026 4456788 0 -1
-1.9918348789215088 2.320619821548462 -0.09377746284008026 4523353 0 -1
-1.875494122505188 2.4173226356506348 0.023444365710020065 4590430 0 -1
-2.0162153244018555 2.3013803958892822 0 4724328 0 -1
-2.0130245685577393 2.3453073501586914 0.09477509558200836 4456788 0 -1
-2.628077983856201 1.6250808238983154 -0.11846886575222015 4456788 0 -1
-2.0608136653900146 2.304280996322632 0.07108131796121597 4456788 0 -1
-1.9171663522720337 2.42197847366333 0.14216263592243195 4456788 0 -1
-2.1081886291503906 2.2610185146331787 -0.07108131796121597 4456788 0 -1
-1.9164329767227173 2.4210519790649414 0.16585642099380493 4456788 0 -1
-2.011841297149658 2.343928575515747 -0.14216263592243195 4456788 0 -1
-2.0068042278289795 2.338060140609741 -0.2606315016746521 4456788 0 -1
-2.0124921798706055 2.344686985015869 -0.11846886575222015 4456788 0 -1
-2.0124921798706055 2.344686985015869 -0.11846886575222015 4523353 0 -1
-2.008049726486206 2.3395113945007324 -0.2369377315044403 4590430 0 -1
-2.037604808807373 2.3257949352264404 -0.02369377389550209 4724328 0 -1
-2.037604808807373 2.3257949352264404 -0.02369377389550209 4017546 0 -1
-2.037126064300537 2.3252487182617188 -0.07108131796121597 3887499 0 -1
-2.0828120708465576 2.32887864112854 -0.04788636416196823 4456788 0 -1
-2.0588717460632324 2.350069999694824 -0.04788636416196823 4456788 0 -1
-2.0828120708465576 2.32887864112854 -0.04788636416196823 4523353 0 -1
-2.0342142581939697 2.369994640350342 -0.09577272832393646 4590430 0 -1
-2.842254638671875 1.7001007795333862 0.7003380656242371 4725613 0 -1
-2.8741538524627686 1.7191814184188843 0.4928304851055145 4728182 0 -1
-3.0693953037261963 1.0073264837265015 1.0115994215011597 4600703 0 -1
-2.719778299331665 1.8992677927017212 0.6743996143341064 4600703 0 -1
-2.475318670272827 2.0757386684417725 1.0115994215011597 4600703 0 -1
-2.8851675987243652 1.6670697927474976 0.5965842604637146 2072968 0 -1
-2.8635313510894775 1.7128275632858276 0.570645809173584 2666112 0 -1
-2.901789903640747 1.7357120513916016 0.4975692331790924 4456788 0 -1
-2.913602113723755 1.7427774667739868 0.39281782507896423 4456788 0 -1
-2.918452024459839 1.7456785440444946 0.34044212102890015 4456788 0 -1
-2.913602113723755 1.7427774667739868 0.39281782507896423 4523353 0 -1
-2.9109137058258057 1.7411695718765259 0.41900569200515747 4728182 0 -1
-2.7414774894714355 1.9144207239151 0.7070720791816711 4600703 0 -1
-2.4613349437713623 2.114154815673828 1.073702096939087 4600703 0 -1
-2.8948190212249756 1.7315424680709839 0.5499449372291565 2458766 0 -1
-2.905008316040039 1.7376371622085571 0.47138139605522156 2468738 0 -1
-2.8983936309814453 1.7336806058883667 0.5237571001052856 2666112 0 -1
-2.044084072113037 2.853504180908203 -0.5165242552757263 4456788 0 -1
-1.8678522109985352 2.998710870742798 -0.3262258470058441 4456788 0 -1
-2.442366123199463 2.5107293128967285 0.885897696018219 4657508 0 -1
-2.5637834072113037 2.5794966220855713 -0.25140342116355896 4456788 0 -1
-1.984553575515747 2.940964937210083 0.8380113840103149 4456788 0 -1
-2.257784366607666 2.795485496520996 -0.6145416498184204 4456788 0 -1
-2.2553937435150146 2.6817777156829834 -1.0056136846542358 4456788 0 -1
-2.2553937435150146 2.6817777156829834 -1.0056136846542358 4523353 0 -1
-2.681321382522583 2.4692883491516113 0.05586742237210274 4728182 0 -1
-2.714841604232788 2.387571334838867 -0.6763948798179626 4456788 0 -1
-2.7571709156036377 2.3682620525360107 -0.5636624097824097 4456788 0 -1
-2.8685717582702637 2.2320287227630615 0.5636624097824097 4456788 0 -1
-2.7272543907165527 2.45481538772583 0.2536480724811554 4456788 0 -1
-2.8400583267211914 2.2098424434661865 0.7609442472457886 4523353 0 -1
-2.761215925216675 2.4283554553985596 0.08454935997724533 4657508 0 -1
-2.9027762413024902 2.2586429119110107 -0.028183119371533394 2458766 0 -1
-2.748208999633789 2.4169163703918457 0.36638057231903076 2666112 0 -1
-2.779754161834717 2.4446587562561035 0.2558927536010742 4456788 0 -1
-2.8072714805603027 2.128183126449585 -1.1657336950302124 4456788 0 -1
-2.798577308654785 2.4038279056549072 0.39805540442466736 4456788 0 -1
-2.8048038482666016 2.4091761112213135 0.31275781989097595 4456788 0 -1
-2.7626469135284424 2.4296138286590576 0.48335298895835876 4456788 0 -1
-2.7879185676574707 2.3946726322174072 0.5117855072021484 4523353 0 -1
-2.8016581535339355 2.1799633502960205 1.080436110496521 3887499 0 -1
-2.776472568511963 2.441772699356079 0.31275781989097595 3238030 0 -1
-2.9569828510284424 2.2416787147521973 0 2458766 0 -1
-2.652495861053467 2.5546398162841797 0.4549204409122467 2458766 0 -1
-2.7745838165283203 2.4401116371154785 0.3411903381347656 2666112 0 -1
-2.9568960666656494 2.2416129112243652 -0.02843252755701542 4505456 0 -1
-2.81809139251709 2.4205892086029053 0.4589109718799591 4456788 0 -1
-2.8231263160705566 2.4249141216278076 0.4015471041202545 4456788 0 -1
-2.8206937313079834 2.4228246212005615 0.4302290380001068 4456788 0 -1
-2.809258460998535 2.4130022525787354 0.5449568033218384 4456788 0 -1
-2.809258460998535 2.4130022525787354 0.5449568033218384 4523353 0 -1
-2.968085527420044 2.2500956058502197 0.3728651702404022 4017546 0 -1
-2.846616506576538 2.158010244369507 1.1185954809188843 3887499 0 -1
-2.8274827003479004 2.4286558628082275 0.3441832363605499 3238030 0 -1
-2.982133150100708 2.260745048522949 -0.08604580909013748 2458766 0 -1
-2.8253891468048096 2.4268577098846436 0.3728651702404022 2666112 0 -1
-2.9795784950256348 2.3184027671813965 0.05786268785595894 4456788 0 -1
-2.456563949584961 2.862060070037842 -0.17358806729316711 4456788 0 -1
-2.9743244647979736 2.314314603805542 0.23145075142383575 4456788 0 -1
-2.833686590194702 2.4339847564697266 0.5496955513954163 4456788 0 -1
-2.8268795013427734 2.42813777923584 0.6075582504272461 4456788 0 -1
-2.8303701877593994 2.431136131286621 0.5786268711090088 4456788 0 -1
-2.8425965309143066 2.4416377544403076 0.4629015028476715 4456788 0 -1
-2.8268795013427734 2.42813777923584 0.6075582504272461 4456788 0 -1
-2.836829423904419 2.4366843700408936 0.520764172077179 4456788 0 -1
-2.8303701877593994 2.431136131286621 0.5786268711090088 4456788 0 -1
-2.8303701877593994 2.431136131286621 0.5786268711090088 4523353 0 -1
-2.833686590194702 2.4339847564697266 0.5496955513954163 4590430 0 -1
-2.8067877292633057 2.4108800888061523 -0.7522149682044983 4657508 0 -1
-2.8326973915100098 2.14745831489563 -1.2729791402816772 4017546 0 -1
-2.8640482425689697 2.1712253093719482 1.1572537422180176 3887499 0 -1
-2.6917226314544678 2.367239236831665 1.1861851215362549 3887499 0 -1
-2.9791409969329834 2.3180623054504395 -0.08679403364658356 2458766 0 -1
-2.8739612102508545 2.410029888153076 0.4339701533317566 2666112 0 -1
-2.9798409938812256 2.3186070919036865 -0.02893134392797947 5424489 0 -1
-2.9277241230010986 2.3958139419555664 0.43771129846572876 4456788 0 -1
-2.8109421730041504 2.4720871448516846 0.7003380656242371 4456788 0 -1
-2.9221444129943848 2.3912479877471924 0.49607279896736145 4456788 0 -1
-2.814953565597534 2.4756147861480713 0.6711573004722595 4456788 0 -1
-2.91908860206604 2.388747453689575 0.5252535343170166 4456788 0 -1
-2.814953565597534 2.4756147861480713 0.6711573004722595 4456788 0 -1
-2.91908860206604 2.388747453689575 0.5252535343170166 4456788 0 -1
-2.8067541122436523 2.4684040546417236 0.7295188307762146 4456788 0 -1
-2.814953565597534 2.4756147861480713 0.6711573004722595 4523353 0 -1
-2.8259339332580566 2.485271692276001 0.5836150646209717 4590430 0 -1
-2.9412782192230225 2.347628593444824 0.5836150646209717 4657508 0 -1
-2.786229372024536 2.507899045944214 0.6711573004722595 4657508 0 -1
-2.6400225162506104 2.5426266193389893 -1.1477762460708618 4456788 0 -1
-3.30641770362854 1.9104708433151245 -0.41202226281166077 4456788 0 -1
3.1724228858947754 2.0254099369049072 -0.7651841640472412 4456788 0 -1
-3.6395273208618164 0.9821236729621887 -0.7357540130615234 4523353 0 -1
-2.6613047122955322 2.5067312717437744 1.1772063970565796 4523353 0 -1
3.1446621417999268 2.0076863765716553 -0.9123349785804749 4523353 0 -1
-2.702854871749878 2.4328532218933105 -1.2360666990280151 4657508 0 -1
-3.6897571086883545 0.995678186416626 -0.3825920820236206 4724328 0 -1
-2.8517069816589355 2.566835641860962 0.17658096551895142 4724328 0 -1
-3.7356715202331543 1.0080680847167969 -0.17807741463184357 4456788 0 -1
-2.6573989391326904 2.6736857891082764 0.8903870582580566 4456788 0 -1
-2.559446334838867 2.8030190467834473 0.7716687917709351 4456788 0 -1
-3.610596179962158 1.0834940671920776 0.8903870582580566 4456788 0 -1
-2.547642946243286 2.907970666885376 -0.23743654787540436 4456788 0 -1
-3.6853597164154053 1.1059296131134033 -0.4451935291290283 4456788 0 -1
-3.3418569564819336 1.9309478998184204 -0.32647526264190674 4456788 0 -1
-2.642408609390259 2.7163710594177246 0.8013483881950378 4456788 0 -1
-2.580909490585327 2.885821580886841 -0.11871827393770218 4456788 0 -1
-1.7552896738052368 3.390540838241577 0.6529505252838135 4456788 0 -1
3.2177162170410156 1.9896856546401978 -0.8310279250144958 4456788 0 -1
-3.6783363819122314 1.103821873664856 -0.5045526623725891 4523353 0 -1
-2.9296388626098633 2.5164027214050293 -0.29679569602012634 4523353 0 -1
-2.6757848262786865 2.6921844482421875 0.7716687917709351 4523353 0 -1
-3.686108350753784 0.9946935772895813 -0.6529505252838135 4590430 0 -1
-2.6656458377838135 2.7402589321136475 0.6232709288597107 4590430 0 -1
-2.5780508518218994 2.5938515663146973 1.276221513748169 4657508 0 -1
-2.863217353820801 2.4010205268859863 1.1373010873794556 4456788 0 -1
-2.553349733352661 2.796342372894287 0.9577272534370422 4456788 0 -1
-2.8176698684692383 2.362825393676758 -1.3168749809265137 4523353 0 -1
-2.8176698684692383 2.362825393676758 -1.3168749809265137 4590430 0 -1
-2.48826265335083 3.3378772735595703 0.1596212089061737 4523353 0 -1
-2.5405242443084717 3.3406307697296143 0.1286945939064026 4456788 0 -1
-2.5416438579559326 3.3421027660369873 0.03217364847660065 4456788 0 -1
-2.5410468578338623 3.341317892074585 0.09652095288038254 4523353 0 -1
-2.5613465309143066 3.3680105209350586 0.03242305666208267 4456788 0 -1
-2.5607447624206543 3.3672194480895996 0.09726917743682861 4523353 0 -1
-4.474093437194824 2.766570568084717 -0.6911099553108215 4456788 0 -1
-3.2894537448883057 4.155604839324951 -0.243921160697937 4456788 0 -1
-4.542355060577393 2.71701979637146 -0.3658817410469055 4456788 0 -1
-4.201536655426025 3.017651081085205 1.1789523363113403 4726897 0 -1
-3.8696937561035156 3.245025634765625 1.62614107131958 4726897 0 -1
4.906887054443359 1.8641047477722168 0.7724170088768005 4726897 0 -1
-4.0248517990112305 3.1317272186279297 1.463526964187622 4471684 0 -1
-4.491852283477783 2.7775518894195557 -0.7771557569503784 4456788 0 -1
-3.3069071769714355 4.177654266357422 -0.3272234797477722 4456788 0 -1
-4.53231954574585 2.711016893386841 -0.7771557569503784 4456788 0 -1
-4.17979621887207 3.0852978229522705 1.2270880937576294 4726897 0 -1
4.90708589553833 1.9830528497695923 0.6953498721122742 4726897 0 -1
-3.7952370643615723 3.337726593017578 1.7179232835769653 4471684 0 -1
-4.83586311340332 1.7151262760162354 1.4725056886672974 3757452 0 -1
-4.335708141326904 2.941340446472168 1.0225733518600464 3757452 0 -1
-3.979860305786133 3.2567975521087646 1.4316027164459229 3757452 0 -1
-3.251652240753174 4.026047229766846 1.3088939189910889 3757452 0 -1
4.690008640289307 2.516350507736206 0.40902936458587646 3692940 0 -1
-3.8934342861175537 3.2649338245391846 1.6361174583435059 2912910 0 -1
4.99257755279541 1.638484239578247 0.9407675266265869 2912910 0 -1
-4.402535438537598 2.8988451957702637 1.02880859375 4456788 0 -1
-3.3046457767486572 4.009881019592285 1.3580273389816284 4456788 0 -1
4.90978479385376 2.09908390045166 0.5761328339576721 4456788 0 -1
-4.528990268707275 2.800516366958618 -0.6995898485183716 4456788 0 -1
-4.3282036781311035 3.022458791732788 0.9876562356948853 3757452 0 -1
-5.107532024383545 1.2085585594177246 1.2834542989730835 4456788 0 -1
-4.743101596832275 1.9167834520339966 1.7388736009597778 4456788 0 -1
-3.9114797115325928 3.3597512245178223 1.6146682500839233 4456788 0 -1
-4.12911319732666 3.1302666664123535 1.5318647623062134 4456788 0 -1
-4.590734958648682 2.8386964797973633 0.24841050803661346 4456788 0 -1
-4.8659820556640625 1.8485649824142456 1.4490612745285034 4726897 0 -1
-4.354435443878174 3.0407767295837402 0.9936420321464539 4726897 0 -1
-4.27106237411499 3.0675864219665527 1.2420525550842285 3757452 0 -1
-3.9607841968536377 3.321411609649658 1.5732665061950684 3757452 0 -1
4.950436592102051 2.0005717277526855 0.8280350565910339 3757452 0 -1
-4.429217338562012 2.9164140224456787 1.0350438356399536 3692940 0 -1
-4.780697345733643 1.9319766759872437 1.6146682500839233 2912910 0 -1
-3.8912534713745117 3.3423779010772705 1.6974718570709229 2912910 0 -1
-5.044429779052734 1.361235499382019 1.4994417428970337 4456788 0 -1
-4.21316385269165 3.1099281311035156 1.4577906131744385 4456788 0 -1
-4.616623401641846 2.8547046184539795 0.2915581166744232 4456788 0 -1
-4.895295143127441 1.8597009181976318 1.4577906131744385 4726897 0 -1
-4.380666732788086 3.0590946674346924 0.9996278285980225 4726897 0 -1
-3.8853626251220703 3.416987657546997 1.666046380996704 4726897 0 -1
-5.107032299041748 1.2084403038024902 1.4161394834518433 4471684 0 -1
-4.480815410614014 2.9503886699676514 0.874674379825592 4471684 0 -1
-4.153987407684326 3.1491236686706543 1.541092872619629 3757452 0 -1
-3.904097318649292 3.353410243988037 1.749348759651184 3757452 0 -1
-3.9146947860717773 3.3625128269195557 1.7076975107192993 2912910 0 -1
-5.128219127655029 1.2134536504745483 1.3328371047973633 2912910 0 -1
-4.046489715576172 3.229771137237549 1.7598237991333008 4456788 0 -1
-4.485634803771973 2.8638203144073486 1.2570170164108276 4456788 0 -1
-4.647548198699951 2.8738272190093994 0.20950284600257874 4456788 0 -1
-5.106625080108643 1.532433271408081 1.2151165008544922 4726897 0 -1
-4.256184101104736 3.2265987396240234 1.1732158660888672 4726897 0 -1
-3.8585777282714844 3.4731249809265137 1.7179232835769653 4726897 0 -1
5.031722545623779 2.033421039581299 0.670409083366394 4726897 0 -1
-4.678097724914551 2.8927175998687744 0.0842999517917633 4456788 0 -1
-4.553389549255371 2.815603494644165 -1.3991796970367432 4456788 0 -1
-4.516988277435303 3.9724719524383545 -0.27684304118156433 4456788 0 -1
-4.5196452140808105 3.97480845451355 -0.18456202745437622 4523353 0 -1
-4.542873859405518 3.995237112045288 -0.2319495677947998 4456788 0 -1
-4.545010089874268 3.9971158504486084 -0.13916973769664764 4523353 0 -1
-4.338963985443115 4.178890228271484 0.6030688881874084 2588302 0 -1
-4.661741256713867 3.9092161655426025 -0.18655729293823242 4456788 0 -1
-4.4243574142456055 4.167382717132568 -0.32647526264190674 4456788 0 -1
-4.661741256713867 3.9092161655426025 -0.18655729293823242 4456788 0 -1
-4.426050662994385 4.1689772605896 -0.27983593940734863 4456788 0 -1
-4.6639323234558105 3.9110536575317383 0 4523353 0 -1
-4.430605411529541 4.173267841339111 -0.046639323234558105 4523353 0 -1
-4.405168056488037 4.149307727813721 0.6529505252838135 4017546 0 -1
-4.262381553649902 4.288505554199219 0.6995898485183716 2588302 0 -1
-4.637075901031494 3.982999563217163 -0.2813323736190796 4456788 0 -1
-4.4511590003967285 4.192627429962158 -0.23444364964962006 4456788 0 -1
-4.6353020668029785 3.981475830078125 -0.3282211124897003 4523353 0 -1
-4.45325231552124 4.194599151611328 -0.1406661868095398 4523353 0 -1
-5.3945631980896 4.089600086212158 0.10375379025936127 4523353 0 -1
-5.915089130401611 3.049342632293701 -1.2450454235076904 4341894 0 -1
-5.431059837341309 4.008912563323975 -0.5187689065933228 4341894 0 -1
-4.293123245239258 5.209306716918945 -0.5187689065933228 4341894 0 -1
-5.872465133666992 3.1507790088653564 1.1931685209274292 3302798 0 -1
-5.492741107940674 3.616690158843994 1.608183741569519 3302798 0 -1
-5.405197620391846 4.097661972045898 -0.5212630033493042 4456788 0 -1
-5.418588638305664 4.107813358306885 -0.20850521326065063 4456788 0 -1
-5.418588638305664 4.107813358306885 -0.20850521326065063 4456788 0 -1
-5.420498847961426 4.109261512756348 -0.10425260663032532 4523353 0 -1
-5.6576972007751465 3.7253053188323975 -0.6255156397819519 4341894 0 -1
-4.2026543617248535 5.099531173706055 1.615915298461914 4341894 0 -1
-5.798077583312988 3.3501689434051514 1.1989049911499023 3302798 0 -1
-5.427690505981445 4.114713668823242 -0.5761328339576721 4456788 0 -1
-5.441314220428467 4.125041961669922 -0.3142542541027069 4456788 0 -1
-5.443074703216553 4.126376628875732 -0.2618785500526428 4456788 0 -1
-5.444514751434326 4.127468109130859 -0.20950284600257874 4523353 0 -1
-5.566221237182617 3.6650731563568115 1.5188956260681152 4341894 0 -1
-5.270059585571289 3.9952142238616943 1.7283984422683716 4341894 0 -1
-6.206305980682373 2.794524908065796 0.6285085082054138 4017546 0 -1
-5.833756923675537 3.3707847595214844 1.1522656679153442 4017546 0 -1
-4.829439163208008 4.754613876342773 0.8903870582580566 4017546 0 -1
-4.450577259063721 4.976374626159668 1.466519832611084 4017546 0 -1
-5.72947883605957 3.427100419998169 1.466519832611084 3302798 0 -1
-4.611773490905762 4.946096420288086 0.9951384663581848 2718350 0 -1
-6.035318374633789 3.111323118209839 0.7856356501579285 2588302 0 -1
-5.0731306076049805 4.566349983215332 0.366629958152771 2588302 0 -1
-4.782215595245361 4.811525344848633 0.8380113840103149 2588302 0 -1
-6.162163734436035 2.9113640785217285 0.5237571001052856 2070155 0 -1
-5.699944496154785 3.639087438583374 0.9951384663581848 2070155 0 -1
-6.253825664520264 2.6737027168273926 0.6808842420578003 2072968 0 -1
-5.627252101898193 3.70525860786438 1.1522656679153442 2072968 0 -1
-4.697981357574463 4.8294806480407715 1.1522656679153442 2072968 0 -1
-4.25658655166626 5.06129789352417 1.7283984422683716 2072968 0 -1
-5.5022292137146 4.061445713043213 -0.6315014362335205 4456788 0 -1
-5.521580696105957 4.075729846954346 -0.26312559843063354 4456788 0 -1
-5.523041248321533 4.076808452606201 -0.21050047874450684 4523353 0 -1
-5.248451232910156 3.978832960128784 1.9471293687820435 4341894 0 -1
-5.787391662597656 3.343994617462158 1.5787535905838013 3302798 0 -1
-5.768977165222168 4.143426895141602 -1.3288465738296509 4456788 0 -1
-4.634185314178467 5.2896246910095215 -1.6610581874847412 4456788 0 -1
-4.322451591491699 5.683753967285156 -1.1073721647262573 4456788 0 -1
-4.027525424957275 5.968501567840576 -0.609054684638977 4456788 0 -1
-4.693844795227051 5.5812201499938965 -0.6734020113945007 4456788 0 -1
-4.432058334350586 5.827879905700684 -0.16835050284862518 4456788 0 -1
-3.0860633850097656 6.640728950500488 -0.11223366111516953 4456788 0 -1
-2.445542573928833 6.828958988189697 1.0101029872894287 4456788 0 -1
-3.347580671310425 6.466231346130371 -0.7856356501579285 5424489 0 -1
-4.192223072052002 5.512511730194092 -2.480114459991455 4456788 0 -1
-2.8125040531158447 6.3286919593811035 -2.480114459991455 4456788 0 -1
-2.568341016769409 6.653097629547119 -1.8037196397781372 4456788 0 -1
-3.2304255962371826 6.373742580413818 1.747353434562683 4456788 0 -1
-3.1915833950042725 6.573615550994873 -0.8454936146736145 5424489 0 -1
-2.9426305294036865 6.7737040519714355 0.22646258771419525 2328718 0 -1
-2.649662971496582 6.86375617980957 0.6793878078460693 2328718 0 -1
-2.479478359222412 6.749875068664551 -1.6984694004058838 2994813 0 -1
-3.1494650840759277 6.62971305847168 -0.8492347002029419 5424489 0 -1
-3.10188364982605 6.529552936553955 -1.5286225080490112 8180304 0 -1
-2.53934383392334 6.577982425689697 -2.208010196685791 8180304 0 -1
-3.181281805038452 6.55239725112915 -1.4216264486312866 2718350 0 -1
-3.498161554336548 6.216716289520264 -2.0471420288085938 2134668 0 -1
-3.498161554336548 6.216716289520264 -2.0471420288085938 2134668 0 -1
-3.7881951332092285 6.081692218780518 -1.933411955833435 10016830 0 -1
-3.521399974822998 6.3884782791137695 -1.3647613525390625 10016830 0 -1
-2.5199694633483887 6.690593242645264 -1.9902769327163696 10016830 0 -1
-1.973319172859192 7.088510036468506 -0.9667059779167175 10016830 0 -1
-3.8353633880615234 6.1574177742004395 -1.7134339809417725 4456788 0 -1
-3.1391780376434326 6.608058452606201 -1.4278615713119507 2199437 0 -1
-3.1219482421875 6.430189609527588 -2.1132352352142334 2134668 0 -1
-2.464695930480957 6.709632873535156 -2.1132352352142334 2468738 0 -1
-2.6707260608673096 6.59282112121582 -2.227464199066162 6933851 0 -1
-3.152886152267456 6.6369147300720215 -1.4340968132019043 2199437 0 -1
-3.1123733520507812 6.410468578338623 -2.2945549488067627 2134668 0 -1
-2.8622829914093018 6.440703868865967 -2.524010419845581 2271109 0 -1
-3.2496278285980225 6.550270080566406 -1.606188416481018 6343264 0 -1
-2.2900354862213135 6.92034387588501 -1.8436249494552612 6343264 0 -1
-2.9594507217407227 6.970921039581299 -0.40678468346595764 4456788 0 -1
-2.9511618614196777 6.951396942138672 -0.6973451375961304 4456788 0 -1
-2.9550037384033203 6.960446357727051 -0.5811209678649902 4456788 0 -1
-3.2295756340026855 6.651866912841797 -1.6852507591247559 6933851 0 -1
-2.9616332054138184 6.976061820983887 -0.7586995959281921 4456788 0 -1
-2.9326953887939453 7.414785861968994 -0.12220998853445053 4456788 0 -1
-2.9329535961151123 7.415438652038574 -0.061104994267225266 4456788 0 -1
-2.9288177490234375 7.40498161315918 -0.42773497104644775 4456788 0 -1
-2.9326953887939453 7.414785861968994 -0.12220998853445053 4456788 0 -1
-2.929938316345215 7.407815456390381 -0.366629958152771 4456788 0 -1
-3.217102289199829 7.239117622375488 -0.9165748953819275 4456788 0 -1
-3.2141339778900146 7.232438564300537 -0.9776799082756042 4456788 0 -1
-2.9436278343200684 7.4424262046813965 -0.24541760981082916 4456788 0 -1
-2.9442331790924072 7.4439568519592285 -0.18406321108341217 4456788 0 -1
-2.9436278343200684 7.4424262046813965 -0.24541760981082916 4456788 0 -1
-3.235610246658325 7.280764579772949 -0.7976072430610657 4456788 0 -1
-3.2302331924438477 7.268665313720703 -0.9203160405158997 4456788 0 -1
-3.2240772247314453 7.254812717437744 -1.0430248975753784 4456788 0 -1
-3.233797788619995 7.276686191558838 -1.1088685989379883 4456788 0 -1
-4.49232292175293 6.6572980880737305 -0.3696228563785553 4456788 0 -1
-3.691422700881958 7.440794944763184 1.6211528778076172 4505456 0 -1
-1.6680357456207275 8.204865455627441 1.2320761680603027 11197490 0 -1
-5.192702293395996 7.105983734130859 -1.2255916595458984 4456788 0 -1
-3.881777286529541 7.824492931365967 -1.6341221332550049 4456788 0 -1
-5.448724746704102 6.883437156677246 -1.5717700719833374 4456788 0 -1
-5.035576343536377 7.315138339996338 -0.8200539946556091 4456788 0 -1
-3.844496965408325 7.918403625488281 -1.4350944757461548 4456788 0 -1
-5.657179832458496 6.7266740798950195 -1.85858952999115 4456788 0 -1
-5.312052249908447 7.125846862792969 -1.3078962564468384 4456788 0 -1
-3.6272895336151123 8.162120819091797 -0.9637130498886108 4456788 0 -1
-5.600614070892334 6.795825958251953 -1.934409499168396 4456788 0 -1
-3.6372952461242676 8.184635162353516 -1.0362908840179443 4456788 0 -1
-4.490593433380127 7.818352699279785 0 4456788 0 -1
-5.474555969238281 7.056149482727051 -1.4560446739196777 4456788 0 -1
-4.977476596832275 7.524896144866943 -0.693354606628418 4456788 0 -1
-3.708332061767578 8.159090042114258 -1.2480382919311523 4456788 0 -1
-3.1186299324035645 8.489835739135742 -0.2773418426513672 4456788 0 -1
-4.492853164672852 7.984420299530029 -0.5626647472381592 4456788 0 -1
2.729442596435547 8.967812538146973 0.07182954251766205 2271109 5 -1
2.729522705078125 8.9680757522583 0 2468738 5 -1
-0.9337566494941711 9.32735824584961 0.07182954251766205 11918891 4 -1
-0.8619292378425598 9.334269523620605 -0.07182954251766205 12640037 4 -1
-0.9335373640060425 9.325167655944824 -0.21548862755298615 13164576 4 -1
2.6662166118621826 9.018454551696777 0.21623685956001282 2072968 5 -1
2.738919734954834 8.998950958251953 0.07207895070314407 2271109 5 -1
-1.0088386535644531 9.350051879882812 -0.21623685956001282 4045940 4 -1
-0.9370263814926147 9.36001968383789 0 8180304 4 -1
-0.9367787837982178 9.35754680633545 0.21623685956001282 11197490 4 -1
-0.9365861415863037 9.355622291564941 0.2883158028125763 11918891 4 -1
-0.864922046661377 9.366680145263672 0.07207895070314407 12640037 4 -1
-0.864845871925354 9.36585521697998 -0.14415790140628815 13164576 4 -1
2.675835132598877 9.050989151000977 0.1446567177772522 2006409 5 -1
2.675835132598877 9.050989151000977 0.1446567177772522 2072968 5 -1
2.6760706901550293 9.051786422729492 0.0723283588886261 2271109 5 -1
-0.9401582479476929 9.391304016113281 0.1446567177772522 7589974 4 -1
-0.9401582479476929 9.391304016113281 0.1446567177772522 8180304 4 -1
-0.9398269653320312 9.387994766235352 0.2893134355545044 8705099 4 -1
-0.8663080930709839 9.381690979003906 -0.5786268711090088 12640037 4 -1
-0.8679148554801941 9.399090766906738 -0.0723283588886261 13164576 4 -1
2.757955312728882 9.061492919921875 0 2070922 5 -1
-1.0886346101760864 9.408856391906738 0.07257776707410812 2006409 4 -1
2.757631301879883 9.060428619384766 -0.14515553414821625 2006409 5 -1
-1.088538646697998 9.408027648925781 0.14515553414821625 2072968 4 -1
2.6852986812591553 9.082999229431152 0.07257776707410812 2072968 5 -1
-1.0870994329452515 9.395587921142578 0.5080443620681763 3651704 4 -1
-0.7254366874694824 9.439620971679688 0.2903110682964325 3651704 4 -1
-0.8707031011581421 9.429286003112793 0.21773330867290497 10672695 4 -1
-0.8705240488052368 9.427347183227539 -0.2903110682964325 11197490 4 -1
-0.8708309531211853 9.430670738220215 -0.14515553414821625 13164576 4 -1
-1.0918943881988525 9.437030792236328 0.2913087010383606 2199437 4 -1
-1.0924077033996582 9.441466331481934 0 2070155 4 -1
-1.092375636100769 9.441189765930176 0.07282717525959015 2006409 4 -1
-1.0922794342041016 9.44035816192627 0.1456543505191803 2072968 4 -1
-1.0194607973098755 9.448498725891113 0.1456543505191803 3257723 4 -1
-0.8722826242446899 9.446392059326172 0.5826174020767212 3651704 4 -1
-1.0191015005111694 9.445169448852539 0.2913087010383606 4045940 4 -1
-1.0193110704421997 9.447111129760742 0.21848152577877045 4505456 4 -1
-0.8735155463218689 9.45974349975586 0.2913087010383606 10672695 4 -1
-0.8739004731178284 9.463912963867188 -0.07282717525959015 11197490 4 -1
-1.0956337451934814 9.46934986114502 -0.2923063337802887 3562893 4 -1
-1.0956337451934814 9.46934986114502 -0.2923063337802887 3432845 4 -1
-1.0949897766113281 9.463783264160156 0.43845951557159424 2199437 4 -1
-1.0961487293243408 9.473800659179688 0 2006409 4 -1
-1.095859169960022 9.471297264099121 0.21922975778579712 2072968 4 -1
-1.0228018760681152 9.479464530944824 0.21922975778579712 3257723 4 -1
-0.9492981433868408 9.482603073120117 0.36538293957710266 3651704 4 -1
-1.0228018760681152 9.479464530944824 0.21922975778579712 4045940 4 -1
-1.022321105003357 9.475008964538574 0.36538293957710266 4505456 4 -1
-1.0995992422103882 9.503622055053711 -0.2199779748916626 3692940 4 -1
-1.0997607707977295 9.50501823425293 -0.1466519832611084 3562893 4 -1
-1.0997607707977295 9.50501823425293 -0.1466519832611084 3432845 4 -1
-1.0997607707977295 9.50501823425293 -0.1466519832611084 2782862 4 -1
2.859377861022949 9.13119888305664 0.1466519832611084 2070922 5 -1
-1.0987268686294556 9.496082305908203 0.4399559497833252 2072968 4 -1
2.7123448848724365 9.174483299255371 0.2199779748916626 2072968 5 -1
-0.9911143779754639 9.18578052520752 2.4930837154388428 2468738 0 -1
-0.9518657326698303 9.508251190185547 0.5132819414138794 3651704 4 -1
-1.025478482246399 9.504271507263184 0.4399559497833252 4045940 4 -1
-0.8417859077453613 9.116127967834473 -2.7863876819610596 11197490 0 -1
-1.1035014390945435 9.537347793579102 -0.14715079963207245 3562893 4 -1
-1.1031125783920288 9.533987045288086 -0.2943015992641449 3432845 4 -1
-1.1035014390945435 9.537347793579102 -0.14715079963207245 2782862 4 -1
-1.1036310195922852 9.538468360900879 0 2199437 4 -1
2.72101092338562 9.203795433044434 -0.2943015992641449 2199437 5 -1
2.7215704917907715 9.2056884765625 -0.22072620689868927 2070155 5 -1
2.648636817932129 9.229284286499023 -0.07357539981603622 2070922 5 -1
2.648636817932129 9.229284286499023 -0.07357539981603622 2070922 5 -1
-0.7355595827102661 9.571342468261719 0.22072620689868927 6343264 4 -1
-0.8091155886650085 9.56540584564209 0.22072620689868927 6933851 4 -1
-0.14721553027629852 9.605198860168457 0.7382481098175049 4456788 0 -1
-1.1070795059204102 9.568272590637207 -0.22147442400455475 3562893 4 -1
-1.1034315824508667 9.536744117736816 -0.8120729327201843 3432845 4 -1
-1.1041165590286255 9.54266357421875 0.7382481098175049 2523534 4 -1
-0.6521186828613281 9.43371295928955 1.8456202745437622 2523534 0 -1
-1.1072421073913574 9.56967830657959 0.1476496160030365 2199437 4 -1
2.7311971187591553 9.238250732421875 -0.1476496160030365 2199437 5 -1
2.7311971187591553 9.238250732421875 -0.1476496160030365 2070155 5 -1
2.6576151847839355 9.26056957244873 -0.07382480800151825 2070922 5 -1
2.805013418197632 9.216106414794922 -0.1476496160030365 2271109 5 -1
-0.7364905476570129 9.583456993103027 -0.6644232869148254 4899181 4 -1
-0.738053023815155 9.603788375854492 -0.22147442400455475 6343264 4 -1
-0.7396758794784546 9.624905586242676 -0.5185195207595825 4212104 4 -1
-0.7407422065734863 9.63878059387207 0 3562893 4 -1
-0.7401983141899109 9.63170337677002 -0.37037110328674316 3432845 4 -1
-0.7389786839485168 9.615833282470703 -0.6666679382324219 3302798 4 -1
-0.7407204508781433 9.638497352600098 -0.07407421618700027 2588302 4 -1
-0.7393491864204407 9.620654106140137 -0.5925937294960022 2328718 4 -1
2.7400219440460205 9.268099784851074 -0.22222265601158142 2070922 5 -1
2.814737558364868 9.248056411743164 -0.07407421618700027 2271109 5 -1
-0.7403941750526428 9.634251594543457 -0.2962968647480011 4899181 4 -1
-0.7336627840995789 9.546661376953125 -1.3333358764648438 7589974 4 -1
-0.6622498631477356 9.580273628234863 -1.1111133098602295 9360965 4 -1
-4.366517543792725 8.615290641784668 -0.8918834924697876 4456788 0 -1
-4.029299259185791 8.670426368713379 -1.6351197957992554 4456788 0 -1
-0.7395396828651428 9.623133659362793 -0.9662071466445923 4523353 4 -1
-0.7421663999557495 9.657312393188477 -0.5202654004096985 4212104 4 -1
-0.7421663999557495 9.657312393188477 -0.5202654004096985 3562893 4 -1
-0.7424503564834595 9.66100788116455 -0.4459417462348938 3432845 4 -1
-0.7424503564834595 9.66100788116455 -0.4459417462348938 3302798 4 -1
-0.7418385744094849 9.653046607971191 -0.5945889949798584 3238030 4 -1
-1.1147234439849854 9.634337425231934 0.1486472487449646 2588302 4 -1
-0.7432144284248352 9.670949935913086 -0.0743236243724823 2588302 4 -1
2.747955083847046 9.294934272766113 -0.3716181218624115 2070922 5 -1
2.7498934268951416 9.301490783691406 -0.0743236243724823 2072968 5 -1
2.8242149353027344 9.279194831848145 0.0743236243724823 2271109 5 -1
-0.6575044989585876 9.511626243591309 1.7837669849395752 9360965 0 -1
-0.43289774656295776 9.406072616577148 2.4609100818634033 4456788 0 -1
-1.4162219762802124 9.62408447265625 0.2982921302318573 4456788 0 -1
-4.436258792877197 8.569136619567871 -1.2677415609359741 4456788 0 -1
-3.5727741718292236 9.033108711242676 -0.5965842604637146 4456788 0 -1
-2.598999261856079 9.336063385009766 0.8948764204978943 4456788 0 -1
-1.5660337209701538 9.605478286743164 0 4456788 0 -1
-0.4391520023345947 9.54196548461914 1.8643258810043335 4456788 0 -1
-0.7439549565315247 9.680586814880371 -0.6711573004722595 4212104 4 -1
-0.742021381855011 9.655426025390625 -0.9694494605064392 2458766 4 -1
2.757176637649536 9.326126098632812 -0.3728651702404022 2070922 5 -1
2.6097497940063477 9.374680519104004 -0.14914606511592865 2139270 5 -1
2.4277164936065674 8.996850967407227 -2.9180753231048584 2458766 0 -1
2.7450690269470215 9.01915454864502 -2.5439629554748535 2328718 0 -1
2.8431694507598877 9.341471672058105 -0.07482244074344635 2070922 5 -1
2.8431694507598877 9.341471672058105 -0.07482244074344635 2006409 5 -1
2.618093490600586 9.40465259552002 -0.22446732223033905 2072968 5 -1
2.693528890609741 9.385712623596191 -0.07482244074344635 2139270 5 -1
2.684676170349121 9.354865074157715 -1.1260777711868286 4536450 5 -1
2.689145088195801 9.370436668395996 -0.9759340882301331 4471684 5 -1
2.692969560623169 9.383763313293457 -0.8257903456687927 4341894 5 -1
2.69464111328125 9.389588356018066 -0.7507185339927673 3887499 5 -1
2.627206325531006 9.437387466430664 -0.15014369785785675 3562893 5 -1
2.9277985095977783 9.092707633972168 -2.177083730697632 2328718 0 -1
2.852646589279175 9.37260913848877 0.07507184892892838 2070922 5 -1
2.6275148391723633 9.438495635986328 0 2072968 5 -1
2.777658462524414 9.395405769348145 0 2139270 5 -1
2.552143096923828 9.457962989807129 -0.15014369785785675 2468738 5 -1
2.552367925643921 9.458795547485352 -0.07507184892892838 2666112 5 -1
2.552443027496338 9.459074020385742 0 2994813 5 -1
2.6231324672698975 9.42275333404541 -0.9791763424873352 4600703 5 -1
2.635547399520874 9.467350959777832 0.2259637713432312 3562893 5 -1
2.679535388946533 9.336952209472656 -1.506425142288208 3238030 0 -1
2.4890389442443848 8.941065788269043 -3.238814115524292 2264205 0 -1
2.560621976852417 9.489384651184082 0.1506425142288208 2139270 5 -1
2.560847520828247 9.490220069885254 0.0753212571144104 2271109 5 -1
2.560922861099243 9.490499496459961 0 2468738 5 -1
2.635934591293335 9.468740463256836 -0.1506425142288208 2666112 5 -1
2.560621976852417 9.489384651184082 -0.1506425142288208 2994813 5 -1
2.34782338142395 8.983331680297852 3.3251092433929443 4456788 0 -1
2.6318182945251465 9.453954696655273 -0.9824186563491821 4600703 5 -1
2.5364484786987305 9.111369132995605 -2.796114683151245 3562893 0 -1
2.5693273544311523 9.521644592285156 0.07557066529989243 2006409 5 -1
2.567516326904297 9.514933586120605 0.3778533339500427 2072968 5 -1
2.568723678588867 9.519408226013184 0.22671200335025787 2139270 5 -1
2.568723678588867 9.519408226013184 0.22671200335025787 2271109 5 -1
