VERSION .7
FIELDS x y z rgb label object
SIZE 4 4 4 4 4 4
TYPE F F F I I I
COUNT 1 1 1 1 1 1
WIDTH 697
HEIGHT 1
POINTS 697
VIEWPOINT 0 0 0 1 0 0 0
DATA ascii
-3.869462013244629 3.8095102310180664 -0.24990695714950562 4456788 0 -1
-3.857933759689331 3.6338577270507812 1.207883596420288 4523353 0 -1
-3.857933759689331 3.6338577270507812 1.207883596420288 4523353 0 -1
-4.414504528045654 3.170610189437866 -0.0833023190498352 4726897 0 -1
-3.4985947608947754 4.160006999969482 0.0416511595249176 4726897 0 -1
-3.8060693740844727 3.505093812942505 1.666046380996704 4471684 0 -1
-4.527507781982422 2.8905539512634277 0.833023190498352 4341894 0 -1
-4.074102878570557 3.2518110275268555 1.541092872619629 4341894 0 -1
-3.1478688716888428 4.139251232147217 1.5827441215515137 4341894 0 -1
-4.311194896697998 3.3545303344726562 0.25140342116355896 4456788 0 -1
-4.10613489151001 3.6111464500427246 -0.04190056771039963 4456788 0 -1
-3.5606071949005127 4.148343563079834 -0.12570171058177948 4523353 0 -1
-4.781198501586914 2.6644721031188965 -0.5479496717453003 4456788 0 -1
-4.339407920837402 3.3764827251434326 0.1685999035835266 4456788 0 -1
-4.084224700927734 3.6762309074401855 0.2528998553752899 4456788 0 -1
-3.7473812103271484 4.019042015075684 -0.2528998553752899 4456788 0 -1
-3.457123279571533 4.1948981285095215 0.8429995179176331 4456788 0 -1
-4.62545919418335 2.953090190887451 0.37934979796409607 4456788 0 -1
-3.5722148418426514 4.161867618560791 -0.42149975895881653 4523353 0 -1
-3.464066982269287 4.203324317932129 0.9751858115196228 4456788 0 -1
-4.644174575805664 2.965038776397705 0.5087926387786865 4456788 0 -1
-4.702876567840576 2.9080393314361572 -0.211996927857399 4523353 0 -1
-3.4537086486816406 4.276224136352539 0.6359907388687134 4724328 0 -1
-4.35631799697876 4.0118303298950195 -0.6389836668968201 4456788 0 -1
-4.101839065551758 4.307369232177734 -0.31949183344841003 4456788 0 -1
-3.879429817199707 4.5197930335998535 0.045641690492630005 4456788 0 -1
-5.0182271003723145 3.203850030899048 -0.18256676197052002 4456788 0 -1
-4.010686874389648 4.392368793487549 -0.31949183344841003 4456788 0 -1
-2.829784870147705 5.24146032333374 0 4456788 0 -1
-4.1890387535095215 4.214713096618652 -0.41077521443367004 4456788 0 -1
-4.275052070617676 4.117336273193359 -0.5020585656166077 4456788 0 -1
-4.5888285636901855 3.6626477241516113 -1.0041171312332153 4456788 0 -1
-4.101839065551758 4.307369232177734 -0.31949183344841003 4456788 0 -1
-3.529719114303589 4.734938144683838 -0.7759087085723877 4456788 0 -1
-3.101356267929077 5.080364227294922 -0.22820845246315002 4456788 0 -1
-3.635500907897949 4.501311302185059 -1.4148924350738525 4590430 0 -1
-3.9233412742614746 4.478241920471191 0.18256676197052002 4657508 0 -1
-4.376349449157715 4.030277252197266 -0.6883664727210999 4456788 0 -1
-4.209568500518799 4.235368728637695 -0.4589109718799591 4456788 0 -1
-4.322508811950684 4.071449279785156 -0.7801486849784851 4456788 0 -1
-3.854739189147949 4.5834808349609375 -0.04589109867811203 4456788 0 -1
-4.56866979598999 3.7386319637298584 -1.0096042156219482 4456788 0 -1
-4.337971210479736 4.0860137939453125 -0.5965842604637146 4456788 0 -1
-4.079988956451416 4.37576150894165 -0.275346577167511 4456788 0 -1
-3.290161609649658 4.974031448364258 -0.550693154335022 4456788 0 -1
-2.797301769256592 5.29073429107666 0.22945548593997955 4456788 0 -1
-2.222101926803589 5.485369682312012 0.9178219437599182 4456788 0 -1
1.007264256477356 5.625977039337158 1.7897528409957886 4456788 0 -1
-4.2069573402404785 4.232741355895996 -0.5048021078109741 4456788 0 -1
-4.2954888343811035 4.137019157409668 -0.550693154335022 4456788 0 -1
-3.579085350036621 4.8011603355407715 0.09178219735622406 4456788 0 -1
-3.597693920135498 4.637063980102539 -1.1931685209274292 4456788 0 -1
-3.5069580078125 4.799117088317871 0.7342575788497925 4456788 0 -1
-3.6349103450775146 4.410626411437988 -1.7897528409957886 4590430 0 -1
-3.669563055038452 4.729696273803711 0.18356439471244812 4657508 0 -1
-3.755993366241455 4.65049934387207 0.36712878942489624 4724328 0 -1
-3.752006769180298 4.64556360244751 0.4589109718799591 4725613 0 -1
-3.6501026153564453 4.70461368560791 0.6424753665924072 4729209 0 -1
-3.703951597213745 4.6792449951171875 0.5048021078109741 4664956 0 -1
-4.396073818206787 4.0484418869018555 -0.7382481098175049 4456788 0 -1
-4.513952732086182 3.8772430419921875 -0.9228101372718811 4456788 0 -1
-4.2829976081848145 4.216638565063477 -0.36912405490875244 4456788 0 -1
-3.4405689239501953 4.899548053741455 -0.6459670662879944 4456788 0 -1
-3.4405689239501953 4.899548053741455 -0.6459670662879944 4456788 0 -1
-4.5595479011535645 3.823519706726074 -0.9228101372718811 4456788 0 -1
-4.321774005889893 4.162334442138672 -0.5075455904006958 4456788 0 -1
-4.059887886047363 4.44625186920166 -0.09228101372718811 4456788 0 -1
-3.3080430030822754 5.001064300537109 -0.5536860823631287 4456788 0 -1
-4.569953441619873 3.8322455883026123 -0.8305290937423706 4456788 0 -1
-4.287916660308838 4.2214813232421875 -0.23070253431797028 4456788 0 -1
-3.4693169593811035 4.843103408813477 -0.8766696453094482 4456788 0 -1
-3.2251861095428467 5.0748610496521 -0.3229835331439972 4456788 0 -1
-3.7271063327789307 4.522497653961182 -1.384215235710144 4456788 0 -1
-3.3974156379699707 4.935396194458008 -0.5998265743255615 4456788 0 -1
-3.6102633476257324 4.747270584106445 -0.8305290937423706 4456788 0 -1
-3.5937788486480713 4.820870876312256 -0.3229835331439972 4456788 0 -1
-3.5880467891693115 4.718057632446289 -1.0612316131591797 4456788 0 -1
-3.7240817546844482 4.704675674438477 -0.5075455904006958 4456788 0 -1
-3.504103899002075 4.891665458679199 -0.23070253431797028 4456788 0 -1
-3.552061080932617 4.764908790588379 -0.968950629234314 4523353 0 -1
-3.8224599361419678 4.638200759887695 0.36912405490875244 4590430 0 -1
-3.5837132930755615 4.807368278503418 0.5536860823631287 4590430 0 -1
-3.7356250286102295 4.7192583084106445 -0.18456202745437622 4657508 0 -1
-3.6756033897399902 4.737481594085693 0.5536860823631287 4729209 0 -1
-3.669940233230591 4.73018217086792 0.6459670662879944 4664956 0 -1
-4.735204219818115 3.5897421836853027 -1.159747838973999 4456788 0 -1
-3.6987693309783936 4.672698020935059 -1.0669680833816528 4456788 0 -1
-3.3696208000183105 4.993534564971924 -0.6030688881874084 4456788 0 -1
-3.545077085494995 4.851281642913818 -0.7422386407852173 4456788 0 -1
-3.679572582244873 4.742597579956055 -0.7886285185813904 4456788 0 -1
-3.515268325805664 4.907250881195068 -0.4638991355895996 4456788 0 -1
2.8828394412994385 5.810935020446777 0.5486978888511658 4456788 5 -1
2.8787450790405273 5.802682399749756 0.6484611630439758 4456788 5 -1
2.880878210067749 5.806982040405273 0.5985795259475708 4456788 5 -1
2.8828394412994385 5.810935020446777 0.5486978888511658 4456788 5 -1
2.895282745361328 5.83601713180542 0.6015724539756775 4456788 5 -1
2.9472062587738037 5.814940452575684 0.5514414310455322 4456788 5 -1
2.893138885498047 5.831695556640625 0.6517034769058228 4456788 5 -1
2.8972535133361816 5.83998966217041 0.5514414310455322 4456788 5 -1
2.9452013969421387 5.810985088348389 0.6015724539756775 4456788 5 -1
-3.980229139328003 5.130113124847412 0.8020966053009033 4456788 0 -1
-3.900911808013916 5.232873916625977 0.4511793255805969 4590430 0 -1
2.8648486137390137 5.900649070739746 0.45342400670051575 4456788 5 -1
3.060188055038452 5.787949562072754 0.6045653223991394 4456788 5 -1
2.915109157562256 5.875981330871582 0.45342400670051575 4456788 5 -1
2.9075326919555664 5.860709190368652 0.6549457907676697 4456788 5 -1
2.9134750366210938 5.872687339782715 0.5038044452667236 4456788 5 -1
2.861466646194458 5.893682956695557 0.5541849136352539 4456788 5 -1
-4.041815280914307 5.106071949005127 0.9068480134010315 4456788 0 -1
-3.953678607940674 5.198840618133545 0.7557066679000854 4456788 0 -1
-3.9069983959198 5.241038799285889 0.7053261995315552 4456788 0 -1
-4.057267665863037 5.125593185424805 0.7053261995315552 4523353 0 -1
-3.9000303745269775 5.231691837310791 0.8060871362686157 4523353 0 -1
-3.9156911373138428 5.252699851989746 0.5541849136352539 4590430 0 -1
-3.9069983959198 5.241038799285889 0.7053261995315552 4657508 0 -1
2.831190347671509 5.959735870361328 0.35440897941589355 4456788 5 -1
3.0334181785583496 5.859391212463379 0.35440897941589355 4456788 5 -1
2.8774170875549316 5.9265360832214355 0.5062985420227051 4456788 5 -1
3.083975315093994 5.832940101623535 0.35440897941589355 4456788 5 -1
2.86677622795105 5.904619216918945 0.7594478130340576 4456788 5 -1
2.926081895828247 5.898098945617676 0.5569283962249756 4456788 5 -1
-3.9350757598876953 5.278703212738037 0.5569283962249756 4456788 0 -1
-3.922956943511963 5.262446403503418 0.7594478130340576 4456788 0 -1
-4.052575588226318 5.119665622711182 1.0125970840454102 4523353 0 -1
-3.8569624423980713 5.278082847595215 0.9619672298431396 4523353 0 -1
-4.030243396759033 5.194576740264893 0.6581881046295166 4590430 0 -1
-3.922956943511963 5.262446403503418 0.7594478130340576 4657508 0 -1
2.847899913787842 5.99491024017334 0.20351704955101013 4456788 5 -1
2.9454474449157715 5.937134265899658 0.40703409910202026 4456788 5 -1
2.7901322841644287 6.003931522369385 0.5087926387786865 4456788 5 -1
2.99870228767395 5.916543960571289 0.305275559425354 4456788 5 -1
2.8371684551239014 5.972320079803467 0.610551118850708 4456788 5 -1
2.7474801540374756 6.045019149780273 0 4456788 5 -1
2.7844414710998535 5.99168586730957 0.6614304184913635 4456788 5 -1
2.7943310737609863 6.012966632843018 0.35615482926368713 4456788 5 -1
2.7930967807769775 6.010310649871826 0.40703409910202026 4456788 5 -1
2.7901322841644287 6.003931522369385 0.5087926387786865 4456788 5 -1
-3.94228196144104 5.288370132446289 0.763188898563385 4456788 0 -1
-3.8616373538970947 5.284480094909668 1.1193437576293945 4523353 0 -1
2.709739923477173 6.097452163696289 0.05112867057323456 4456788 5 -1
2.7091033458709717 6.096019744873047 -0.15338601171970367 4456788 5 -1
2.9143340587615967 6.002573013305664 0 4456788 5 -1
2.9135639667510986 6.000986576080322 0.15338601171970367 4456788 5 -1
3.016237258911133 5.951141357421875 0.10225734114646912 4456788 5 -1
2.759650945663452 6.0717973709106445 0.20451468229293823 4456788 5 -1
3.016237258911133 5.951141357421875 0.10225734114646912 4456788 5 -1
2.811333656311035 6.049553871154785 0.15338601171970367 4456788 5 -1
2.7091033458709717 6.096019744873047 0.15338601171970367 4456788 5 -1
2.758028745651245 6.068228244781494 0.30677202343940735 4456788 5 -1
2.75575590133667 6.063227653503418 0.40902936458587646 4456788 5 -1
2.752830982208252 6.056792259216309 0.5112866759300232 4456788 5 -1
2.75575590133667 6.063227653503418 0.40902936458587646 4456788 5 -1
2.75575590133667 6.063227653503418 0.40902936458587646 4456788 5 -1
2.856389045715332 6.012779712677002 0.46015802025794983 4456788 5 -1
-3.7512848377227783 5.449458599090576 -0.8691873550415039 4456788 0 -1
2.62064266204834 6.03251314163208 -1.124830722808838 4456788 0 -1
2.822230339050293 5.940875053405762 -1.124830722808838 4456788 5 -1
-3.914189577102661 5.356395721435547 -0.7158013582229614 4456788 0 -1
-3.863355875015259 5.393174648284912 -0.7158013582229614 4456788 0 -1
-3.9033639430999756 5.341580867767334 0.8691873550415039 4456788 0 -1
-3.731954574584961 5.530486583709717 -0.10225734114646912 4456788 0 -1
-3.7825217247009277 5.494836330413818 -0.15338601171970367 4456788 0 -1
-3.860027313232422 5.388527870178223 0.7669300436973572 4523353 0 -1
-3.8816699981689453 5.418740749359131 0.30677202343940735 4590430 0 -1
-3.8816699981689453 5.418740749359131 0.30677202343940735 4590430 0 -1
2.7230381965637207 6.127375602722168 0 4456788 5 -1
2.7229580879211426 6.127195835113525 -0.05137807875871658 4456788 5 -1
2.7229580879211426 6.127195835113525 -0.05137807875871658 4456788 5 -1
2.825711250305176 6.08049201965332 0.05137807875871658 4456788 5 -1
2.8764121532440186 6.054928779602051 0.15413422882556915 4456788 5 -1
2.6704049110412598 6.147061824798584 0.20551231503486633 4456788 5 -1
2.6704049110412598 6.147061824798584 0.20551231503486633 4456788 5 -1
2.6709539890289307 6.1483259201049805 0.15413422882556915 4456788 5 -1
2.7217588424682617 6.124496936798096 0.20551231503486633 4456788 5 -1
2.7704224586486816 6.095496654510498 0.3596465289592743 4456788 5 -1
2.8217265605926514 6.071917533874512 0.3596465289592743 4456788 5 -1
2.8649837970733643 6.030871868133545 0.6165369153022766 4456788 5 -1
2.868713617324829 6.038723468780518 0.5137807726860046 4456788 5 -1
2.8204801082611084 6.069235324859619 0.41102463006973267 4456788 5 -1
2.873030662536621 6.047811031341553 -0.3596465289592743 4456788 5 -1
2.9215784072875977 6.017493724822998 -0.46240270137786865 4456788 5 -1
2.868713617324829 6.038723468780518 -0.5137807726860046 4456788 5 -1
2.817486524581909 6.062793731689453 -0.5137807726860046 4456788 5 -1
2.8649837970733643 6.030871868133545 -0.6165369153022766 4456788 5 -1
2.8157386779785156 6.059032917022705 -0.5651588439941406 4456788 5 -1
2.8649837970733643 6.030871868133545 -0.6165369153022766 4456788 5 -1
2.8628623485565186 6.026406288146973 -0.6679149866104126 4456788 5 -1
-3.853355884552002 5.487378120422363 0 4456788 0 -1
-3.890839099884033 5.431540489196777 -0.5651588439941406 4456788 0 -1
-3.748837471008301 5.555506229400635 -0.20551231503486633 4456788 0 -1
-3.7991864681243896 5.519044876098633 -0.2568903863430023 4456788 0 -1
-3.852337598800659 5.485928058624268 -0.15413422882556915 4523353 0 -1
-3.853355884552002 5.487378120422363 0 4590430 0 -1
-3.8009731769561768 5.521640300750732 -0.15413422882556915 4657508 0 -1
2.7871475219726562 6.132295608520508 -0.15488246083259583 4456788 5 -1
2.7355337142944336 6.155493259429932 -0.15488246083259583 4456788 5 -1
2.9426803588867188 6.0609564781188965 -0.05162748694419861 4456788 5 -1
2.726519823074341 6.135210037231445 0.5679023265838623 4456788 5 -1
2.940606117248535 6.056684494018555 0.25813743472099304 4456788 5 -1
2.8903751373291016 6.08432149887085 0.15488246083259583 4456788 5 -1
2.930300235748291 6.035457611083984 0.6195298433303833 4456788 5 -1
2.889016628265381 6.0814619064331055 0.25813743472099304 4456788 5 -1
2.8826394081115723 6.068037509918213 0.5162748694419861 4456788 5 -1
2.8880820274353027 6.079494476318359 -0.30976492166519165 4456788 5 -1
2.886977434158325 6.077168941497803 -0.36139240860939026 4456788 5 -1
2.8788914680480957 6.060148239135742 -0.6195298433303833 4456788 5 -1
2.8767597675323486 6.055660724639893 -0.6711573004722595 4456788 5 -1
2.8767597675323486 6.055660724639893 -0.6711573004722595 4456788 5 -1
2.925785541534424 6.026158809661865 -0.7227848172187805 4456788 5 -1
2.871979236602783 6.045597553253174 -0.7744122743606567 4456788 5 -1
2.8206937313079834 6.069694995880127 -0.7744122743606567 4456788 5 -1
-3.7660393714904785 5.580997943878174 -0.25813743472099304 4456788 0 -1
2.7474567890167236 6.1823225021362305 -0.2593844532966614 4456788 5 -1
2.749152421951294 6.186138153076172 -0.10375379025936127 4456788 5 -1
2.852475166320801 6.1380839347839355 -0.1556306779384613 4456788 5 -1
2.9050207138061523 6.1151509284973145 0.051876895129680634 4456788 5 -1
2.6896677017211914 6.191403388977051 0.5187689065933228 4456788 5 -1
2.9555935859680176 6.087553977966309 0.20750758051872253 4456788 5 -1
2.801023244857788 6.162825107574463 -0.10375379025936127 4456788 5 -1
2.801023244857788 6.162825107574463 -0.10375379025936127 4456788 5 -1
2.892799139022827 6.089424133300781 0.6225227117538452 4456788 5 -1
2.9555935859680176 6.087553977966309 -0.20750758051872253 4456788 5 -1
2.8906571865081787 6.0849151611328125 -0.6743996143341064 4456788 5 -1
2.946460723876953 6.068742752075195 -0.570645809173584 4456788 5 -1
2.8707900047302246 6.043094158172607 -1.0375378131866455 4456788 5 -1
2.883190870285034 6.069198131561279 -0.8300303220748901 4456788 5 -1
2.883190870285034 6.069198131561279 -0.8300303220748901 4456788 5 -1
2.8858535289764404 6.074803352355957 -0.7781534194946289 4456788 5 -1
2.5183873176574707 5.932005882263184 2.075075626373291 13164576 0 -1
2.7539219856262207 6.059192657470703 -1.4074101448059082 4456788 0 -1
2.944464921951294 5.687567710876465 -2.2935571670532227 4456788 0 -1
2.9187300205230713 6.144009590148926 -0.10425260663032532 4456788 5 -1
2.81349778175354 6.190271377563477 -0.20850521326065063 4456788 5 -1
2.808119058609009 6.178437232971191 0.46913671493530273 4456788 5 -1
2.9148709774017334 6.135885715484619 0.3648841083049774 4456788 5 -1
2.9187300205230713 6.144009590148926 0.10425260663032532 4456788 5 -1
2.847946882247925 6.128339767456055 0.7818945050239563 4456788 5 -1
2.9624640941619873 6.1017045974731445 -0.5212630033493042 4456788 5 -1
2.8997278213500977 6.10400915145874 0.7818945050239563 4456788 5 -1
2.9086854457855225 6.122865200042725 0.5733892917633057 4456788 5 -1
2.891174793243408 6.086005210876465 -0.9382734298706055 4456788 5 -1
2.887971878051758 6.079262733459473 -0.9903997182846069 4456788 5 -1
2.6500184535980225 5.830583572387695 2.2935571670532227 10672695 0 -1
3.1421735286712646 6.069464206695557 -0.10475142300128937 4456788 5 -1
2.93166184425354 6.171231269836426 0.20950284600257874 4456788 5 -1
3.1945431232452393 6.042064666748047 -0.10475142300128937 4456788 5 -1
2.8793106079101562 6.195829391479492 0.20950284600257874 4456788 5 -1
2.985415458679199 6.148977279663086 0 4456788 5 -1
2.7206571102142334 6.2627387046813965 0.3142542541027069 4456788 5 -1
2.985415458679199 6.148977279663086 0 4456788 5 -1
2.764153003692627 6.219892501831055 0.6285085082054138 4456788 5 -1
3.0363640785217285 6.120394229888916 0.20950284600257874 4456788 5 -1
2.9798011779785156 6.137413501739502 0.41900569200515747 4456788 5 -1
2.9766385555267334 6.130899429321289 0.5237571001052856 4456788 5 -1
2.806952714920044 6.175870895385742 0.8380113840103149 4456788 0 -1
2.806952714920044 6.175870895385742 0.8380113840103149 4456788 0 -1
2.8640410900115967 6.1629719734191895 0.733259916305542 4456788 5 -1
2.9080493450164795 6.12152624130249 -0.8903870582580566 4456788 5 -1
2.8182239532470703 6.20067024230957 -0.5761328339576721 4456788 5 -1
3.1560237407684326 6.096217155456543 -0.21050047874450684 4456788 5 -1
3.1047909259796143 6.125860691070557 -0.05262511968612671 4456788 5 -1
2.735783100128174 6.297557353973389 0.15787535905838013 4456788 5 -1
2.997429370880127 6.173721790313721 -0.26312559843063354 4456788 5 -1
2.7706472873687744 6.234505653381348 0.7893767952919006 4456788 5 -1
3.171633243560791 6.126368999481201 -0.1586235761642456 4456788 5 -1
3.1195054054260254 6.154892921447754 -0.052874527871608734 4456788 5 -1
3.0134940147399902 6.206809997558594 -0.10574905574321747 4456788 5 -1
2.9080135822296143 6.257593631744385 -0.052874527871608734 4456788 5 -1
3.0659122467041016 6.179954528808594 0.1586235761642456 4456788 5 -1
2.802349805831909 6.305842876434326 0 4456788 5 -1
3.0130515098571777 6.205898284912109 -0.1586235761642456 4456788 5 -1
3.0116353034973145 6.202981472015381 0.2643726170063019 4456788 5 -1
2.7970798015594482 6.2939839363098145 -0.4229962229728699 4456788 5 -1
3.187342405319214 6.156713485717773 -0.05312393233180046 4456788 5 -1
3.1870617866516113 6.156170845031738 -0.10624786466360092 4456788 5 -1
3.187436103820801 6.156894207000732 0 4456788 5 -1
2.9735426902770996 6.2593913078308105 0.21249572932720184 4456788 5 -1
3.2401795387268066 6.128379821777344 0.10624786466360092 4456788 5 -1
3.0277087688446045 6.236087322235107 -0.10624786466360092 4456788 5 -1
2.9217305183410645 6.287110805511475 0.05312393233180046 4456788 5 -1
3.0789260864257812 6.206186771392822 -0.2656196653842926 4456788 5 -1
2.867344617843628 6.308745861053467 -0.21249572932720184 4456788 5 -1
3.0808262825012207 6.210017204284668 -0.10624786466360092 4456788 5 -1
3.02726411819458 6.235171794891357 -0.15937180817127228 4456788 5 -1
2.974940299987793 6.262333393096924 0 4456788 5 -1
2.693380117416382 6.199948787689209 -1.5405941009521484 4456788 0 -1
2.921473264694214 6.286556720733643 -0.10624786466360092 4456788 5 -1
3.09338116645813 6.235323905944824 0.2668667137622833 4456788 5 -1
2.9355337619781494 6.316812992095947 0 4456788 5 -1
3.04219126701355 6.265916347503662 -0.053373340517282486 4456788 5 -1
2.9888193607330322 6.2915496826171875 0.053373340517282486 4456788 5 -1
2.9889070987701416 6.291734218597412 0 4456788 5 -1
3.0969440937042236 6.2425055503845215 -0.6434730291366577 4456788 5 -1
3.055060863494873 6.292423725128174 0.21449099481105804 4456788 5 -1
3.109297752380371 6.267406940460205 -0.16086825728416443 4456788 5 -1
2.9489049911499023 6.345585823059082 0.10724549740552902 4456788 5 -1
3.0027859210968018 6.320949077606201 0.05362274870276451 4456788 5 -1
3.0014631748199463 6.318165302276611 0.21449099481105804 4456788 5 -1
3.215853452682495 6.211785316467285 -0.21449099481105804 4456788 5 -1
3.0027859210968018 6.320949077606201 0.05362274870276451 4456788 5 -1
3.0564968585968018 6.295381546020508 0 4456788 5 -1
2.9329473972320557 6.1739373207092285 1.5014370679855347 11197490 0 -1
3.2322347164154053 6.243427753448486 0.053872156888246536 4456788 5 -1
3.0706229209899902 6.324476718902588 -0.053872156888246536 4456788 5 -1
3.285815715789795 6.214694976806641 -0.10774431377649307 4456788 5 -1
2.8538830280303955 6.421802520751953 0.21548862755298615 4456788 5 -1
3.0707130432128906 6.324662208557129 0 4456788 5 -1
3.016840934753418 6.3505353927612305 0 4456788 5 -1
3.231950044631958 6.24287748336792 -0.10774431377649307 4456788 5 -1
3.1237595081329346 6.296557426452637 -0.1616164743900299 4456788 5 -1
3.016840934753418 6.3505353927612305 0 4456788 5 -1
3.070352554321289 6.323919296264648 -0.10774431377649307 4456788 5 -1
3.016486644744873 6.349789619445801 0.10774431377649307 4456788 5 -1
3.1245851516723633 6.298221588134766 0 4456788 5 -1
2.908754825592041 6.3998565673828125 0.10774431377649307 4456788 5 -1
3.0674660205841064 6.31797456741333 -0.3232329487800598 4456788 5 -1
2.8888907432556152 6.216444492340088 1.5622925758361816 11918891 0 -1
2.8582358360290527 6.4315972328186035 0.5953372120857239 4456788 5 -1
3.0841140747070312 6.352263927459717 0.16236470639705658 4456788 5 -1
3.0300068855285645 6.3782501220703125 -0.16236470639705658 4456788 5 -1
3.0300068855285645 6.3782501220703125 -0.16236470639705658 4456788 5 -1
3.1908280849456787 6.295615196228027 -0.2706078290939331 4456788 5 -1
3.0308077335357666 6.379936218261719 0 4456788 5 -1
3.189795970916748 6.293578624725342 -0.32472941279411316 4456788 5 -1
3.1386821269989014 6.326637268066406 -0.10824313014745712 4456788 5 -1
3.0826644897460938 6.349277973175049 -0.2706078290939331 4456788 5 -1
3.131577730178833 6.312316417694092 -0.48709410429000854 4456788 5 -1
3.029383897781372 6.376938819885254 -0.21648626029491425 4456788 5 -1
2.981611967086792 6.415966033935547 0.5437097549438477 4456788 5 -1
2.988208055496216 6.430160045623779 0.27185487747192383 4456788 5 -1
2.9832844734191895 6.419564723968506 0.48933878540992737 4456788 5 -1
3.262162685394287 6.301237106323242 -0.05437097325921059 4456788 5 -1
3.076265811920166 6.069579601287842 -2.011726140975952 4456788 0 -1
3.0991456508636475 6.383224010467529 0 4456788 5 -1
3.153424024581909 6.356351852416992 -0.05437097325921059 4456788 5 -1
3.0983266830444336 6.381536960601807 0.16311292350292206 4456788 5 -1
3.043344020843506 6.406325340270996 0.21748389303684235 4456788 5 -1
3.150182008743286 6.349817276000977 -0.3262258470058441 4456788 5 -1
3.042539119720459 6.4046311378479 -0.27185487747192383 4456788 5 -1
2.7619049549102783 6.505606651306152 0.9285464882850647 4456788 0 -1
2.9913947582244873 6.43701696395874 0.6554446220397949 4456788 5 -1
3.0027096271514893 6.461365222930908 0.21848152577877045 4456788 5 -1
2.99847149848938 6.452245235443115 0.4369630515575409 4456788 5 -1
3.222602605819702 6.358307361602783 0 4456788 5 -1
2.933239221572876 6.174551963806152 -2.020954132080078 4456788 0 -1
3.0675039291381836 6.052292346954346 -2.1848154067993164 4456788 0 -1
3.1132705211639404 6.41231632232666 0.05462038144469261 4456788 5 -1
3.112539052963257 6.410810470581055 0.16386115550994873 4456788 5 -1
2.9710965156555176 6.119484901428223 -2.130194902420044 4456788 0 -1
2.9400668144226074 6.1889238357543945 -1.9663337469100952 4456788 0 -1
2.949500799179077 6.489505767822266 0 4456788 5 -1
3.1664938926696777 6.382697105407715 -0.21848152577877045 4456788 5 -1
2.9341654777526855 6.313868522644043 -1.529370665550232 4456788 0 -1
3.0299880504608154 6.240782260894775 -1.6386114358901978 4456788 0 -1
2.9391274452209473 6.324545860290527 -1.4747503995895386 4456788 0 -1
3.117877244949341 6.1516804695129395 -1.8024725914001465 4456788 0 -1
3.0106539726257324 6.47845983505249 0.4938281178474426 4456788 5 -1
2.9482321739196777 6.4867143630981445 0.71330726146698 4456788 5 -1
2.9559147357940674 6.503618240356445 0.4938281178474426 4456788 5 -1
3.0712647438049316 6.465099334716797 0.21947915852069855 4456788 5 -1
3.18235445022583 6.414667129516602 -0.05486978963017464 4456788 5 -1
3.127210855484009 6.441029071807861 0.10973957926034927 4456788 5 -1
2.9992516040802 6.1774749755859375 -2.030182361602783 4456788 0 -1
2.978908061981201 6.27068567276001 -1.7558332681655884 4456788 0 -1
2.8939714431762695 6.367330074310303 -1.5363541841506958 4456788 0 -1
2.8939714431762695 6.367330074310303 -1.5363541841506958 4456788 0 -1
2.947563409805298 6.34269905090332 -1.5363541841506958 4456788 0 -1
3.069657802581787 6.322488784790039 -1.3717447519302368 4456788 0 -1
2.9706032276153564 6.392276763916016 -1.2620052099227905 4456788 0 -1
3.1117143630981445 6.13952112197876 -1.9753124713897705 4456788 0 -1
3.002829074859619 6.4616217613220215 -0.71330726146698 4456788 5 -1
3.0756914615631104 6.474417686462402 0.6063112020492554 4456788 5 -1
2.9109222888946533 6.550151824951172 0.6063112020492554 4456788 5 -1
2.9067881107330322 6.540849685668945 0.7165495753288269 4456788 5 -1
3.0866751670837402 6.4975385665893555 0 4456788 5 -1
2.9827260971069336 6.14343786239624 -2.259887218475342 4456788 0 -1
2.9330391883850098 6.3114447593688965 -1.8189336061477661 4456788 0 -1
2.93376088142395 6.601543426513672 0.16610582172870636 4456788 5 -1
2.989553689956665 6.577630519866943 0.11073721200227737 4456788 5 -1
2.9898171424865723 6.57820987701416 0.05536860600113869 4456788 5 -1
2.8900134563446045 6.652583599090576 0.27809008955955505 4456788 5 -1
-4.505988597869873 5.807764053344727 0.28183120489120483 4456788 0 -1
-5.698205471038818 4.433759689331055 -1.4091559648513794 4523353 0 -1
-5.538741588592529 4.757482051849365 -1.1323130130767822 4456788 0 -1
-4.266128063201904 5.955437660217285 -0.9624660015106201 4456788 0 -1
-3.735645294189453 6.372560977935791 -0.16984695196151733 4456788 0 -1
-5.433207035064697 4.890456676483154 -1.0756973028182983 4456788 0 -1
-4.529252052307129 5.837748050689697 0 4456788 0 -1
-5.723418712615967 4.453377723693848 -1.415391206741333 4523353 0 -1
-4.041594982147217 6.110040664672852 -0.9624660015106201 4523353 0 -1
-5.3614277839660645 5.0500264167785645 -0.9098408818244934 4456788 0 -1
-4.190187931060791 6.08704948425293 -0.6823806762695312 4456788 0 -1
-4.548670291900635 5.862776756286621 -0.11373011022806168 4456788 0 -1
-4.0633978843688965 6.143002033233643 -0.9098408818244934 4523353 0 -1
-4.509922981262207 5.930266857147217 -0.22845785319805145 4456788 0 -1
-4.471096992492676 5.997748374938965 -0.28681936860084534 4456788 0 -1
-4.470207691192627 6.758012294769287 0.1863078773021698 4456788 0 -1
-5.1283674240112305 6.097889423370361 -1.9483764171600342 4456788 0 -1
-4.521938800811768 6.836219310760498 -0.3142542541027069 4456788 0 -1
-4.539883136749268 6.863347053527832 -0.31550130248069763 4456788 0 -1
-5.261154651641846 6.129594326019287 -1.9079723358154297 4456788 0 -1
-6.456958293914795 5.024143695831299 -1.3991796970367432 4456788 0 -1
-4.438846588134766 6.984567642211914 -0.6359907388687134 4456788 0 -1
-4.467294216156006 7.029329776763916 -0.255393922328949 4456788 0 -1
-5.12427282333374 6.47355318069458 -1.3460557460784912 4456788 0 -1
-3.780283212661743 7.302045822143555 -1.5383493900299072 4456788 0 -1
-4.482108116149902 7.052639961242676 -0.3845873475074768 4456788 0 -1
-5.422936916351318 6.189934253692627 -1.6730297803878784 4456788 0 -1
-4.433572292327881 7.117802143096924 -0.45043110847473145 4456788 0 -1
-2.841671943664551 8.14301586151123 0.13218630850315094 7589974 4 -1
-2.5870561599731445 8.261561393737793 0.132685124874115 2271109 4 -1
-2.6508965492248535 8.232748985290527 0.39805540442466736 2468738 4 -1
-2.7199654579162598 8.219564437866211 0.0663425624370575 4899181 4 -1
-2.7863059043884277 8.197314262390137 0.0663425624370575 7589974 4 -1
-2.7863059043884277 8.197314262390137 -0.0663425624370575 8705099 4 -1
-2.7200450897216797 8.219805717468262 0 9360965 4 -1
-5.562999248504639 6.349806785583496 -2.0643510818481445 4456788 0 -1
-3.7254483699798584 7.673202037811279 -1.6647993326187134 4456788 0 -1
-2.39724063873291 8.353283882141113 -0.06659197062253952 4456788 4 -1
-5.2511186599731445 6.768161773681641 -1.465023398399353 4456788 0 -1
-4.721224308013916 7.2815728187561035 -0.46614381670951843 4456788 0 -1
-3.7462799549102783 7.716108322143555 -1.398431420326233 4456788 0 -1
-5.463467121124268 6.496340274810791 -1.8645752668380737 4456788 0 -1
-3.9742271900177 7.5167365074157715 -1.7979832887649536 4456788 0 -1
-5.407555103302002 6.5615668296813965 -1.7979832887649536 4456788 0 -1
-4.451040267944336 7.4402689933776855 -0.5993277430534363 4456788 0 -1
-2.729950189590454 8.249738693237305 0.13318394124507904 2328718 4 -1
-2.5278193950653076 8.3053617477417 0.3995518386363983 2199437 4 -1
-2.707008123397827 8.18040943145752 1.1320635080337524 2070155 0 -1
-2.6624274253845215 8.268559455871582 0.2663678824901581 2070922 4 -1
-2.8613526821136475 8.199411392211914 0.3329598605632782 2139270 4 -1
-2.660862445831299 8.263699531555176 0.3995518386363983 2994813 4 -1
-2.794809579849243 8.222331047058105 0.3329598605632782 3257723 4 -1
-2.796780824661255 8.228130340576172 0.06659197062253952 4045940 4 -1
-2.796862840652466 8.228372573852539 0 4899181 4 -1
-2.796534538269043 8.22740650177002 0.13318394124507904 6343264 4 -1
-2.796780824661255 8.228130340576172 0.06659197062253952 10016830 4 -1
-2.796780824661255 8.228130340576172 -0.06659197062253952 13164576 4 -1
-2.6065077781677246 8.323678016662598 0.1336827576160431 3238030 4 -1
-2.7375988960266113 8.272851943969727 0.40104830265045166 2912910 4 -1
-2.6061251163482666 8.322456359863281 0.20052415132522583 2328718 4 -1
-2.7401747703552246 8.28063678741455 -0.1336827576160431 2134668 4 -1
-2.937911033630371 8.203853607177734 0.40104830265045166 2139270 4 -1
-2.7392091751098633 8.277718544006348 0.2673655152320862 3257723 4 -1
-2.7401747703552246 8.28063678741455 0.1336827576160431 4045940 4 -1
-2.807255744934082 8.258947372436523 -0.06684137880802155 4899181 4 -1
-2.806596279144287 8.257007598876953 0.20052415132522583 6343264 4 -1
-2.8738420009613037 8.235200881958008 -0.1336827576160431 6933851 4 -1
-2.8738420009613037 8.235200881958008 0.1336827576160431 12640037 4 -1
-2.807337999343872 8.259190559387207 0 13164576 4 -1
-2.68292236328125 8.332209587097168 0.2012723684310913 3238030 4 -1
-2.7494301795959473 8.308605194091797 0.2683631479740143 2912910 4 -1
-2.6162335872650146 8.354736328125 0.13418157398700714 2588302 4 -1
-2.683631658554077 8.334412574768066 0 2134668 4 -1
-2.948873281478882 8.234464645385742 0.4025447368621826 2139270 4 -1
-3.0182878971099854 8.216673851013184 0.2012723684310913 2271109 4 -1
-2.7506415843963623 8.31226634979248 -0.06709078699350357 2271109 4 -1
-2.815744400024414 8.28392219543457 0.33545395731925964 3257723 4 -1
-2.68292236328125 8.332209587097168 0.2012723684310913 3651704 4 -1
-2.7487027645111084 8.306407928466797 0.33545395731925964 4045940 4 -1
-2.5475783348083496 8.370282173156738 0.33545395731925964 4505456 4 -1
-2.6835527420043945 8.33416748046875 0.06709078699350357 5424489 4 -1
-2.951647996902466 8.242213249206543 0.13418157398700714 10672695 4 -1
-2.546095848083496 8.130757331848145 2.154886245727539 4456788 0 -1
-2.558852434158325 8.407323837280273 -0.0673401951789856 4456788 4 -1
-2.4912948608398438 8.426782608032227 -0.1346803903579712 4456788 4 -1
-2.952425241470337 8.244382858276367 -0.7407422065734863 4725613 4 -1
-2.8182239532470703 8.291216850280762 -0.7407422065734863 4536450 4 -1
-3.096193790435791 8.22048568725586 -0.2693607807159424 4471684 4 -1
-2.7511234283447266 8.313722610473633 -0.7407422065734863 4471684 4 -1
-2.692342519760132 8.361464500427246 0.2693607807159424 2912910 4 -1
-2.6255738735198975 8.384563446044922 0.20202060043811798 2588302 4 -1
-2.9628818035125732 8.273581504821777 0.0673401951789856 2134668 4 -1
-2.626267671585083 8.38677978515625 0 2134668 4 -1
-2.892566680908203 8.288858413696289 0.40404120087623596 2139270 4 -1
-2.7606239318847656 8.342432022094727 0.1346803903579712 2271109 4 -1
-2.826211929321289 8.314717292785645 0.33670100569725037 3257723 4 -1
-2.758028745651245 8.334589958190918 0.40404120087623596 3651704 4 -1
-2.888734817504883 8.277877807617188 0.6060617566108704 4045940 4 -1
-2.55825138092041 8.405349731445312 0.20202060043811798 4045940 4 -1
-2.759650945663452 8.339491844177246 0.2693607807159424 4899181 4 -1
-2.6916303634643555 8.359253883361816 0.33670100569725037 5424489 4 -1
-2.9628818035125732 8.273581504821777 0.0673401951789856 10672695 4 -1
-2.727799415588379 8.24323844909668 1.554560899734497 4456788 0 -1
-2.1231086254119873 8.123519897460938 2.7035841941833496 4456788 0 -1
-2.8895819187164307 8.280304908752441 -0.9462544918060303 4725613 4 -1
-2.8960108757019043 8.298727989196777 -0.743485689163208 4600703 4 -1
-2.826737642288208 8.316264152526855 -0.8110752701759338 4536450 4 -1
-2.836679220199585 8.345512390136719 -0.3379480242729187 4017546 4 -1
-2.769871950149536 8.370379447937012 -0.2703584134578705 3757452 4 -1
-2.838763475418091 8.351643562316895 0 2523534 4 -1
-2.7711739540100098 8.374313354492188 0 2264205 4 -1
-2.9707980155944824 8.295687675476074 -0.4055376350879669 2199437 4 -1
-2.770848512649536 8.373330116271973 -0.13517920672893524 2199437 4 -1
-2.703504800796509 8.39613151550293 -0.06758960336446762 2271109 4 -1
-2.9049875736236572 8.324451446533203 0.2703584134578705 2468738 4 -1
-2.9049875736236572 8.324451446533203 0.2703584134578705 2468738 4 -1
-2.9021694660186768 8.316374778747559 0.47312724590301514 2666112 4 -1
-2.832005262374878 8.331761360168457 0.6083064675331116 4045940 4 -1
-2.769871950149536 8.370379447937012 0.2703584134578705 4899181 4 -1
-2.700725555419922 8.387499809265137 0.4055376350879669 5424489 4 -1
-2.8374297618865967 8.3477201461792 0.2703584134578705 6343264 4 -1
-2.049630641937256 8.10391902923584 2.9170775413513184 4456788 0 -1
-2.90024471282959 8.310859680175781 -0.9497461915016174 4728182 0 -1
-3.026745319366455 8.239697456359863 -1.1532632112503052 4729209 0 -1
-3.026745319366455 8.239697456359863 -1.1532632112503052 4729209 0 -1
-2.8408620357513428 8.357817649841309 -0.6783901453018188 4600703 4 -1
-2.8350677490234375 8.340770721435547 -0.8819071650505066 4536450 4 -1
-3.048361301422119 8.298542976379395 -0.4748730957508087 3757452 4 -1
-2.7732224464416504 8.38050365447998 -0.6783901453018188 3757452 4 -1
-2.9139931201934814 8.35025691986084 -0.40703409910202026 3562893 4 -1
-2.9167351722717285 8.358114242553711 -0.1356780230998993 2264205 4 -1
-2.914936065673828 8.352958679199219 -0.3391950726509094 2199437 4 -1
-2.916306734085083 8.356886863708496 -0.20351704955101013 2134668 4 -1
-2.9835143089294434 8.331196784973145 0.2713560461997986 2271109 4 -1
-2.7134809494018555 8.42711353302002 0.06783901154994965 2271109 4 -1
-2.984127998352051 8.33290958404541 0.20351704955101013 2468738 4 -1
-2.7115683555603027 8.421174049377441 0.3391950726509094 2468738 4 -1
-2.845137119293213 8.370394706726074 0.4748730957508087 2666112 4 -1
-2.7810728549957275 8.404228210449219 0.1356780230998993 2994813 4 -1
-2.778458595275879 8.39632797241211 0.40703409910202026 4045940 4 -1
-2.778458595275879 8.39632797241211 0.40703409910202026 6343264 4 -1
-2.8462257385253906 8.373598098754883 0.40703409910202026 6933851 4 -1
-2.5766713619232178 8.465869903564453 0.2713560461997986 6933851 4 -1
-2.910132884979248 8.339195251464844 0.610551118850708 8705099 4 -1
-2.5759899616241455 8.463630676269531 0.3391950726509094 8705099 4 -1
-2.978602886199951 8.317481994628906 -0.9532378911972046 4728182 4 -1
-3.0378730297088623 8.269990921020508 -1.1575031280517578 4729209 0 -1
-2.773124933242798 8.380208969116211 -1.0213263034820557 4729209 0 -1
-3.1261773109436035 8.300092697143555 -0.5447073578834534 3757452 4 -1
-2.8475992679595947 8.377638816833496 -0.8170610666275024 3757452 4 -1
-2.9222962856292725 8.37405014038086 -0.5447073578834534 3562893 4 -1
-3.0638890266418457 8.340814590454102 -0.06808841973543167 3238030 4 -1
-3.0638890266418457 8.340814590454102 -0.06808841973543167 3238030 4 -1
-2.99448299407959 8.361825942993164 0.2723536789417267 2458766 4 -1
-2.858370304107666 8.409326553344727 -0.2723536789417267 2199437 4 -1
-2.9915781021118164 8.353713989257812 0.4766189455986023 2271109 4 -1
-2.7228171825408936 8.456109046936035 0.2042652666568756 2271109 4 -1
-2.790313720703125 8.432153701782227 0.2723536789417267 6343264 4 -1
-2.5854604244232178 8.494747161865234 0.34044212102890015 6933851 4 -1
-2.653498888015747 8.473740577697754 0.34044212102890015 7589974 4 -1
-2.7215373516082764 8.452134132385254 0.34044212102890015 8180304 4 -1
-2.5836355686187744 8.488751411437988 0.4766189455986023 8705099 4 -1
-2.653498888015747 8.473740577697754 0.34044212102890015 9360965 4 -1
-2.723217010498047 8.457350730895996 0.13617683947086334 11918891 4 -1
-2.9239115715026855 8.378679275512695 -0.8883917927742004 3692940 4 -1
-2.9330005645751953 8.40472412109375 -0.5467026233673096 3562893 4 -1
-2.8660571575164795 8.431941986083984 -0.47836482524871826 3238030 4 -1
-3.0751121044158936 8.371366500854492 -0.0683378279209137 3107982 4 -1
-2.7988884449005127 8.458065032958984 -0.41002699732780457 3107982 4 -1
-2.9381816387176514 8.419570922851562 0.1366756558418274 2588302 4 -1
-2.9354195594787598 8.411656379699707 0.41002699732780457 2458766 4 -1
-3.0067763328552246 8.396153450012207 -0.0683378279209137 2199437 4 -1
-2.8015220165252686 8.466023445129395 -0.1366756558418274 2199437 4 -1
-3.0694191455841064 8.35586929321289 0.5467026233673096 2271109 4 -1
-2.8015220165252686 8.466023445129395 0.1366756558418274 2271109 4 -1
-2.732790946960449 8.487083435058594 0.20501349866390228 6343264 4 -1
-2.732228994369507 8.48533821105957 0.2733513116836548 7589974 4 -1
-2.593099355697632 8.519845962524414 0.47836482524871826 8705099 4 -1
-3.0012099742889404 8.380609512329102 0.5467026233673096 9360965 4 -1
-2.5880908966064453 8.037696838378906 2.8701889514923096 9360965 0 -1
-2.858933210372925 8.410983085632324 -1.0973957777023315 3887499 0 -1
-3.0134942531585693 8.414913177490234 -0.48011067509651184 3692940 4 -1
-2.9437050819396973 8.43539810180664 -0.5486978888511658 3562893 4 -1
-3.017484188079834 8.426054000854492 0.13717447221279144 2271109 4 -1
-3.0106539726257324 8.406981468200684 0.6172851324081421 4045940 4 -1
-2.6741955280303955 8.539833068847656 0.20576171576976776 4045940 4 -1
-2.531686305999756 8.563406944274902 0.6172851324081421 8705099 4 -1
-2.606238603591919 8.56301498413086 0.06858723610639572 9360965 4 -1
-2.7422006130218506 8.51630687713623 0.2743489444255829 10016830 4 -1
-2.95440936088562 8.466073036193848 0.550693154335022 2006409 4 -1
-3.028456687927246 8.456694602966309 -0.1376732885837555 2139270 4 -1
-3.097285270690918 8.431729316711426 0.1376732885837555 2271109 4 -1
-2.8103463649749756 8.492691040039062 0.8260397911071777 3257723 0 -1
-2.6145637035369873 8.590368270874023 0.275346577167511 9360965 4 -1
-2.6826581954956055 8.566858291625977 0.3441832363605499 10016830 4 -1
-2.970700263977051 8.512755393981934 0 2328718 4 -1
-2.8242006301879883 8.534557342529297 0.6908605694770813 3257723 4 -1
-2.82244873046875 8.529263496398926 0.7599465847015381 4045940 0 -1
-2.7020978927612305 8.628937721252441 0.346677303314209 2072968 4 -1
-3.0378365516662598 8.48288631439209 0.8320255875587463 3257723 0 -1
-2.8499629497528076 8.612409591674805 -0.4175092279911041 2199437 4 -1
-2.6439146995544434 8.686802864074707 -0.13916973769664764 2072968 4 -1
-2.6429827213287354 8.683741569519043 0.2783394753932953 2139270 4 -1
-2.8476145267486572 8.60531234741211 -0.5566789507865906 10016830 4 -1
-2.7155299186706543 8.671831130981445 -0.6983428001403809 10016830 4 -1
-2.8665904998779297 8.662656784057617 0.630753219127655 2666112 0 -1
-4.2900543212890625 7.946239948272705 -2.7484776973724365 4456788 0 -1
-4.374438285827637 8.273683547973633 -1.2295821905136108 4456788 0 -1
-4.471174716949463 8.281720161437988 -0.723283588886261 4456788 0 -1
-4.902745723724365 7.411918640136719 -3.182447910308838 4523353 0 -1
-4.608826160430908 7.862102508544922 -2.4591643810272217 4523353 0 -1
-3.0725510120391846 8.57982349395752 -2.4591643810272217 4523353 0 -1
-4.489109039306641 8.31493854522705 -0.6531999111175537 4456788 0 -1
-4.919651508331299 7.437476634979248 -3.1934218406677246 4523353 0 -1
-4.62471866607666 7.8892130851745605 -2.467644214630127 4523353 0 -1
-3.0764386653900146 8.590679168701172 -2.540221929550171 4523353 0 -1
-7.628613471984863 5.479065418243408 -1.833149790763855 2718350 0 -1
-3.4413607120513916 8.914590835571289 0.5132819414138794 2523534 0 -1
-3.0793299674987793 9.059391021728516 -0.1466519832611084 2523534 0 -1
-7.506739139556885 5.541065692901611 -2.1264538764953613 2264205 0 -1
-7.532271862030029 5.55991268157959 -2.1336865425109863 2718350 0 -1
-7.642655372619629 5.489150524139404 -1.912960410118103 2458766 0 -1
-3.161419630050659 9.059274673461914 0.3678770065307617 2458766 0 -1
-7.54551887512207 5.569691181182861 -2.0601112842559814 2328718 0 -1
-7.6173810958862305 5.470998287200928 -2.0601112842559814 2264205 0 -1
-7.446930885314941 5.645493030548096 -2.2072620391845703 2134668 0 -1
-3.247910261154175 9.069498062133789 0.1476496160030365 3107982 0 -1
-3.2481963634490967 9.070297241210938 -0.07382480800151825 2588302 0 -1
-7.608051300048828 5.615849018096924 -1.8456202745437622 2458766 0 -1
-3.1740939617156982 9.09559440612793 0.1476496160030365 2458766 0 -1
-7.557805061340332 5.578760147094727 -2.1409194469451904 2328718 0 -1
-7.629784107208252 5.4799065589904785 -2.1409194469451904 2264205 0 -1
-7.4989914894104 5.684959888458252 -2.067094564437866 2134668 0 -1
-3.259169816970825 9.100939750671387 0.07407421618700027 3107982 0 -1
-7.924563884735107 5.217921257019043 -1.8518553972244263 2134668 0 -1
-3.1944143772125244 9.153824806213379 -0.2972944974899292 3692940 0 -1
-3.775099039077759 8.892163276672363 -3.025071382522583 4456788 0 -1
-3.8814408779144287 8.734010696411133 -3.3353350162506104 4456788 0 -1
-4.4200897216796875 9.103936195373535 -0.23269779980182648 4456788 0 -1
-4.8568196296691895 8.63123893737793 -2.094280242919922 4523353 0 -1
-4.972830295562744 8.483049392700195 -2.404543876647949 4657508 0 -1
-4.429089546203613 9.122472763061523 -0.5447073578834534 4456788 0 -1
6.520009994506836 7.9114274978637695 -0.15712712705135345 4456788 6 -1
6.442212104797363 7.9764533042907715 0 4456788 6 -1
6.461905002593994 8.000835418701172 0.1576259434223175 4456788 6 -1
6.540708541870117 7.936542987823486 -0.1576259434223175 4456788 6 -1
6.461905002593994 8.000835418701172 0.1576259434223175 4456788 6 -1
6.459627628326416 7.998015880584717 0.315251886844635 4456788 6 -1
6.482353687286377 8.026154518127441 -0.15812475979328156 4456788 6 -1
6.561407089233398 7.961658954620361 0.15812475979328156 4456788 6 -1
6.56044340133667 7.960489749908447 -0.23718714714050293 4456788 6 -1
6.402360439300537 8.088176727294922 0.23718714714050293 4456788 6 -1
6.422557353973389 8.113691329956055 -0.2379353642463684 4456788 6 -1
6.343266487121582 8.175829887390137 0.2379353642463684 4456788 6 -1
-3.896726131439209 9.1786527633667 -2.7759125232696533 4523353 0 -1
-3.205247402191162 9.686057090759277 -1.7448593378067017 4523353 0 -1
6.523826599121094 8.07750415802002 0.07956119626760483 4456788 6 -1
6.444267749786377 8.141118049621582 0.07956119626760483 4456788 6 -1
6.285150051116943 8.264579772949219 0.07956119626760483 4456788 6 -1
6.6033854484558105 8.012596130371094 0.07956119626760483 4456788 6 -1
6.36470890045166 8.20346736907959 -0.07956119626760483 4456788 6 -1
6.676074028015137 7.9381914138793945 -0.47736719250679016 4456788 6 -1
6.543701171875 8.10211181640625 -0.1596212089061737 4456788 6 -1
6.464659214019775 8.166878700256348 0 4456788 6 -1
6.544277667999268 8.102826118469238 -0.07981060445308685 4456788 6 -1
6.3831610679626465 8.227250099182129 0.23943181335926056 4456788 6 -1
6.7040910720825195 7.9715046882629395 0 4456788 6 -1
6.624085903167725 8.037714004516602 -0.07981060445308685 4456788 6 -1
6.3846611976623535 8.229183197021484 0.07981060445308685 4456788 6 -1
6.206925392150879 8.326272964477539 0.7981060743331909 4456788 6 -1
6.62116813659668 8.034173011779785 0.3192424178123474 4456788 6 -1
6.463900089263916 8.165919303894043 -0.1596212089061737 4456788 6 -1
6.464659214019775 8.166878700256348 0 4456788 6 -1
6.484670639038086 8.192159652709961 -0.08006001263856888 4456788 6 -1
6.564920902252197 8.128385543823242 0 4456788 6 -1
6.484670639038086 8.192159652709961 -0.08006001263856888 4456788 6 -1
6.395581245422363 8.243258476257324 0.5604200959205627 4456788 6 -1
6.64185905456543 8.059280395507812 -0.3202400505542755 4456788 6 -1
6.483147621154785 8.190235137939453 -0.24018004536628723 4456788 6 -1
6.484860897064209 8.192399978637695 0 4456788 6 -1
6.483147621154785 8.190235137939453 -0.24018004536628723 4456788 6 -1
6.481814384460449 8.18855094909668 -0.3202400505542755 4456788 6 -1
6.564920902252197 8.128385543823242 0 4456788 6 -1
6.741038799285889 8.015438079833984 0.4015471041202545 4456788 6 -1
6.745199203491211 8.020384788513184 0.1606188416481018 4456788 6 -1
6.500287055969238 8.211888313293457 0.4015471041202545 4456788 6 -1
6.738858222961426 8.012845039367676 -0.4818565249443054 4456788 6 -1
6.578409194946289 8.145086288452148 -0.4818565249443054 4456788 6 -1
6.344133377075195 7.855016708374023 -2.8108296394348145 4456788 0 -1
6.505063056945801 8.217921257019043 0 4456788 6 -1
6.505063056945801 8.217921257019043 0 4456788 6 -1
6.344444274902344 8.342548370361328 0 4456788 6 -1
6.658633708953857 8.079634666442871 -0.4818565249443054 4456788 6 -1
6.505063056945801 8.217921257019043 0 4456788 6 -1
6.345437049865723 8.343853950500488 0.8055883049964905 4456788 6 -1
6.759786605834961 8.037729263305664 0.48335298895835876 4456788 6 -1
6.437891960144043 8.297792434692383 0.48335298895835876 4456788 6 -1
6.759786605834961 8.037729263305664 0.48335298895835876 4456788 6 -1
6.509730339050293 8.223817825317383 0.725029468536377 4456788 6 -1
6.509730339050293 8.223817825317383 0.725029468536377 4456788 6 -1
6.518365383148193 8.234726905822754 0.48335298895835876 4456788 6 -1
6.326069355010986 7.991796493530273 -2.5778825283050537 4456788 0 -1
6.23527193069458 8.036635398864746 -2.6584413051605225 4456788 0 -1
6.4430036544799805 8.304380416870117 -0.24167649447917938 4456788 6 -1
6.4599127769470215 8.326175689697266 -0.40404120087623596 4456788 6 -1
6.457823276519775 8.323482513427734 0.4848494231700897 4456788 6 -1
6.787095069885254 8.07020092010498 0.1616164743900299 4456788 6 -1
6.626275539398193 8.204352378845215 0 4456788 6 -1
6.542392253875732 8.265079498291016 0.3232329487800598 4456788 6 -1
6.502089500427246 8.214164733886719 -1.2121235132217407 4456788 6 -1
6.358129024505615 8.03229808807373 -2.5050554275512695 4456788 0 -1
6.538546085357666 8.260221481323242 -0.4848494231700897 4456788 6 -1
6.699991703033447 8.1298189163208 -0.4848494231700897 4456788 6 -1
6.702159404754639 8.13244915008545 -0.40404120087623596 4456788 6 -1
6.703932762145996 8.134600639343262 -0.3232329487800598 4456788 6 -1
6.461536407470703 8.328268051147461 0.8916341066360474 4456788 6 -1
