VERSION .7
FIELDS x y z rgb label object
SIZE 4 4 4 4 4 4
TYPE F F F I I I
COUNT 1 1 1 1 1 1
WIDTH 680
HEIGHT 1
POINTS 680
VIEWPOINT 0 0 0 1 0 0 0
DATA ascii
-1.5803864002227783 2.162688970565796 -0.3519148826599121 4523353 0 -1
-1.6278234720230103 2.0154967308044434 -0.7659323811531067 4724328 0 -1
-1.4933135509490967 2.212982654571533 -0.41401752829551697 4724328 0 -1
-2.0148627758026123 1.81358802318573 -0.35615482926368713 4456788 0 -1
-2.1004843711853027 1.6765354871749878 -0.5028068423271179 4456788 0 -1
-2.0148627758026123 1.81358802318573 -0.35615482926368713 4456788 0 -1
-1.6520373821258545 2.1293091773986816 -0.4609062373638153 4456788 0 -1
-2.010525941848755 1.8096843957901 -0.39805540442466736 4456788 0 -1
-1.6280531883239746 2.098396062850952 -0.6494588255882263 4456788 0 -1
-1.5130761861801147 2.242269515991211 -0.39805540442466736 4456788 0 -1
-1.5921504497528076 2.1787877082824707 -0.4399559497833252 4456788 0 -1
-1.514754295349121 2.2447564601898193 -0.37710511684417725 4456788 0 -1
-1.5900859832763672 2.175962448120117 -0.4609062373638153 4456788 0 -1
-1.58792245388031 2.173001766204834 -0.4818565249443054 4456788 0 -1
-1.5941165685653687 2.1814780235290527 -0.41900569200515747 4523353 0 -1
-1.6280531883239746 2.098396062850952 -0.6494588255882263 4724328 0 -1
-1.5941165685653687 2.1814780235290527 -0.41900569200515747 4725613 0 -1
-1.9023629426956177 1.997684359550476 -0.211996927857399 4456788 0 -1
-1.693534016609192 2.1827943325042725 0.14839784801006317 4456788 0 -1
-1.799379825592041 2.0963969230651855 0.14839784801006317 4456788 0 -1
-1.925544023513794 1.9794411659240723 -0.1695975363254547 4456788 0 -1
-1.6909892559051514 2.1795144081115723 0.211996927857399 4456788 0 -1
-1.9209994077682495 1.9747693538665771 -0.25439631938934326 4456788 0 -1
-1.716368317604065 2.1683080196380615 0.08479876816272736 4456788 0 -1
-1.8011271953582764 2.098432779312134 0.08479876816272736 4456788 0 -1
-1.8231199979782104 2.0809743404388428 -0.02119969204068184 4456788 0 -1
-1.585958480834961 2.2139692306518555 -0.4875929057598114 4456788 0 -1
-1.8017622232437134 2.099172592163086 0.04239938408136368 4523353 0 -1
-1.8017622232437134 2.099172592163086 -0.04239938408136368 4590430 0 -1
-1.8205490112304688 2.0780398845672607 -0.14839784801006317 4657508 0 -1
-1.92457914352417 1.9784493446350098 -0.19079722464084625 4724328 0 -1
-1.925544023513794 1.9794411659240723 -0.1695975363254547 4536450 0 -1
-1.814105749130249 2.0706851482391357 0.2755959928035736 4147337 0 -1
-1.3990153074264526 2.38655161857605 0.04239938408136368 4147337 0 -1
-1.844406008720398 2.105271100997925 0.04289820045232773 4456788 0 -1
-1.9276401996612549 2.02422833442688 -0.15014369785785675 4456788 0 -1
-1.8188331127166748 2.119061231613159 -0.19304190576076508 4456788 0 -1
-1.9235496520996094 2.019932746887207 -0.2359400987625122 4456788 0 -1
-1.8229594230651855 2.123868703842163 0.04289820045232773 4456788 0 -1
-1.822691798210144 2.1235568523406982 -0.0643472969532013 4456788 0 -1
-1.8229594230651855 2.123868703842163 0.04289820045232773 4523353 0 -1
-1.8231199979782104 2.124055862426758 -0.021449100226163864 4590430 0 -1
-1.8223170042037964 2.1231203079223633 -0.08579640090465546 4657508 0 -1
-1.9267886877059937 2.02333402633667 -0.1715928018093109 4724328 0 -1
-1.9482165575027466 2.0458357334136963 -0.1952865719795227 4456788 0 -1
-1.8441566228866577 2.1485648155212402 0.04339701682329178 4456788 0 -1
-1.8660169839859009 2.1299386024475098 -0.02169850841164589 4456788 0 -1
-1.8441566228866577 2.1485648155212402 0.04339701682329178 4523353 0 -1
-1.9308186769485474 2.642240047454834 -0.5596718788146973 4456788 0 -1
-1.7803035974502563 2.8013246059417725 -0.0763188898563385 4456788 0 -1
-1.8048876523971558 2.783689260482788 -0.12719815969467163 4456788 0 -1
-1.9541881084442139 2.674220085144043 0.2289566695690155 4456788 0 -1
-1.8043038845062256 2.7827889919281006 -0.152637779712677 4456788 0 -1
-2.7591283321380615 1.816745400428772 -0.33071520924568176 4523353 0 -1
-1.8780755996704102 2.6217594146728516 0.7886285185813904 4523353 0 -1
-2.6880388259887695 1.8235630989074707 0.6868700385093689 4590430 0 -1
-1.897606611251831 2.649024486541748 0.6359907388687134 4590430 0 -1
-2.712928056716919 1.7863248586654663 0.6868700385093689 4657508 0 -1
-2.7283968925476074 1.74192476272583 0.7377492785453796 4724328 0 -1
-1.8476550579071045 2.7932651042938232 -0.15413422882556915 4456788 0 -1
-1.8461323976516724 2.7909634113311768 -0.20551231503486633 4456788 0 -1
-1.9546905755996704 2.674907684326172 -0.5137807726860046 4456788 0 -1
-1.944320797920227 2.660717010498047 -0.6165369153022766 4456788 0 -1
-1.8230648040771484 2.8117241859436035 -0.10275615751743317 4456788 0 -1
-1.8476550579071045 2.7932651042938232 -0.15413422882556915 4456788 0 -1
-1.8461323976516724 2.7909634113311768 -0.20551231503486633 4456788 0 -1
-1.8491220474243164 2.795482873916626 0.07706711441278458 4456788 0 -1
-1.8487417697906494 2.794908046722412 -0.10275615751743317 4456788 0 -1
-1.8461323976516724 2.7909634113311768 -0.20551231503486633 4456788 0 -1
-1.8487417697906494 2.794908046722412 -0.10275615751743317 4523353 0 -1
-1.8476550579071045 2.7932651042938232 -0.15413422882556915 4590430 0 -1
-1.8495564460754395 2.796139717102051 -0.02568903937935829 4725613 0 -1
-1.8461323976516724 2.7909634113311768 -0.20551231503486633 4147337 0 -1
-1.846948266029358 2.792196750640869 0.17982326447963715 4045940 0 -1
-2.8262341022491455 1.5163716077804565 -0.9761834740638733 6933851 0 -1
-1.9649471044540405 2.688943386077881 -0.3853355646133423 6933851 0 -1
-1.865593433380127 2.8203842639923096 -0.1556306779384613 4456788 0 -1
-1.8631219863891602 2.816648006439209 -0.23344601690769196 4456788 0 -1
-1.865593433380127 2.8203842639923096 -0.1556306779384613 4456788 0 -1
-1.865593433380127 2.8203842639923096 -0.1556306779384613 4456788 0 -1
-1.86405611038208 2.8180601596832275 -0.20750758051872253 4456788 0 -1
-1.8675132989883423 2.823286771774292 -0.025938447564840317 4456788 0 -1
-1.865593433380127 2.8203842639923096 -0.1556306779384613 4456788 0 -1
-1.8631219863891602 2.816648006439209 -0.23344601690769196 4456788 0 -1
-1.865593433380127 2.8203842639923096 -0.1556306779384613 4523353 0 -1
-1.864879846572876 2.819305419921875 -0.18156912922859192 4590430 0 -1
-1.864879846572876 2.819305419921875 -0.18156912922859192 4657508 0 -1
-1.867074728012085 2.8226234912872314 -0.07781533896923065 4725613 0 -1
-1.86405611038208 2.8180601596832275 -0.20750758051872253 4147337 0 -1
-1.9821937084197998 2.7125444412231445 -0.41501516103744507 6933851 0 -1
-2.490007162094116 2.293102741241455 -0.47138139605522156 4456788 0 -1
-1.8775379657745361 2.838441848754883 -0.3142542541027069 4456788 0 -1
-1.884141206741333 2.8484246730804443 -0.1309392750263214 4456788 0 -1
-1.881036639213562 2.843731164932251 -0.23569069802761078 4456788 0 -1
-1.9096919298171997 2.8300254344940186 -0.15712712705135345 4456788 0 -1
-1.8835318088531494 2.847503423690796 -0.15712712705135345 4456788 0 -1
-1.8835318088531494 2.847503423690796 -0.15712712705135345 4456788 0 -1
-1.8819797039031982 2.8451569080352783 -0.20950284600257874 4456788 0 -1
-1.8799822330474854 2.842137098312378 -0.2618785500526428 4456788 0 -1
-1.908961534500122 2.8289427757263184 -0.1833149790763855 4456788 0 -1
-1.8828113079071045 2.846414089202881 -0.1833149790763855 4456788 0 -1
-1.881036639213562 2.843731164932251 -0.23569069802761078 4456788 0 -1
-1.8828113079071045 2.846414089202881 -0.1833149790763855 4523353 0 -1
-1.8819797039031982 2.8451569080352783 -0.20950284600257874 4590430 0 -1
-1.884141206741333 2.8484246730804443 -0.1309392750263214 4657508 0 -1
-1.9108152389526367 2.8316900730133057 -0.10475142300128937 4724328 0 -1
-1.910309910774231 2.8309409618377686 -0.1309392750263214 4147337 0 -1
-1.9949805736541748 2.7300426959991455 -0.4975692331790924 6933851 0 -1
-1.985498309135437 2.771719455718994 -0.5287452340126038 4456788 0 -1
-1.929693579673767 2.859666347503662 -0.052874527871608734 4456788 0 -1
-2.924093723297119 1.808123230934143 0.29080989956855774 4456788 0 -1
-1.8999032974243164 2.872253656387329 -0.21149811148643494 4456788 0 -1
-1.929693579673767 2.859666347503662 -0.052874527871608734 4590430 0 -1
-2.018324851989746 2.7619881629943848 -0.44943347573280334 4724328 0 -1
-2.018324851989746 2.7619881629943848 -0.44943347573280334 4724328 0 -1
-2.0354301929473877 2.7853963375091553 0.052874527871608734 4147337 0 -1
-1.9298635721206665 2.8599181175231934 -0.026437263935804367 4147337 0 -1
-2.0460598468780518 2.744684934616089 -0.640480101108551 4456788 0 -1
-2.037365436553955 2.7880446910858154 -0.45367342233657837 4456788 0 -1
-2.061666488647461 2.765620470046997 -0.48036009073257446 4456788 0 -1
-2.9398744106292725 1.8178812265396118 0.4269867241382599 4456788 0 -1
-2.773747205734253 1.9369550943374634 -0.8272867798805237 4456788 0 -1
-1.9227408170700073 2.849362850189209 -0.5604200959205627 4456788 0 -1
-2.03298020362854 2.782043695449829 -0.5070467591285706 4523353 0 -1
-2.788304567337036 2.002631902694702 -0.5871067643165588 4590430 0 -1
-2.4812045097351074 2.4427618980407715 -0.08006001263856888 4590430 0 -1
-1.9168659448623657 2.897897481918335 0.24018004536628723 4590430 0 -1
-2.0555381774902344 2.702904462814331 0.7739134430885315 4657508 0 -1
-1.9536750316619873 3.265723466873169 -0.14590376615524292 4456788 0 -1
-2.8898284435272217 2.1907691955566406 1.2654969692230225 4456788 0 -1
-3.0138144493103027 2.345041513442993 0.41202226281166077 4456788 0 -1
-3.0517382621765137 2.3135123252868652 -0.2943015992641449 4456788 0 -1
-2.936009645462036 2.462062120437622 -0.2648714482784271 4456788 0 -1
-3.0138144493103027 2.345041513442993 0.41202226281166077 4523353 0 -1
-3.030505657196045 2.3580288887023926 0.08829048275947571 4590430 0 -1
-2.995499849319458 2.3307909965515137 -0.5886031985282898 4657508 0 -1
-2.981982469558716 2.380117654800415 0.44145241379737854 4724328 0 -1
-2.8999884128570557 2.490934371948242 0.6232709288597107 4456788 0 -1
-2.9132423400878906 2.502318859100342 0.5045526623725891 4456788 0 -1
-2.967869758605957 2.488779306411743 -0.029679568484425545 4456788 0 -1
-2.9363350868225098 2.4623351097106934 0.5639117956161499 4456788 0 -1
-2.942668914794922 2.467646598815918 0.5045526623725891 4456788 0 -1
-2.892287254333496 2.4843196868896484 0.6826300621032715 4590430 0 -1
-2.9455676078796387 2.4700772762298584 0.4748730957508087 4657508 0 -1
-2.8962278366088867 2.4877045154571533 0.6529505252838135 4147337 0 -1
-2.9329025745391846 2.4594566822052 0.7781534194946289 4456788 0 -1
-2.9575445652008057 2.480120897293091 0.5985795259475708 4456788 0 -1
-2.970320224761963 2.4908342361450195 0.4788636267185211 4456788 0 -1
-2.9885895252227783 2.5061542987823486 -0.20950284600257874 4456788 0 -1
-2.961010217666626 2.4830269813537598 0.5686505436897278 4456788 0 -1
-2.970320224761963 2.4908342361450195 0.4788636267185211 4456788 0 -1
-2.961010217666626 2.4830269813537598 0.5686505436897278 4523353 0 -1
-2.9314000606536865 2.5179152488708496 0.5686505436897278 4590430 0 -1
-2.9756271839141846 2.4952845573425293 0.41900569200515747 4657508 0 -1
-2.9730632305145264 2.4931344985961914 0.4489346444606781 4664956 0 -1
-2.953896999359131 2.4770619869232178 0.6285085082054138 4147337 0 -1
-2.9889965057373047 2.506495714187622 0.5432109236717224 4456788 0 -1
-2.9978389739990234 2.5139105319976807 0.45267578959465027 4456788 0 -1
-3.1672418117523193 2.3378853797912598 0.12071353942155838 4456788 0 -1
-2.9821908473968506 2.500788450241089 0.6035677194595337 4456788 0 -1
-3.1177523136138916 2.3635575771331787 0.45267578959465027 4456788 0 -1
-2.959106683731079 2.5417139530181885 0.5432109236717224 4456788 0 -1
-2.995072841644287 2.5115911960601807 0.4828541576862335 4456788 0 -1
-3.1273837089538574 2.370858907699585 0.3319622278213501 4523353 0 -1
-2.9889965057373047 2.506495714187622 0.5432109236717224 4523353 0 -1
-2.9651222229003906 2.5468809604644775 0.4828541576862335 4590430 0 -1
-3.0004241466522217 2.516078472137451 0.42249739170074463 4657508 0 -1
-3.0004241466522217 2.516078472137451 0.42249739170074463 4664956 0 -1
-2.978512763977051 2.497704267501831 0.6337460875511169 4147337 0 -1
-2.822072982788086 2.6581618785858154 0.6941028833389282 4147337 0 -1
-2.760390043258667 2.777308464050293 0.42249739170074463 6343264 0 -1
-2.8529722690582275 2.6872663497924805 0.6389836668968201 4456788 0 -1
-2.8564951419830322 2.690584659576416 0.6085558533668518 4456788 0 -1
-3.163654327392578 2.398355484008789 -0.09128338098526001 4456788 0 -1
-2.9769492149353027 2.4963932037353516 0.8215504288673401 4456788 0 -1
-2.8371078968048096 2.67232346534729 0.7606948614120483 4456788 0 -1
-3.1435189247131348 2.3830909729003906 0.45641690492630005 4456788 0 -1
-2.9692420959472656 2.550419569015503 0.6694114804267883 4456788 0 -1
-2.8192803859710693 2.715271234512329 0.6694114804267883 4456788 0 -1
-2.9802567958831787 2.559880495071411 0.5781280994415283 4456788 0 -1
-2.811432361602783 2.7077126502990723 0.7302670478820801 4456788 0 -1
-3.285815715789795 2.2290945053100586 -0.06085558608174324 4523353 0 -1
-3.1532297134399414 2.3904528617858887 0.33470574021339417 4523353 0 -1
-2.845396041870117 2.6801300048828125 0.6998392343521118 4523353 0 -1
-2.8328771591186523 2.7283661365509033 0.5477002859115601 4590430 0 -1
-2.9973692893981934 2.5745794773101807 0.3955613076686859 4657508 0 -1
-2.8412575721740723 2.7364375591278076 0.45641690492630005 4657508 0 -1
-3.2823641300201416 2.292131185531616 -0.030677201226353645 4456788 0 -1
-2.922795057296753 2.691666841506958 -0.4908352196216583 4456788 0 -1
-3.248344898223877 2.3330445289611816 -0.18406321108341217 4456788 0 -1
-2.8950204849243164 2.726872205734253 -0.46015802025794983 4456788 0 -1
-2.2855424880981445 3.254730701446533 0.46015802025794983 4456788 0 -1
-3.244041919708252 2.329953908920288 -0.27609482407569885 4456788 0 -1
-3.126777172088623 2.49568772315979 -0.15338601171970367 4456788 0 -1
-3.2471024990081787 2.3321521282196045 -0.21474041044712067 4523353 0 -1
-3.2422232627868652 2.3286478519439697 -0.30677202343940735 4590430 0 -1
-2.8726274967193604 2.705779790878296 0.6748984456062317 4590430 0 -1
-2.292602777481079 3.264785051345825 0.33744922280311584 4590430 0 -1
-2.30795955657959 3.286653518676758 -0.40204593539237976 4456788 0 -1
-2.2852747440338135 3.319798707962036 0.21648626029491425 4456788 0 -1
-2.315133810043335 3.296870231628418 0.24741287529468536 4456788 0 -1
-2.30795955657959 3.286653518676758 0.40204593539237976 4523353 0 -1
-2.3096697330474854 3.2890889644622803 0.37111932039260864 4590430 0 -1
-2.304124116897583 3.281191825866699 0.4638991355895996 4725613 0 -1
-3.665679454803467 1.7318798303604126 -0.3429361879825592 4456788 0 -1
-2.5538902282714844 3.0989089012145996 -0.6546963453292847 4456788 0 -1
-2.4582736492156982 3.2324764728546143 0.24940814077854156 4456788 0 -1
-2.551625967025757 3.159306764602661 0.24940814077854156 4456788 0 -1
-2.3064157962799072 3.3505098819732666 0.09352805465459824 4456788 0 -1
-3.2726168632507324 2.4156675338745117 -0.09352805465459824 4456788 0 -1
-2.5545566082000732 3.162935256958008 -0.15588009357452393 4456788 0 -1
-2.3045859336853027 3.3478517532348633 0.18705610930919647 4456788 0 -1
-2.5473365783691406 3.1539957523345947 0.3429361879825592 4523353 0 -1
-2.3064157962799072 3.3505098819732666 0.09352805465459824 4523353 0 -1
-2.5563583374023438 3.1651663780212402 0.031176017597317696 4590430 0 -1
-2.3015329837799072 3.343416929244995 0.2805841565132141 4590430 0 -1
-3.1421735286712646 2.634945869445801 -0.06285085529088974 4456788 0 -1
-2.888042449951172 2.8432962894439697 -0.6285085082054138 4456788 0 -1
-2.5522572994232178 3.160088539123535 0.5656576752662659 4456788 0 -1
-3.1392197608947754 2.6324689388275146 -0.18855255842208862 4456788 0 -1
-2.564068555831909 3.174712657928467 0.4085305333137512 4456788 0 -1
-3.298797845840454 2.434992790222168 -0.09427627921104431 4456788 0 -1
-2.5707502365112305 3.182985544204712 -0.28282883763313293 4456788 0 -1
-3.141712188720703 2.634559154510498 -0.09427627921104431 4523353 0 -1
-2.5090317726135254 3.1696887016296387 0.6913593411445618 4523353 0 -1
-2.540672540664673 3.2096610069274902 0.25140342116355896 4590430 0 -1
-3.1013152599334717 2.3510966300964355 1.3936927318572998 4456788 0 -1
-2.4857287406921387 3.268578052520752 -0.47512251138687134 4456788 0 -1
-3.1666464805603027 2.655468225479126 -0.09502450376749039 4523353 0 -1
-1.7704945802688599 4.476373195648193 -0.18456202745437622 4456788 4 -1
-1.7340679168701172 4.491974830627441 -0.1476496160030365 4456788 4 -1
-1.993269920349121 4.385601997375488 0 4456788 4 -1
-1.7804125547409058 4.501448631286621 -0.2972944974899292 4456788 4 -1
-1.7464001178741455 4.52392053604126 0.0743236243724823 4456788 4 -1
-1.7081884145736694 4.535290718078613 -0.18580906093120575 4456788 4 -1
-1.819591999053955 4.491754055023193 -0.18580906093120575 4456788 4 -1
-1.7832956314086914 4.508738040924072 -0.11148543655872345 4456788 4 -1
-1.819591999053955 4.491754055023193 -0.18580906093120575 4456788 4 -1
-1.7829289436340332 4.507811069488525 -0.1486472487449646 4456788 4 -1
-1.7829289436340332 4.507811069488525 -0.1486472487449646 4456788 4 -1
-1.7464001178741455 4.52392053604126 -0.0743236243724823 4456788 4 -1
-2.0433595180511475 4.3969926834106445 -0.11148543655872345 4456788 4 -1
-2.043839693069458 4.398025989532471 -0.03716181218624115 4456788 4 -1
-2.080817222595215 4.380178928375244 0.0743236243724823 4456788 4 -1
-1.9695183038711548 4.431806564331055 0.03716181218624115 4456788 4 -1
-2.367983102798462 4.039494037628174 -1.2635016441345215 2199437 0 -1
-2.399616241455078 4.093456268310547 -1.0033689737319946 2134668 0 -1
-1.7570364475250244 4.551473140716553 -0.18705610930919647 4456788 4 -1
-1.6794970035552979 4.572088718414307 0.33670100569725037 4456788 4 -1
-1.8312114477157593 4.520437240600586 -0.22446732223033905 4456788 4 -1
-1.8305109739303589 4.518708229064941 -0.2618785500526428 4456788 4 -1
-1.7582757472991943 4.554683208465576 -0.037411220371723175 4456788 4 -1
-1.7948949337005615 4.538064956665039 -0.1496448814868927 4456788 4 -1
-1.7944202423095703 4.536864757537842 -0.18705610930919647 4456788 4 -1
-1.7948949337005615 4.538064956665039 -0.1496448814868927 4456788 4 -1
-2.0575568675994873 4.427542686462402 -0.037411220371723175 4456788 4 -1
-2.057375431060791 4.427152633666992 -0.07482244074344635 4456788 4 -1
-1.9827364683151245 4.461550235748291 -0.037411220371723175 4456788 4 -1
-2.0199687480926514 4.444344997406006 -0.07482244074344635 4456788 4 -1
-2.020146608352661 4.444736480712891 0.037411220371723175 4456788 4 -1
-1.7850855588912964 4.303806781768799 -1.4590376615524292 4456788 0 -1
-2.304124116897583 4.2678070068359375 0.5611683130264282 2912910 0 -1
-2.354414701461792 4.271348476409912 -0.22446732223033905 2458766 0 -1
-2.302022695541382 4.176299571990967 -1.0475142002105713 2264205 0 -1
-1.9938805103302002 4.386945724487305 -0.7856356501579285 12640037 4 -1
-1.996342658996582 4.392362594604492 -0.7482244372367859 13164576 4 -1
-1.8434195518493652 4.550573348999023 -0.2259637713432312 4456788 4 -1
-1.8434195518493652 4.550573348999023 -0.2259637713432312 4456788 4 -1
-1.8440159559249878 4.552045822143555 -0.188303142786026 4456788 4 -1
-1.8068609237670898 4.5683183670043945 -0.1506425142288208 4456788 4 -1
-1.8063830137252808 4.567110538482666 -0.188303142786026 4456788 4 -1
-1.8068609237670898 4.5683183670043945 -0.1506425142288208 4456788 4 -1
-2.0698139667510986 4.453917980194092 0.188303142786026 4456788 4 -1
-2.0698139667510986 4.453917980194092 0.188303142786026 4456788 4 -1
-2.0331366062164307 4.4733171463012695 0.1129818856716156 4456788 4 -1
-1.9578351974487305 4.506782531738281 0.1129818856716156 4456788 4 -1
-2.071091413497925 4.456666946411133 -0.0753212571144104 4456788 4 -1
-2.071091413497925 4.456666946411133 -0.0753212571144104 4456788 4 -1
-1.9957789182662964 4.490898132324219 -0.0753212571144104 4456788 4 -1
-2.0321810245513916 4.471214294433594 -0.188303142786026 4456788 4 -1
-1.9950755834579468 4.489315509796143 -0.1506425142288208 4456788 4 -1
-1.9960134029388428 4.491425514221191 0 4456788 4 -1
-1.8329259157180786 4.317416667938232 -1.4687645435333252 4456788 0 -1
-1.7089258432388306 4.426846027374268 -1.2804614305496216 4456788 0 -1
-2.3723409175872803 4.30387020111084 -0.0753212571144104 2458766 0 -1
-1.990145206451416 4.4782209396362305 -0.376606285572052 11918891 4 -1
-1.950056552886963 4.488876819610596 -0.4519275426864624 13164576 4 -1
-1.8556276559829712 4.580709934234619 -0.22746022045612335 4456788 4 -1
-1.8571009635925293 4.584346771240234 -0.11373011022806168 4456788 4 -1
-1.8194681406021118 4.600193500518799 -0.07582007348537445 4456788 4 -1
-1.8194681406021118 4.600193500518799 -0.07582007348537445 4456788 4 -1
-1.8946113586425781 4.56787109375 0.1516401469707489 4456788 4 -1
-1.971264123916626 4.537694931030273 -0.037910036742687225 4456788 4 -1
-2.0828473567962646 4.481964111328125 0.22746022045612335 4456788 4 -1
-2.0835213661193848 4.483414173126221 0.18955019116401672 4456788 4 -1
-2.0466010570526123 4.502941608428955 0.11373011022806168 4456788 4 -1
-2.1207172870635986 4.464169979095459 0.22746022045612335 4456788 4 -1
-1.930628776550293 4.547553539276123 0.26537024974823 4456788 4 -1
-1.969874620437622 4.534496307373047 0.18955019116401672 4456788 4 -1
-1.969874620437622 4.534496307373047 0.18955019116401672 4456788 4 -1
-2.0848071575164795 4.486181259155273 -0.07582007348537445 4456788 4 -1
-2.1227128505706787 4.46837043762207 -0.07582007348537445 4456788 4 -1
-2.00899600982666 4.520639419555664 -0.07582007348537445 4456788 4 -1
-2.0449774265289307 4.499369144439697 -0.22746022045612335 4456788 4 -1
-2.0063397884368896 4.514662265777588 -0.26537024974823 4456788 4 -1
-1.9065715074539185 4.596706867218018 -0.19079722464084625 4456788 4 -1
-1.8693187236785889 4.614506721496582 -0.11447833478450775 4456788 4 -1
-1.8315995931625366 4.630866050720215 -0.03815944492816925 4456788 4 -1
-1.9460746049880981 4.5839362144470215 -0.03815944492816925 4456788 4 -1
-2.0222132205963135 4.550380229949951 -0.0763188898563385 4456788 4 -1
-2.096550226211548 4.51145076751709 0.2289566695690155 4456788 4 -1
-2.060065507888794 4.532566070556641 0.11447833478450775 4456788 4 -1
-1.9447028636932373 4.580705165863037 0.19079722464084625 4456788 4 -1
-1.9814348220825195 4.561107158660889 0.26711612939834595 4456788 4 -1
-2.098707914352417 4.516093730926514 0.03815944492816925 4456788 4 -1
-1.9452173709869385 4.581916809082031 0.152637779712677 4456788 4 -1
-2.1366779804229736 4.497767925262451 -0.0763188898563385 4456788 4 -1
-1.9842329025268555 4.5675482749938965 -0.03815944492816925 4456788 4 -1
-2.135925054550171 4.496182441711426 -0.152637779712677 4456788 4 -1
-1.9833589792251587 4.565536022186279 -0.152637779712677 4456788 4 -1
-2.1353600025177 4.494993209838867 -0.19079722464084625 4456788 4 -1
-2.172788381576538 4.475232124328613 -0.2289566695690155 4456788 4 -1
-2.0222132205963135 4.550380229949951 -0.0763188898563385 4456788 4 -1
-1.7157829999923706 4.44460916519165 -1.450058937072754 4456788 0 -1
-2.1165060997009277 4.455305099487305 -0.6868700385093689 4456788 4 -1
-1.7545098066329956 4.658275127410889 -0.152637779712677 4471684 4 -1
-1.755282998085022 4.660327911376953 -0.03815944492816925 4212104 4 -1
-1.7930200099945068 4.644685745239258 0.11447833478450775 3887499 4 -1
-1.7921772003173828 4.642502307891846 0.19079722464084625 3692940 4 -1
-1.9972604513168335 4.597536563873291 0 4456788 4 -1
-1.8436249494552612 4.661269664764404 0 4456788 4 -1
-1.9587939977645874 4.613896369934082 -0.038408853113651276 4456788 4 -1
-2.071092367172241 4.556827545166016 0.2688619792461395 4456788 4 -1
-1.9203863143920898 4.630013942718506 0.038408853113651276 4456788 4 -1
-2.074017286300659 4.563262939453125 -0.038408853113651276 4456788 4 -1
-1.9588515758514404 4.614031791687012 0 4456788 4 -1
-1.9184120893478394 4.625254154205322 0.23045311868190765 4456788 4 -1
-1.9158706665039062 4.619126796722412 0.3456796705722809 4456788 4 -1
-1.9972604513168335 4.597536563873291 0 4456788 4 -1
-1.8051631450653076 4.676141738891602 0.038408853113651276 4456788 4 -1
-2.0725553035736084 4.560046195983887 -0.19204427301883698 4456788 4 -1
-1.7665997743606567 4.690374374389648 0.07681770622730255 4456788 4 -1
-2.030822992324829 4.569754123687744 -0.3456796705722809 4456788 4 -1
-2.084959030151367 4.486507892608643 -0.8065859079360962 4456788 4 -1
-2.160775661468506 4.450489521026611 -0.8065859079360962 4456788 4 -1
-1.9759807586669922 4.5485520362854 -0.7297682166099548 4456788 4 -1
-2.127979278564453 4.479456424713135 -0.7297682166099548 4456788 4 -1
-1.7663403749465942 4.689685821533203 0.11522655934095383 4523353 4 -1
-1.7663403749465942 4.689685821533203 0.11522655934095383 4536450 4 -1
-1.8050041198730469 4.675729751586914 0.07681770622730255 4471684 4 -1
-1.7665997743606567 4.690374374389648 0.07681770622730255 4212104 4 -1
-1.8050041198730469 4.675729751586914 0.07681770622730255 3887499 4 -1
-1.8050041198730469 4.675729751586914 0.07681770622730255 3757452 4 -1
-1.8050041198730469 4.675729751586914 0.07681770622730255 3692940 4 -1
-2.4459407329559326 4.346774578094482 0.4993151128292084 2994813 0 -1
-2.080117702484131 4.576684951782227 0.4252408742904663 4456788 4 -1
-1.68367600440979 4.470209121704102 1.6236469745635986 4456788 0 -1
-2.231027603149414 4.497078895568848 0.5025573968887329 4456788 4 -1
-2.073711633682251 4.562590599060059 0.5798739194869995 4456788 4 -1
-2.081408739089966 4.579525947570801 0.386582612991333 4456788 4 -1
-2.081408739089966 4.579525947570801 0.386582612991333 4456788 4 -1
-1.9701238870620728 4.640583515167236 0.1932913064956665 4456788 4 -1
-2.0030763149261475 4.610924243927002 0.4252408742904663 4456788 4 -1
-2.008104085922241 4.62249755859375 0.2319495677947998 4456788 4 -1
-1.9314939975738525 4.656794548034668 0.1932913064956665 4456788 4 -1
-1.9713398218154907 4.6434478759765625 -0.0773165225982666 4456788 4 -1
-2.045034885406494 4.601733684539795 0.3092660903930664 4456788 4 -1
-1.8897452354431152 4.664930820465088 0.3479243516921997 4456788 4 -1
-1.8915280103683472 4.6693315505981445 0.2706078290939331 4456788 4 -1
-2.009993553161621 4.626847267150879 0.0773165225982666 4456788 4 -1
-1.816884994506836 4.706506252288818 0.0386582612991333 4456788 4 -1
-2.009993553161621 4.626847267150879 -0.0773165225982666 4456788 4 -1
-1.816884994506836 4.706506252288818 0.0386582612991333 4456788 4 -1
-2.0064492225646973 4.618688106536865 -0.3092660903930664 4456788 4 -1
-1.8553786277770996 4.690986633300781 0.0773165225982666 4456788 4 -1
-2.0653045177459717 4.544093132019043 -0.7345069646835327 4456788 4 -1
-1.9814614057540894 4.561168193817139 -0.8504817485809326 4456788 4 -1
-1.77744460105896 4.719167709350586 0.1546330451965332 4523353 4 -1
-1.815604329109192 4.703188896179199 0.1932913064956665 4657508 4 -1
-1.8160847425460815 4.704432964324951 0.1546330451965332 4536450 4 -1
-1.8164582252502441 4.705400466918945 0.1159747838973999 4471684 4 -1
-1.7778100967407227 4.7201385498046875 0.1159747838973999 4212104 4 -1
-1.816884994506836 4.706506252288818 0.0386582612991333 3887499 4 -1
-1.8167248964309692 4.706091403961182 0.0773165225982666 3692940 4 -1
-2.4328951835632324 4.413726806640625 -0.2319495677947998 2070155 0 -1
-2.5127131938934326 4.374762058258057 0.0386582612991333 2666112 0 -1
-2.158006191253662 4.542664051055908 0.7003380656242371 4456788 4 -1
-1.8699054718017578 4.508305549621582 1.4006761312484741 4456788 0 -1
-2.088890314102173 4.595986366271973 0.5447073578834534 4456788 4 -1
-2.20100736618042 4.533353328704834 0.6225227117538452 4456788 4 -1
-2.0786290168762207 4.5734100341796875 0.7392457127571106 4456788 4 -1
-2.1710762977600098 4.57017707824707 0.427984356880188 4456788 4 -1
-1.984058141708374 4.673405647277832 0.07781533896923065 4456788 4 -1
-1.9821929931640625 4.669012069702148 0.23344601690769196 4456788 4 -1
-1.9744220972061157 4.650708198547363 0.5057997107505798 4456788 4 -1
-1.9417250156402588 4.681461334228516 0.3112613558769226 4456788 4 -1
-1.9425830841064453 4.683530330657959 -0.2723536789417267 4456788 4 -1
-1.9417250156402588 4.681461334228516 0.3112613558769226 4456788 4 -1
-2.0226643085479736 4.6560139656066895 0.11672300845384598 4456788 4 -1
-1.8273179531097412 4.733531951904297 0.19453835487365723 4456788 4 -1
-1.8996917009353638 4.689484119415283 0.427984356880188 4456788 4 -1
-1.8267269134521484 4.732000827789307 0.23344601690769196 4456788 4 -1
-1.8673489093780518 4.721251487731934 0.07781533896923065 4456788 4 -1
-1.7114851474761963 4.779169082641602 0.11672300845384598 4456788 4 -1
-2.0502071380615234 4.613372325897217 -0.5447073578834534 4456788 4 -1
-1.86405611038208 4.712925910949707 0.3112613558769226 4657508 4 -1
-1.711887240409851 4.780291557312012 -0.038907669484615326 4657508 4 -1
-1.7897528409957886 4.7518463134765625 0 4471684 4 -1
-1.7884387969970703 4.748357772827148 0.19453835487365723 4212104 4 -1
-2.450535535812378 4.445729732513428 -0.11672300845384598 2468738 0 -1
-2.139366865158081 4.603585243225098 0.5873561501502991 4456788 4 -1
-2.1004693508148193 4.621462821960449 0.5873561501502991 4456788 4 -1
-2.219074010848999 4.5705647468566895 0.5481991171836853 4456788 4 -1
-2.1445157527923584 4.6146650314331055 0.4698849320411682 4456788 4 -1
-1.9885510206222534 4.683988571166992 0.4698849320411682 4456788 4 -1
-2.030181884765625 4.673318862915039 0.3915707767009735 4456788 4 -1
-1.9779253005981445 4.65895938873291 0.7048274278640747 4456788 4 -1
-1.9465560913085938 4.693109035491943 0.5481991171836853 4456788 4 -1
-1.9003596305847168 4.691132545471191 0.7048274278640747 4456788 4 -1
-1.9465560913085938 4.693109035491943 0.5481991171836853 4456788 4 -1
-1.9465560913085938 4.693109035491943 0.5481991171836853 4456788 4 -1
-1.871577501296997 4.731942653656006 0.4698849320411682 4456788 4 -1
-1.9541720151901245 4.711470603942871 0.3132566213607788 4456788 4 -1
-1.75787353515625 4.785452842712402 0.35241371393203735 4456788 4 -1
-1.8740140199661255 4.738102912902832 0.3915707767009735 4456788 4 -1
-1.75579833984375 4.779803276062012 0.43072786927223206 4456788 4 -1
-2.1529934406280518 4.632907390594482 0.5910972952842712 4456788 4 -1
-2.233208179473877 4.599676609039307 0.5516908168792725 4456788 4 -1
-2.0781562328338623 4.676263332366943 0.5122843384742737 4456788 4 -1
-1.9964120388031006 4.702504634857178 0.5910972952842712 4456788 4 -1
-1.998133659362793 4.706560134887695 0.5516908168792725 4456788 4 -1
-1.9926073551177979 4.693542957305908 0.6699102520942688 4456788 4 -1
-2.063873291015625 4.6441240310668945 0.7881297469139099 4456788 4 -1
-1.9144659042358398 4.725955009460449 0.6699102520942688 4456788 4 -1
-1.922737956047058 4.746374607086182 0.4728778302669525 4456788 4 -1
-1.9197754859924316 4.7390618324279785 0.5516908168792725 4456788 4 -1
-1.9572666883468628 4.718932151794434 0.5910972952842712 4456788 4 -1
-1.8442587852478027 4.777416229248047 0.4728778302669525 4456788 4 -1
-1.8398306369781494 4.7659454345703125 0.5910972952842712 4456788 4 -1
-1.882103681564331 4.758556365966797 0.5122843384742737 4456788 4 -1
-1.964531660079956 4.736447811126709 0.39406487345695496 4456788 4 -1
-1.799023985862732 4.776461601257324 0.63050377368927 4456788 4 -1
-1.8442587852478027 4.777416229248047 0.4728778302669525 4456788 4 -1
-1.8036826848983765 4.788830757141113 0.5122843384742737 4456788 4 -1
-1.8834983110427856 4.762082576751709 0.4728778302669525 4456788 4 -1
-1.955460786819458 4.714578151702881 0.63050377368927 4456788 4 -1
-1.955460786819458 4.714578151702881 0.63050377368927 4456788 4 -1
-1.772458791732788 4.82515811920166 0.1576259434223175 4536450 4 -1
-1.845514178276062 4.780668258666992 0.43347135186195374 4471684 4 -1
-1.845514178276062 4.780668258666992 0.43347135186195374 4471684 4 -1
-2.1666200160980225 4.662229537963867 0.5948384404182434 4456788 4 -1
-2.2060129642486572 4.643719673156738 0.5948384404182434 4456788 4 -1
-2.2060129642486572 4.643719673156738 0.5948384404182434 4456788 4 -1
-2.005218744277954 4.7232489585876465 0.6741502285003662 4456788 4 -1
-2.003121852874756 4.71830940246582 0.7138060927391052 4456788 4 -1
-2.0071938037872314 4.727900981903076 0.6344943046569824 4456788 4 -1
-2.003121852874756 4.71830940246582 0.7138060927391052 4456788 4 -1
-1.9593733549118042 4.724010944366455 0.793117880821228 4456788 4 -1
-1.9985607862472534 4.707566261291504 0.793117880821228 4456788 4 -1
-1.8872647285461426 4.771605014801025 0.6741502285003662 4456788 4 -1
-1.8514752388000488 4.796109676361084 0.5948384404182434 4456788 4 -1
-1.9302613735198975 4.764946937561035 0.5948384404182434 4456788 4 -1
-1.8891236782073975 4.776304721832275 0.6344943046569824 4456788 4 -1
-1.8924988508224487 4.784838676452637 0.5551825165748596 4456788 4 -1
-1.9743950366973877 4.760228157043457 0.4758707284927368 4456788 4 -1
-1.8086286783218384 4.801962375640869 0.6741502285003662 4456788 4 -1
-1.8136447668075562 4.815280437469482 0.5551825165748596 4456788 4 -1
-1.8967094421386719 4.7954840660095215 0.4362148344516754 4456788 4 -1
-1.7826282978057861 4.852842807769775 0.2379353642463684 4536450 4 -1
-1.8583474159240723 4.813911437988281 0.396558940410614 4471684 4 -1
-1.8583474159240723 4.813911437988281 0.396558940410614 4471684 4 -1
-2.2267448902130127 4.687361240386963 0.4389583170413971 4456788 4 -1
-2.1406056880950928 4.709770679473877 0.5985795259475708 4456788 4 -1
-2.221801519393921 4.676955223083496 0.5586742162704468 4456788 4 -1
-2.221801519393921 4.676955223083496 0.5586742162704468 4456788 4 -1
-2.0033159255981445 4.718766689300537 0.9178219437599182 4456788 4 -1
-2.1661911010742188 4.661306858062744 0.8380113840103149 4456788 4 -1
-1.9740067720413208 4.759292125701904 0.7582007646560669 4456788 4 -1
-2.182126522064209 4.6955976486206055 0.5586742162704468 4456788 4 -1
-1.9820421934127808 4.778665065765381 0.5985795259475708 4456788 4 -1
-3.0828659534454346 4.135507106781006 -0.7182954549789429 4456788 0 -1
-1.8735660314559937 4.853334426879883 0.23943181335926056 4456788 4 -1
-1.8647264242172241 4.830435752868652 0.5586742162704468 4456788 4 -1
-1.9027605056762695 4.810783386230469 0.5985795259475708 4456788 4 -1
-1.9010049104690552 4.806344509124756 0.6384848356246948 4456788 4 -1
-1.9027605056762695 4.810783386230469 0.5985795259475708 4456788 4 -1
-1.9837514162063599 4.7827863693237305 0.5586742162704468 4456788 4 -1
-1.8200037479400635 4.832163333892822 0.6783901453018188 4456788 4 -1
-1.9484018087387085 4.809727191925049 0.4389583170413971 4456788 4 -1
-1.7804384231567383 4.846880912780762 0.6783901453018188 4456788 4 -1
-1.944076418876648 4.7990498542785645 0.5586742162704468 4456788 4 -1
-1.7676316499710083 4.812017440795898 0.9178219437599182 4456788 4 -1
-1.7904592752456665 4.8741607666015625 0.39905303716659546 4590430 4 -1
-1.7931536436080933 4.881495952606201 0.2793371081352234 4657508 4 -1
-1.8741722106933594 4.854904651641846 0.19952651858329773 4726897 4 -1
-1.7154746055603027 4.915815830230713 -0.11971590667963028 4726897 4 -1
-2.5926260948181152 4.513894557952881 -0.1596212089061737 4045940 0 -1
-2.01981782913208 4.757636547088623 0.6384848356246948 4045940 4 -1
-2.153984308242798 4.739206790924072 0.602320671081543 4456788 4 -1
-2.199153184890747 4.732236385345459 0.4818565249443054 4456788 4 -1
-2.114095687866211 4.757134437561035 0.602320671081543 4456788 4 -1
-2.1710124015808105 4.570042610168457 1.365260124206543 4456788 0 -1
-1.9966903924942017 4.703160285949707 1.1644866466522217 4456788 0 -1
-2.075995922088623 4.778779029846191 0.5621659755706787 4456788 4 -1
-1.8887892961502075 4.775459289550781 1.0440224409103394 4456788 4 -1
-3.122859239578247 4.1891560554504395 -0.4015471041202545 4456788 0 -1
-1.8730344772338867 4.851957321166992 0.6424753665924072 4456788 4 -1
-1.9545413255691528 4.824883460998535 0.602320671081543 4456788 4 -1
-1.7877098321914673 4.866676330566406 0.7629395127296448 4456788 4 -1
-1.801649570465088 4.9046244621276855 0.4015471041202545 4657508 4 -1
-1.8056353330612183 4.915474891662598 0.20077355206012726 4726897 4 -1
-2.0960123538970947 4.824855327606201 0.3636370599269867 4456788 4 -1
-2.2545793056488037 4.74595308303833 0.44444531202316284 4456788 4 -1
-2.0970630645751953 4.827274322509766 0.3232329487800598 4456788 4 -1
-2.130767822265625 4.794649600982666 0.5252535343170166 4456788 4 -1
-3.167846441268921 4.165520191192627 0.6464658975601196 4456788 0 -1
-3.0299530029296875 4.314809799194336 -0.08080823719501495 4456788 0 -1
-0.5948379635810852 5.141068935394287 1.0101029872894287 4456788 0 -1
-3.1078274250030518 4.25292444229126 -0.24242471158504486 4456788 0 -1
-2.0049662590026855 4.833934307098389 0.6464658975601196 4456788 4 -1
-1.8880354166030884 4.8908162117004395 0.5656576752662659 4456788 4 -1
-4.37833309173584 2.5298309326171875 -1.4949524402618408 4456788 0 -1
-1.8128399848937988 4.93508768081665 0.40404120087623596 4657508 4 -1
-1.775901436805725 4.959045886993408 0.24242471158504486 4726897 4 -1
-1.854164719581604 4.9228620529174805 0.3636370599269867 4728182 4 -1
-2.153390884399414 4.737901210784912 0.8484864830970764 7589974 4 -1
-2.1505849361419678 4.839242458343506 0.325228214263916 4456788 4 -1
-3.0490145683288574 4.341954231262207 0 4456788 0 -1
-0.6318396925926208 5.114839553833008 1.2602593898773193 4456788 0 -1
-1.9026213884353638 4.928600311279297 0.487842321395874 4456788 4 -1
-4.592634677886963 2.653655767440796 0.1219605803489685 4456788 0 -1
-3.4698290824890137 3.9605870246887207 0.650456428527832 4523353 0 -1
-3.371765375137329 4.091324806213379 0.2032676339149475 4523353 0 -1
-3.496100664138794 3.990574359893799 0.0406535267829895 4590430 0 -1
-2.1852736473083496 4.702369689941406 -1.2679909467697144 4456788 0 -1
-1.901955485343933 4.926875114440918 -0.7771557569503784 4456788 4 -1
-3.5125887393951416 4.009394645690918 0.2863205373287201 4456788 0 -1
-4.62148904800415 2.670328140258789 0.08180586993694305 4456788 0 -1
-3.5150699615478516 4.012226581573486 0.20451468229293823 4590430 0 -1
-3.3539421558380127 4.152698040008545 0.04090293496847153 4590430 0 -1
-4.6496686935424805 2.686610460281372 0.0823046863079071 4456788 0 -1
-4.6778483390808105 2.702893018722534 0.08280350267887115 4456788 0 -1
-4.706028461456299 2.7191755771636963 0.0833023190498352 4456788 0 -1
-3.8308942317962646 3.8543734550476074 0.12495347857475281 4456788 0 -1
-4.690659046173096 2.805727958679199 -0.1676022708415985 4456788 0 -1
-4.058504581451416 3.6530802249908447 0.2933039665222168 4456788 0 -1
-4.085546016693115 3.6774203777313232 0.21074987947940826 4456788 0 -1
-4.818413734436035 2.5852441787719727 -1.201149582862854 4456788 0 -1
-5.103923320770264 2.182084083557129 -0.7292693853378296 4456788 0 -1
-4.736132621765137 2.736569881439209 -1.337575912475586 4456788 0 -1
-4.940954685211182 2.650991678237915 -0.517771303653717 4456788 0 -1
-2.12058687210083 5.112693786621094 1.035542607307434 4456788 4 -1
-4.871364116668701 2.8147077560424805 -0.6509552597999573 4456788 0 -1
-5.108656883239746 2.413626194000244 -0.3905731439590454 4456788 0 -1
-4.972898006439209 2.668130397796631 -0.47736719250679016 4456788 0 -1
-4.7908854484558105 2.7682065963745117 -1.3530391454696655 4456788 0 -1
-4.907516002655029 2.8355965614318848 -0.5674034953117371 4456788 0 -1
-5.188432693481445 2.336205244064331 -0.2618785500526428 4456788 0 -1
-5.0014777183532715 2.683464288711548 -0.48011067509651184 4456788 0 -1
-4.7662529945373535 2.850944757461548 -1.4046666622161865 4456788 0 -1
-5.053704738616943 2.8163347244262695 -0.31076255440711975 4456788 0 -1
-5.0160064697265625 2.898283004760742 -0.08878929913043976 4456788 0 -1
-5.029946804046631 2.9063379764556885 -0.44644057750701904 4456788 0 -1
-3.949012517929077 4.415554523468018 0.04539228230714798 4456788 0 -1
-3.949012517929077 4.415554523468018 0.04539228230714798 4523353 0 -1
-3.3847758769989014 4.820096015930176 0.6354919672012329 4523353 0 -1
-3.696000099182129 4.669199466705322 -0.13692507147789001 4456788 0 -1
-3.693067789077759 4.6654953956604 -0.27385014295578003 4456788 0 -1
-3.970710515975952 4.439815998077393 -0.045641690492630005 4456788 0 -1
-3.6813154220581055 4.650648593902588 -0.5477002859115601 4456788 0 -1
-3.686107873916626 4.656702995300293 -0.45641690492630005 4456788 0 -1
-3.6756434440612793 4.6434831619262695 -0.6389836668968201 4523353 0 -1
-4.013519763946533 4.395471096038818 -0.22820845246315002 4590430 0 -1
-3.6724765300750732 4.639482021331787 -0.6846253275871277 4590430 0 -1
-3.693067789077759 4.6654953956604 -0.27385014295578003 4657508 0 -1
-4.035451889038086 4.419490337371826 -0.22945548593997955 4456788 0 -1
-3.607365369796753 4.743460178375244 -0.5965842604637146 4456788 0 -1
-3.607365369796753 4.743460178375244 -0.5965842604637146 4456788 0 -1
-4.036519527435303 4.42065954208374 -0.18356439471244812 4456788 0 -1
-3.6167657375335693 4.755821228027344 -0.41301989555358887 4456788 0 -1
-4.034146308898926 4.418060779571533 -0.275346577167511 4456788 0 -1
-3.6185789108276367 4.758205413818359 -0.36712878942489624 4456788 0 -1
-4.036519527435303 4.42065954208374 -0.18356439471244812 4456788 0 -1
-3.622735023498535 4.763670444488525 -0.22945548593997955 4456788 0 -1
-3.5785598754882812 4.800455093383789 0.1376732885837555 4456788 0 -1
-4.035451889038086 4.419490337371826 -0.22945548593997955 4523353 0 -1
-3.621563196182251 4.762129783630371 -0.275346577167511 4523353 0 -1
-4.036519527435303 4.42065954208374 -0.18356439471244812 4590430 0 -1
-3.6236934661865234 4.764930725097656 0.18356439471244812 4590430 0 -1
-3.6249709129333496 4.766610622406006 0.09178219735622406 4657508 0 -1
-3.6249709129333496 4.766610622406006 -0.09178219735622406 4724328 0 -1
-4.059887886047363 4.44625186920166 -0.09228101372718811 4456788 0 -1
-3.6424238681793213 4.789559841156006 -0.23070253431797028 4456788 0 -1
-3.445878028869629 4.907108783721924 -0.5536860823631287 4456788 0 -1
-3.4376044273376465 4.895326614379883 -0.692107617855072 4456788 0 -1
-3.5775954723358154 4.704314708709717 1.1535125970840454 4456788 0 -1
-3.443326711654663 4.903475284576416 -0.5998265743255615 4456788 0 -1
-3.59293532371521 4.724485874176025 1.0150911808013916 4456788 0 -1
-3.5775954723358154 4.704314708709717 1.1535125970840454 4523353 0 -1
-3.445878028869629 4.907108783721924 -0.5536860823631287 4523353 0 -1
-3.6102633476257324 4.747270584106445 0.8305290937423706 4590430 0 -1
-3.4604363441467285 4.927840232849121 -0.046140506863594055 4590430 0 -1
-3.59293532371521 4.724485874176025 1.0150911808013916 4725613 0 -1
-3.6371572017669678 4.782634258270264 -0.7422386407852173 4456788 0 -1
-3.449599504470825 4.912407875061035 -0.7886285185813904 4456788 0 -1
-3.6297781467437744 4.7729315757751465 -0.8350184559822083 4456788 0 -1
-3.952392101287842 5.094234466552734 0.8978692889213562 4456788 0 -1
-4.0260162353515625 5.086112976074219 0.8522276282310486 4456788 0 -1
-3.8408913612365723 5.25609016418457 0.6517034769058228 4456788 0 -1
-3.9763123989105225 5.125065326690674 0.8522276282310486 4456788 0 -1
-4.010389804840088 5.168987274169922 0.6549457907676697 4456788 0 -1
-4.007177829742432 5.1648478507995605 0.7053261995315552 4456788 0 -1
-3.8035390377044678 5.309671401977539 0.7557066679000854 4456788 0 -1
-4.05377197265625 5.121176719665527 0.7557066679000854 4456788 0 -1
-3.806818962097168 5.314250469207764 0.7053261995315552 4456788 0 -1
-4.000030994415283 5.155636310577393 0.8060871362686157 4456788 0 -1
-3.953678607940674 5.198840618133545 0.7557066679000854 4456788 0 -1
-3.9960951805114746 5.1505632400512695 0.8564675450325012 4523353 0 -1
-4.003725051879883 5.160397529602051 0.7557066679000854 4590430 0 -1
-4.003725051879883 5.160397529602051 0.7557066679000854 4657508 0 -1
-3.982814311981201 5.237152099609375 0.6075582504272461 4456788 0 -1
-3.982814311981201 5.237152099609375 0.6075582504272461 4456788 0 -1
-4.027015686035156 5.19041633605957 0.7088179588317871 4456788 0 -1
-3.828731060028076 5.344839096069336 0.6581881046295166 4456788 0 -1
-3.9732513427734375 5.2245774269104 0.7594478130340576 4456788 0 -1
-3.932398796081543 5.275112152099609 0.6075582504272461 4456788 0 -1
-3.976677656173706 5.229083061218262 0.7088179588317871 4523353 0 -1
-3.976677656173706 5.229083061218262 0.7088179588317871 4523353 0 -1
-3.979865074157715 5.233273983001709 0.6581881046295166 4590430 0 -1
-3.979865074157715 5.233273983001709 0.6581881046295166 4657508 0 -1
-3.979865074157715 5.233273983001709 0.6581881046295166 4657508 0 -1
-6.319042682647705 1.7051889896392822 -1.1193437576293945 4456788 0 -1
-6.191472053527832 2.1959173679351807 -0.9667059779167175 4456788 0 -1
-2.373095750808716 5.858105659484863 2.035170555114746 4456788 0 -1
-2.065643310546875 5.919249534606934 2.1878082752227783 4456788 0 -1
-4.016510486602783 5.281460762023926 0.25439631938934326 4456788 0 -1
-3.8087682723999023 5.423882961273193 0.40703409910202026 4456788 0 -1
-4.018399715423584 5.283944606781006 0.152637779712677 4456788 0 -1
-4.1598334312438965 5.150516033172607 -0.5087926387786865 4456788 0 -1
-4.005158424377441 5.266533374786377 0.5596718788146973 4456788 0 -1
-3.8068599700927734 5.421165466308594 0.457913339138031 4456788 0 -1
-4.017573356628418 5.282857894897461 0.20351704955101013 4456788 0 -1
-3.5558857917785645 5.484264373779297 1.1702229976654053 4456788 0 -1
-4.015211582183838 5.279752254486084 0.305275559425354 4523353 0 -1
-3.8104515075683594 5.4262800216674805 0.35615482926368713 4523353 0 -1
-3.8104515075683594 5.4262800216674805 0.35615482926368713 4523353 0 -1
-4.220994472503662 5.121785640716553 -0.20351704955101013 4590430 0 -1
-4.009892463684082 5.2727580070495605 0.457913339138031 4590430 0 -1
-3.8068599700927734 5.421165466308594 0.457913339138031 4590430 0 -1
-4.009892463684082 5.2727580070495605 0.457913339138031 4657508 0 -1
-3.8047258853912354 5.418126106262207 0.5087926387786865 4657508 0 -1
-5.852633476257324 2.8922650814056396 -1.3804740905761719 4456788 0 -1
-2.321270704269409 6.1630425453186035 1.073702096939087 4456788 0 -1
-4.038097381591797 5.309845924377441 0.15338601171970367 4456788 0 -1
-4.056304931640625 5.022331714630127 1.6872460842132568 4456788 0 -1
-3.6743412017822266 5.554830074310303 -0.40902936458587646 4456788 0 -1
-3.6656692028045654 5.541719913482666 -0.6135440468788147 4523353 0 -1
-5.940228462219238 2.9355528354644775 -1.0275615453720093 4456788 0 -1
-3.8881921768188477 5.4278459548950195 -0.6165369153022766 4456788 0 -1
-3.897390604019165 5.4406867027282715 -0.41102463006973267 4456788 0 -1
-3.901867151260376 5.446935653686523 -0.2568903863430023 4456788 0 -1
-3.8991129398345947 5.443090915679932 -0.3596465289592743 4523353 0 -1
-3.9006049633026123 5.445173740386963 -0.3082684576511383 4590430 0 -1
-3.901867151260376 5.446935653686523 -0.2568903863430023 4657508 0 -1
-5.94110107421875 2.5400032997131348 -1.9102169275283813 4456788 0 -1
-3.860677719116211 5.497804641723633 -0.5162748694419861 4456788 0 -1
-3.8628432750701904 5.500888347625732 -0.4646473824977875 4456788 0 -1
-3.9180407524108887 5.469513893127441 -0.36139240860939026 4523353 0 -1
-5.983697414398193 2.5582146644592285 -1.8675681352615356 4456788 0 -1
-5.9255805015563965 2.799588203430176 -1.8244205713272095 4456788 0 -1
-2.26391863822937 6.010770797729492 2.2414309978485107 4456788 0 -1
-5.966447353363037 3.324989080429077 -0.2618785500526428 4456788 0 -1
-2.2873013019561768 6.07285213470459 2.147404193878174 4456788 0 -1
-5.861772537231445 3.506232261657715 -0.2618785500526428 4456788 0 -1
-5.990627288818359 3.3384642601013184 -0.36837583780288696 4456788 0 -1
-5.885528564453125 3.520442008972168 -0.36837583780288696 4456788 0 -1
-4.902566909790039 5.4817633628845215 -0.16909871995449066 4456788 0 -1
-4.388298511505127 5.886678695678711 0.4509299099445343 4456788 0 -1
-3.2614588737487793 6.574117660522461 0.5072961449623108 4456788 0 -1
-6.14103364944458 4.043557643890381 -0.22546495497226715 4456788 0 -1
