VERSION .7
FIELDS x y z rgb label object
SIZE 4 4 4 4 4 4
TYPE F F F I I I
COUNT 1 1 1 1 1 1
WIDTH 687
HEIGHT 1
POINTS 687
VIEWPOINT 0 0 0 1 0 0 0
DATA ascii
-1.6123454570770264 2.3893792629241943 -0.2885652184486389 4523353 0 -1
-1.6081808805465698 2.3832077980041504 -0.35515719652175903 4729209 0 -1
-1.6203571557998657 2.401252031326294 -0.02219732478260994 3887499 0 -1
-1.4579012393951416 2.340562343597412 0.8878929615020752 3887499 0 -1
-1.6180721521377563 2.3978657722473145 -0.15538127720355988 3757452 0 -1
-1.5507959127426147 2.440192222595215 0.47138139605522156 4456788 0 -1
-1.5224097967147827 2.4441263675689697 0.5387215614318848 4456788 0 -1
-1.5421725511550903 2.4266233444213867 0.5611683130264282 4456788 0 -1
-1.5487849712371826 2.437027931213379 0.4938281178474426 4456788 0 -1
-1.5466777086257935 2.4337122440338135 0.5162748694419861 4456788 0 -1
-1.5507959127426147 2.440192222595215 0.47138139605522156 4456788 0 -1
-1.5831562280654907 2.441711664199829 0.33670100569725037 4456788 0 -1
-1.6068387031555176 2.429201602935791 0.3142542541027069 4456788 0 -1
-1.576737880706787 2.4318125247955322 0.42648792266845703 4456788 0 -1
-1.6571037769317627 2.4072601795196533 -0.20202060043811798 4456788 0 -1
-1.680338978767395 2.3928894996643066 -0.17957386374473572 4456788 0 -1
-1.703495979309082 2.378049373626709 -0.15712712705135345 4456788 0 -1
-1.703495979309082 2.378049373626709 -0.15712712705135345 4456788 0 -1
-1.7009363174438477 2.374476194381714 -0.22446732223033905 4456788 0 -1
-1.6144558191299438 2.4407172203063965 -0.1346803903579712 4456788 0 -1
-1.6337940692901611 2.4211645126342773 -0.22446732223033905 4657508 0 -1
-1.6327805519104004 2.4196627140045166 -0.2469140589237213 4729209 0 -1
-1.6013648509979248 2.420926332473755 0.5900996923446655 4456788 0 -1
-1.5124000310897827 2.477478265762329 0.5900996923446655 4456788 0 -1
-1.5370320081710815 2.4676012992858887 0.5674034953117371 4456788 0 -1
-1.588365077972412 2.4497451782226562 0.4993151128292084 4456788 0 -1
-1.543622374534607 2.478181838989258 0.4993151128292084 4456788 0 -1
-1.5616345405578613 2.457246780395508 0.5447073578834534 4456788 0 -1
-1.5659936666488647 2.4641060829162598 0.4993151128292084 4456788 0 -1
-1.5735461711883545 2.475989818572998 0.4085305333137512 4456788 0 -1
-1.644319772720337 2.436763048171997 0.36313825845718384 4456788 0 -1
-1.6893696784973145 2.405749797821045 0.36313825845718384 4456788 0 -1
-1.5616345405578613 2.457246780395508 0.5447073578834534 4456788 0 -1
-1.7639994621276855 2.3663151264190674 -0.2496575564146042 4456788 0 -1
-1.6763559579849243 2.435227632522583 -0.18156912922859192 4456788 0 -1
-1.7004107236862183 2.4214727878570557 -0.13617683947086334 4456788 0 -1
-1.7660844326019287 2.369112014770508 -0.2042652666568756 4456788 0 -1
-1.7009608745574951 2.4222562313079834 -0.11348070204257965 4456788 0 -1
-1.7198355197906494 2.4008591175079346 -0.2269614040851593 4456788 0 -1
-1.6097221374511719 2.482684373855591 -0.13617683947086334 4456788 0 -1
-1.5126663446426392 2.477914571762085 0.7342575788497925 4456788 0 -1
-1.5317920446395874 2.459188938140869 0.7572031021118164 4456788 0 -1
-1.5645411014556885 2.511765480041504 0.4589109718799591 4456788 0 -1
-1.468116283416748 2.556065559387207 0.527747631072998 4456788 0 -1
2.7072556018829346 1.2190009355545044 -0.39007434248924255 4456788 0 -1
-1.6411309242248535 2.481044292449951 0.3441832363605499 4456788 0 -1
-1.689200758934021 2.5032734870910645 -0.20875461399555206 4456788 0 -1
-1.51947820186615 2.4890730381011963 0.8118234872817993 4456788 0 -1
-1.5515952110290527 2.4909815788269043 0.7422386407852173 4456788 0 -1
-1.567578911781311 2.4666004180908203 0.7886285185813904 4456788 0 -1
-1.598148226737976 2.5657193660736084 0.16236470639705658 4456788 0 -1
-1.5032397508621216 2.6172170639038086 0.2319495677947998 4456788 0 -1
-1.8992486000061035 2.351562976837158 0.16236470639705658 4456788 0 -1
-1.621309757232666 2.5511465072631836 0.16236470639705658 4456788 0 -1
-1.7344245910644531 2.5195834636688232 -0.0703330934047699 4456788 0 -1
-1.8909488916397095 2.38885760307312 0.2813323736190796 4456788 0 -1
-1.7898352146148682 2.449310302734375 -0.3985542058944702 4456788 0 -1
-1.7532877922058105 2.5469858646392822 -0.02369377389550209 4456788 0 -1
-1.7255276441574097 2.5571072101593018 -0.21324396133422852 4456788 0 -1
-1.795432686805725 2.5063915252685547 0.2369377315044403 4724328 0 -1
-1.7597415447235107 2.50596284866333 0.6225227117538452 4456788 0 -1
-1.7717434167861938 2.573796272277832 -0.023943182080984116 4456788 0 -1
-1.827163577079773 2.4510467052459717 0.6464658975601196 4456788 0 -1
-1.6820898056030273 2.4435572624206543 0.9816704392433167 4456788 0 -1
-1.7959693670272827 2.507140636444092 0.5028068423271179 4456788 0 -1
-1.7981871366500854 2.5102365016937256 0.4788636267185211 4456788 0 -1
-1.7936404943466187 2.503889560699463 0.5267499685287476 4456788 0 -1
-1.7981871366500854 2.5102365016937256 0.4788636267185211 4456788 0 -1
-1.7981871366500854 2.5102365016937256 0.4788636267185211 4456788 0 -1
-1.8002941608428955 2.5131778717041016 0.4549204409122467 4456788 0 -1
-1.8416755199432373 2.520251750946045 0.1436590850353241 4657508 0 -1
-1.8091813325881958 2.5255842208862305 0.335204541683197 4729209 0 -1
-1.8582795858383179 2.4927873611450195 0.3112613558769226 4664956 0 -1
-1.8691681623458862 2.4578394889831543 0.4788636267185211 4600703 0 -1
-1.8455078601837158 2.4756546020507812 0.4788636267185211 4536450 0 -1
-1.8196005821228027 2.4900429248809814 0.5028068423271179 4471684 0 -1
-1.882103681564331 2.474848985671997 -0.3112613558769226 4212104 0 -1
-1.7868849039077759 2.595792055130005 -0.19354072213172913 4456788 0 -1
-1.7894105911254883 2.599461078643799 -0.09677036106586456 4456788 0 -1
-1.7883586883544922 2.597933053970337 -0.14515553414821625 4456788 0 -1
-1.7901990413665771 2.600606679916382 -0.02419259026646614 4456788 0 -1
-1.6935964822769165 2.5097875595092773 0.8951258063316345 4456788 0 -1
-1.6580332517623901 2.5065970420837402 0.9677035808563232 4456788 0 -1
-1.8229711055755615 2.544834613800049 0.4112740159034729 4456788 0 -1
-1.8210647106170654 2.542173385620117 0.43546661734580994 4456788 0 -1
-1.819047212600708 2.5393569469451904 0.459659218788147 4456788 0 -1
-1.8169182538986206 2.5363848209381104 0.4838517904281616 4456788 0 -1
-1.819047212600708 2.5393569469451904 0.459659218788147 4456788 0 -1
-1.8169182538986206 2.5363848209381104 0.4838517904281616 4456788 0 -1
-1.8487768173217773 2.5299694538116455 0.38708144426345825 4729209 0 -1
-1.8709440231323242 2.5097758769989014 0.4112740159034729 4664956 0 -1
-1.8709440231323242 2.5097758769989014 0.4112740159034729 4600703 0 -1
-1.8949304819107056 2.4917151927948 0.4112740159034729 4471684 0 -1
-1.811832308769226 2.5801429748535156 0.16934813559055328 4471684 0 -1
-1.824766755104065 2.5473411083221436 0.38708144426345825 4341894 0 -1
-1.8813002109527588 2.473792314529419 0.5564295649528503 4212104 0 -1
-1.8067576885223389 2.5729165077209473 0.2903110682964325 4212104 0 -1
-1.8624321222305298 2.4983575344085693 -0.5080443620681763 3757452 0 -1
-1.784056305885315 2.6438424587249756 -0.04888399690389633 4456788 0 -1
-1.782379150390625 2.641356945037842 -0.1466519832611084 4456788 0 -1
-1.786746859550476 2.4450840950012207 1.002121925354004 4456788 0 -1
-1.675126314163208 2.532438278198242 0.9776799082756042 4456788 0 -1
-1.5394577980041504 2.626129627227783 0.9532378911972046 4456788 0 -1
2.9647164344787598 1.1262826919555664 -0.3421879708766937 4456788 0 -1
-1.8435786962509155 2.5736024379730225 0.39107197523117065 4456788 0 -1
-1.8378002643585205 2.5655357837677 0.46439796686172485 4456788 0 -1
-1.8356493711471558 2.562533140182495 0.4888399541378021 4456788 0 -1
-1.8356493711471558 2.562533140182495 0.4888399541378021 4456788 0 -1
-1.8938413858413696 2.5404915809631348 0.366629958152771 4724328 0 -1
-2.0133819580078125 2.443052291870117 0.39107197523117065 4725613 0 -1
-1.922737956047058 2.528280258178711 0.2933039665222168 4725613 0 -1
-2.0152413845062256 2.4453084468841553 0.366629958152771 4729209 0 -1
-2.0214667320251465 2.452862501144409 0.2688619792461395 4664956 0 -1
-1.8619818687438965 2.5480399131774902 0.46439796686172485 4664956 0 -1
-1.8882553577423096 2.5329980850219727 0.4399559497833252 4600703 0 -1
-1.8253841400146484 2.5994412899017334 0.2933039665222168 4471684 0 -1
-1.8253841400146484 2.5994412899017334 0.2933039665222168 4212104 0 -1
-1.8156301975250244 2.5855512619018555 0.4399559497833252 4017546 0 -1
-1.8711693286895752 2.510078191757202 0.6110499501228333 3757452 0 -1
-1.907523274421692 2.558845043182373 0.44444531202316284 4724328 0 -1
-2.0358052253723145 2.4702606201171875 0.37037110328674316 4725613 0 -1
-2.0358052253723145 2.4702606201171875 0.37037110328674316 4725613 0 -1
-2.0375607013702393 2.47239089012146 0.3456796705722809 4729209 0 -1
-2.0407049655914307 2.476206064224243 0.2962968647480011 4664956 0 -1
-2.0937728881835938 2.4393844604492188 0.22222265601158142 4600703 0 -1
-1.827723741531372 2.6027731895446777 0.5185195207595825 4600703 0 -1
-1.9715977907180786 2.5411903858184814 0.19753125309944153 4212104 0 -1
-1.8730179071426392 2.614698886871338 0.19753125309944153 4212104 0 -1
-1.8491897583007812 2.6333417892456055 0.17283983528614044 4147337 0 -1
-1.82989501953125 2.6582725048065186 0.423993855714798 4456788 0 -1
-2.0581421852111816 2.4973645210266113 0.34917140007019043 4729209 0 -1
-2.0597918033599854 2.499366283416748 0.3242305815219879 4664956 0 -1
-2.8228063583374023 1.8021998405456543 0.15413422882556915 4456788 0 -1
-2.7439746856689453 1.806767463684082 0.6679149866104126 4726897 0 -1
-2.4635000228881836 2.0658278465270996 0.9504944086074829 4726897 0 -1
-3.217057228088379 0.6398221254348755 0.693604052066803 4726897 0 -1
-2.7646586894989014 1.7650758028030396 0.693604052066803 4664956 0 -1
-2.5702404975891113 1.999897837638855 0.796360194683075 4536450 0 -1
-1.8476250171661377 2.6311135292053223 0.9504944086074829 4536450 0 -1
-2.7501213550567627 1.755794644355774 0.7706711292266846 3238030 0 -1
-2.630342483520508 1.8891792297363281 -0.985660970211029 4456788 0 -1
-2.8491218090057373 1.8190008401870728 0.18156912922859192 4456788 0 -1
-2.8491218090057373 1.8190008401870728 0.18156912922859192 4456788 0 -1
-2.8478634357452393 1.8181973695755005 0.20750758051872253 4523353 0 -1
-2.825960397720337 1.804213523864746 0.4668920338153839 4590430 0 -1
-2.7960338592529297 1.785107135772705 0.6743996143341064 4726897 0 -1
-2.4988255500793457 2.0954508781433105 0.9078456163406372 4726897 0 -1
-1.7387950420379639 2.6817543506622314 1.1153532266616821 4726897 0 -1
-3.248290777206421 0.6460339426994324 0.7003380656242371 4726897 0 -1
-2.7818949222564697 1.7760801315307617 0.7522149682044983 4664956 0 -1
-1.9439553022384644 2.7682926654815674 -0.1296922266483307 4536450 0 -1
-2.7768216133117676 1.772841215133667 0.7781534194946289 3238030 0 -1
-2.87524676322937 1.8356800079345703 0.20950284600257874 4456788 0 -1
-2.87524676322937 1.8356800079345703 0.20950284600257874 4456788 0 -1
-2.8765172958374023 1.8364912271499634 0.1833149790763855 4523353 0 -1
-2.952268362045288 1.7659058570861816 0.2643726170063019 4456788 0 -1
3.425931692123413 1.464691162109375 -0.7878803014755249 4456788 0 -1
-1.3608988523483276 3.4407846927642822 1.0300556421279907 4456788 0 -1
3.437044858932495 1.469442367553711 -0.8829048275947571 4456788 0 -1
-2.908252239227295 2.4387855529785156 -0.5886031985282898 4456788 0 -1
-3.0723350048065186 2.2678303718566895 0.41202226281166077 4590430 0 -1
-2.387561082839966 2.956169366836548 0.559173047542572 4657508 0 -1
-3.082747459411621 2.2141079902648926 0.5886031985282898 4725613 0 -1
-3.0309505462646484 2.358375310897827 0.05886032059788704 4726897 0 -1
-2.3142549991607666 2.8654048442840576 -1.0889159440994263 4726897 0 -1
-2.1455652713775635 2.9361112117767334 -1.2360666990280151 4726897 0 -1
-2.7720437049865723 2.6110382080078125 0.5003127455711365 3432845 0 -1
-2.3931725025177 2.7882049083709717 1.118346095085144 3432845 0 -1
-3.70896577835083 1.1130133867263794 0.08903870731592178 4456788 0 -1
-2.8962759971618652 2.5471341609954834 0.35615482926368713 4456788 0 -1
-2.625605344772339 2.7571661472320557 0.7123096585273743 4456788 0 -1
3.7060232162475586 1.1121304035186768 -0.17807741463184357 4456788 0 -1
-3.7683093547821045 0.891667902469635 0.08903870731592178 4456788 0 -1
-2.8918137550354004 2.5432097911834717 0.4155139625072479 4456788 0 -1
-2.567258596420288 2.811574697494507 0.7123096585273743 4456788 0 -1
-2.9954357147216797 2.451223611831665 0.14839784801006317 4456788 0 -1
-2.988823413848877 2.445812702178955 -0.29679569602012634 4456788 0 -1
-2.929281234741211 2.4564199447631836 0.6232709288597107 4456788 0 -1
-2.929281234741211 2.4564199447631836 0.6232709288597107 4456788 0 -1
-2.922691822052002 2.391695976257324 -0.8607075214385986 4456788 0 -1
-2.9720957279205322 2.432124137878418 0.5045526623725891 4456788 0 -1
-2.9689877033233643 2.4295806884765625 0.5342322587966919 4523353 0 -1
-2.900221824645996 2.3733084201812744 0.9794257879257202 4590430 0 -1
-2.846179723739624 2.386733055114746 1.0981440544128418 4728182 0 -1
-3.648871898651123 1.2941383123397827 0.11871827393770218 4341894 0 -1
-2.8408620357513428 2.616212844848633 0.29679569602012634 4341894 0 -1
-2.6001369953155518 2.7886300086975098 0.6826300621032715 4341894 0 -1
-3.614098072052002 1.372979760169983 0.23743654787540436 3432845 0 -1
-2.832797050476074 2.608785629272461 0.4155139625072479 3432845 0 -1
-2.559446334838867 2.8030190467834473 0.7716687917709351 3432845 0 -1
-3.768862724304199 0.8917987942695618 0.05935913696885109 3432845 0 -1
-3.76653790473938 0.8912487626075745 -0.14839784801006317 2070922 0 -1
-2.93612003326416 2.5219695568084717 0.14839784801006317 2070922 0 -1
-2.86867356300354 2.5821075439453125 0.32647526264190674 2006409 0 -1
-2.993321418762207 2.449493408203125 0.20775698125362396 7589974 0 -1
-3.7710511684417725 1.0176153182983398 0 4456788 0 -1
-3.018475294113159 2.4700775146484375 0.20950284600257874 4456788 0 -1
-2.8312079906463623 2.6667661666870117 0.35914772748947144 4456788 0 -1
-2.6585073471069336 2.7917168140411377 0.6285085082054138 4456788 0 -1
3.734086751937866 1.1205519437789917 -0.23943181335926056 4456788 0 -1
-3.0077922344207764 2.4613354206085205 0.38907670974731445 4456788 0 -1
-2.0998566150665283 3.238621950149536 0.5985795259475708 4456788 0 -1
-2.975513219833374 2.4349207878112793 -0.6883664727210999 4456788 0 -1
-2.9970712661743164 2.452562093734741 0.5087926387786865 4456788 0 -1
-2.9906201362609863 2.4472830295562744 0.5686505436897278 4456788 0 -1
-3.002794027328491 2.457245111465454 0.4489346444606781 4456788 0 -1
-3.002794027328491 2.457245111465454 0.4489346444606781 4456788 0 -1
-3.000023365020752 2.4549779891967773 0.4788636267185211 4523353 0 -1
-2.966846227645874 2.427828311920166 0.7482244372367859 4590430 0 -1
-3.010021209716797 2.4631590843200684 0.35914772748947144 4657508 0 -1
-2.869781732559204 2.348398447036743 1.2270880937576294 4728182 0 -1
-3.4544942378997803 1.7808583974838257 0.38907670974731445 4341894 0 -1
-2.8610100746154785 2.634767770767212 0.35914772748947144 4341894 0 -1
-2.6585073471069336 2.7917168140411377 0.6285085082054138 4341894 0 -1
-3.800868511199951 0.8993721604347229 0.02992897666990757 3432845 0 -1
-3.6127846240997314 1.4599995613098145 0.2693607807159424 3432845 0 -1
-3.112248182296753 2.359384775161743 0.05985795333981514 3432845 0 -1
-2.888671875 2.6001079082489014 0.38907670974731445 3432845 0 -1
-2.905545473098755 2.377664804458618 1.0774431228637695 2072968 0 -1
-3.030428409576416 2.479858875274658 0.42249739170074463 4456788 0 -1
-3.030428409576416 2.479858875274658 0.42249739170074463 4456788 0 -1
-3.005053997039795 2.51996111869812 0.36214062571525574 4456788 0 -1
-3.030428409576416 2.479858875274658 0.42249739170074463 4456788 0 -1
-3.0278172492980957 2.47772216796875 0.45267578959465027 4456788 0 -1
-3.0278172492980957 2.47772216796875 0.45267578959465027 4523353 0 -1
-3.0220468044281006 2.4730000495910645 0.5130325555801392 4590430 0 -1
-3.035104513168335 2.4836854934692383 0.36214062571525574 4657508 0 -1
-3.480491876602173 1.7942607402801514 0.42249739170074463 4341894 0 -1
-2.966392993927002 2.427457571029663 0.9053515791893005 2072968 0 -1
-2.958765745162964 2.361586809158325 1.0864218473434448 13164576 0 -1
-3.1940741539001465 2.357691526412964 0.09128338098526001 4456788 0 -1
-3.0405454635620117 2.5497231483459473 0.15213896334171295 4456788 0 -1
-2.8480958938598633 2.743023633956909 0.36513352394104004 4456788 0 -1
-3.27228045463562 2.219912052154541 -0.36513352394104004 4456788 0 -1
-2.901709794998169 2.6722490787506104 0.45641690492630005 4456788 0 -1
-3.057922124862671 2.5023577213287354 0.3955613076686859 4456788 0 -1
-2.8990325927734375 2.669783353805542 0.4868446886539459 4456788 0 -1
-3.0331599712371826 2.4820940494537354 0.6389836668968201 4456788 0 -1
-3.0528404712677 2.498199224472046 0.45641690492630005 4456788 0 -1
-2.841341257095337 2.6763110160827637 0.7302670478820801 4456788 0 -1
-3.0438361167907715 2.490830659866333 0.5477002859115601 4456788 0 -1
-2.841341257095337 2.6763110160827637 0.7302670478820801 4456788 0 -1
-3.0198254585266113 2.532348155975342 0.4868446886539459 4523353 0 -1
-2.8625128269195557 2.6361517906188965 0.7911226153373718 4523353 0 -1
-3.0168540477752686 2.5298562049865723 0.5172724723815918 4590430 0 -1
-2.893151044845581 2.6643669605255127 0.5477002859115601 4657508 0 -1
-3.384523630142212 1.9556009769439697 0.6998392343521118 4728182 0 -1
-3.0041584968566895 2.6420116424560547 0.15338601171970367 4456788 0 -1
-2.8666815757751465 2.5803143978118896 1.073702096939087 4456788 0 -1
-2.270112991333008 3.2977731227874756 0 4456788 0 -1
-2.889723062515259 2.5413711071014404 1.1043792963027954 4456788 0 -1
-3.111018180847168 2.483109474182129 -0.42948082089424133 4456788 0 -1
-2.8666815757751465 2.5803143978118896 1.073702096939087 4456788 0 -1
-2.837128162384033 2.612774133682251 1.073702096939087 4590430 0 -1
-2.919919013977051 2.6890182495117188 0.5215124487876892 4657508 0 -1
-2.143338680267334 3.1762728691101074 1.2679909467697144 4456788 0 -1
-2.286888837814331 3.3221435546875 -0.1546330451965332 4456788 0 -1
-3.2778356075286865 2.3542253971099854 -0.06185321882367134 4456788 0 -1
-2.960225820541382 2.726137638092041 -0.3092660903930664 4456788 0 -1
-3.2472939491271973 2.396975517272949 0 4456788 0 -1
-3.2778356075286865 2.3542253971099854 0.06185321882367134 4523353 0 -1
-2.3812789916992188 3.2586750984191895 -0.03092660941183567 4523353 0 -1
-3.2449100017547607 2.3952157497406006 -0.1546330451965332 4590430 0 -1
-3.005033493041992 2.581162452697754 0.773165225982666 4590430 0 -1
-2.6384613513946533 2.8895537853240967 0.9896515011787415 4590430 0 -1
-2.472966432571411 3.187403917312622 0.12370643764734268 4657508 0 -1
-2.275362968444824 3.3053998947143555 -0.4329725205898285 4657508 0 -1
-2.74814772605896 2.9473702907562256 -0.5611683130264282 4456788 0 -1
-2.2123665809631348 3.213885545730591 1.1535125970840454 4456788 0 -1
-3.1799538135528564 2.5381314754486084 0 4456788 0 -1
-3.004032850265503 2.7039449214935303 -0.4676402509212494 4456788 0 -1
-3.2407824993133545 2.4568262100219727 -0.12470407038927078 4456788 0 -1
-3.080775737762451 2.5834591388702393 0.6235203742980957 4590430 0 -1
-2.2896218299865723 3.326113700866699 0.49881628155708313 4657508 0 -1
-2.470245122909546 3.183896541595459 0.5611683130264282 4724328 0 -1
-2.335728883743286 3.3261988162994385 0.18705610930919647 4726897 0 -1
-2.4652302265167236 3.052335500717163 -1.1941661834716797 4456788 0 -1
-2.320016622543335 3.303823471069336 0.7227848172187805 4456788 0 -1
-3.038670063018799 2.6100544929504395 0.8799118995666504 4456788 0 -1
-3.350555181503296 2.339750051498413 -0.3456796705722809 4456788 0 -1
-2.9733431339263916 2.614910840988159 1.0684645175933838 4456788 0 -1
-3.327572822570801 2.3899481296539307 -0.18855255842208862 4456788 0 -1
-3.3621256351470947 2.347830057144165 -0.06285085529088974 4523353 0 -1
-3.0876479148864746 2.6521239280700684 0.5028068423271179 4590430 0 -1
-3.1326076984405518 2.563474416732788 0.6599339246749878 4657508 0 -1
-2.329066514968872 3.316710948944092 0.6285085082054138 4657508 0 -1
-2.490007162094116 3.2093677520751953 0.5656576752662659 4724328 0 -1
-2.3186447620391846 3.3682749271392822 0.3142542541027069 4726897 0 -1
-3.161526679992676 2.651175022125244 -0.25339868664741516 4456788 0 -1
-3.1581711769104004 2.6483612060546875 -0.31674835085868835 4456788 0 -1
-2.597031354904175 3.2155256271362305 -0.06334967166185379 4456788 0 -1
-2.403822183609009 3.355691909790039 0.22172383964061737 4456788 0 -1
-2.341459274291992 3.4014174938201904 0.19004900753498077 4456788 0 -1
-3.1666464805603027 2.655468225479126 0.09502450376749039 4456788 0 -1
-2.330411911010742 3.385369300842285 0.44344767928123474 4456788 0 -1
-3.0574095249176025 2.626150608062744 0.9185701608657837 4456788 0 -1
-2.3262557983398438 3.379331588745117 -0.5067973732948303 4456788 0 -1
-3.2423551082611084 2.2641921043395996 -1.2036436796188354 4456788 0 -1
-2.976769208908081 2.6179239749908447 1.1719688177108765 4456788 0 -1
-2.976769208908081 2.6179239749908447 1.1719688177108765 4456788 0 -1
-3.349539041519165 2.4057247638702393 -0.28507351875305176 4456788 0 -1
-3.132492780685425 2.690643310546875 -0.19004900753498077 4456788 0 -1
-3.3843283653259277 2.3633346557617188 -0.22172383964061737 4523353 0 -1
-3.2609751224517822 2.5373568534851074 0.12669934332370758 4523353 0 -1
-3.0982961654663086 2.7248010635375977 0.25339868664741516 4590430 0 -1
-3.177957057952881 2.6005842685699463 0.47512251138687134 4657508 0 -1
-2.3867766857147217 3.3318967819213867 0.5384721755981445 4657508 0 -1
-2.127035617828369 3.4148125648498535 0.9502450227737427 4657508 0 -1
-3.2118239402770996 2.43487286567688 0.9185701608657837 4726897 0 -1
-3.027522087097168 2.6004791259765625 1.076944351196289 4726897 0 -1
-2.500474691390991 3.287968158721924 0.15837417542934418 4726897 0 -1
-2.3841750621795654 3.395188570022583 0.38309091329574585 4456788 0 -1
-2.399099349975586 3.4164416790008545 0.45043110847473145 4456788 0 -1
-2.1887898445129395 3.5139546394348145 -0.8754225969314575 4523353 0 -1
-2.008104085922241 3.7195045948028564 -0.19453835487365723 4523353 0 -1
-3.430206060409546 2.5319912433624268 0.0653449296951294 4456788 0 -1
-2.505122423171997 3.4281492233276367 0.39206960797309875 4456788 0 -1
4.0016889572143555 1.4192712306976318 -0.39206960797309875 4456788 0 -1
-2.550199508666992 3.1575405597686768 -1.3068987131118774 4590430 0 -1
-2.264333486557007 3.3555784225463867 1.3395711183547974 4590430 0 -1
-2.5133070945739746 3.3714730739593506 1.0283098220825195 4724328 0 -1
3.1059036254882812 3.618583917617798 1.0475142002105713 4456788 0 -1
1.896962285041809 4.468253135681152 0.5237571001052856 4456788 0 -1
2.719449758529663 4.030027866363525 0.4489346444606781 4456788 5 -1
2.8962411880493164 3.8083765506744385 0.9726917743682861 4456788 0 -1
2.4798409938812256 3.981217622756958 1.4687645435333252 4456788 0 -1
3.413539171218872 3.143604040145874 1.619407057762146 4456788 0 -1
2.2052152156829834 4.350966453552246 -0.6025700569152832 4456788 0 -1
2.670055627822876 4.118042945861816 0.2636243999004364 4456788 5 -1
3.3509104251861572 3.593829393386841 -0.1129818856716156 4456788 0 -1
1.8759658336639404 4.418796539306641 -1.0544975996017456 4456788 0 -1
3.027498960494995 3.824674367904663 -0.6025700569152832 4456788 0 -1
3.027498960494995 3.824674367904663 -0.6025700569152832 4456788 0 -1
2.1930224895477295 4.32690954208374 0.7908732295036316 4456788 0 -1
2.9467554092407227 3.8747994899749756 0.6778913140296936 4456788 0 -1
3.1266098022460938 3.6427078247070312 1.0544975996017456 4456788 0 -1
1.9150453805923462 4.510847091674805 0.376606285572052 4456788 0 -1
3.014477252960205 3.8082242012023926 0.753212571144104 4456788 0 -1
3.212965250015259 3.518730878829956 1.2051401138305664 4456788 0 -1
2.707122802734375 3.9326138496398926 -1.1674795150756836 4456788 0 -1
2.9984853267669678 3.7880213260650635 0.9038550853729248 4456788 0 -1
2.7730257511138916 4.028350353240967 0.4895881712436676 4456788 5 -1
2.9940178394317627 3.7823774814605713 0.9415157437324524 4456788 0 -1
3.1308834552764893 3.799036741256714 -0.4928304851055145 4456788 0 -1
2.987762928009033 3.9287219047546387 -0.3411903381347656 4456788 0 -1
2.714177131652832 3.942861557006836 -1.2510312795639038 4456788 0 -1
2.7608442306518555 4.091371536254883 0.3411903381347656 4456788 5 -1
2.7654008865356445 4.098124027252197 0.18955019116401672 4456788 5 -1
2.7673513889312744 4.101014614105225 0.037910036742687225 4456788 5 -1
1.9940749406814575 4.487063884735107 0.6065605878829956 4456788 0 -1
2.9067068099975586 3.9776999950408936 0.4549204409122467 4456788 5 -1
2.9067068099975586 3.9776999950408936 0.4549204409122467 4456788 5 -1
2.7266366481781006 4.122099876403809 0.22746022045612335 4456788 5 -1
2.7266366481781006 4.122099876403809 0.22746022045612335 4456788 5 -1
2.7833878993988037 4.043403148651123 -0.8395078182220459 4456788 0 -1
2.821725845336914 4.099096298217773 -0.19079722464084625 4456788 5 -1
2.821725845336914 4.099096298217773 -0.19079722464084625 4456788 5 -1
2.8197340965270996 4.096203327178955 -0.26711612939834595 4456788 5 -1
2.7835943698883057 4.125085353851318 0.19079722464084625 4456788 5 -1
2.7849035263061523 4.127025604248047 0.11447833478450775 4456788 5 -1
2.708047866821289 4.176638603210449 0.152637779712677 4456788 5 -1
2.8578386306762695 4.069709777832031 -0.26711612939834595 4456788 5 -1
2.8454434871673584 4.052058696746826 -0.5342322587966919 4456788 5 -1
2.629211664199829 4.221022129058838 0.26711612939834595 4456788 5 -1
2.720536470413208 4.195899963378906 0.3456796705722809 4456788 5 -1
2.8086814880371094 4.0801472663879395 -0.7681770920753479 4456788 5 -1
2.7938690185546875 4.1403117179870605 -0.42249739170074463 4456788 5 -1
2.8281190395355225 4.108383655548096 -0.4993151128292084 4456788 5 -1
2.7985734939575195 4.147283554077148 -0.3072708249092102 4456788 5 -1
2.8354885578155518 4.119089603424072 -0.3456796705722809 4456788 5 -1
2.7588539123535156 4.170805931091309 0.3456796705722809 4456788 5 -1
2.7625133991241455 4.176338195800781 0.23045311868190765 4456788 5 -1
2.803105354309082 4.153999328613281 0.11522655934095383 4456788 5 -1
2.8025290966033936 4.1531453132629395 -0.1536354124546051 4456788 5 -1
2.870413303375244 4.087616920471191 0.42249739170074463 4456788 5 -1
2.700972318649292 3.9236788749694824 -1.662305235862732 4456788 0 -1
2.6930992603302 3.990978240966797 -1.5076721906661987 4456788 0 -1
2.850531578063965 4.140942573547363 -0.4252408742904663 4456788 5 -1
2.853900909423828 4.14583683013916 -0.3479243516921997 4456788 5 -1
2.8207273483276367 4.180113792419434 0.1546330451965332 4456788 5 -1
2.821307420730591 4.180973529815674 0.1159747838973999 4456788 5 -1
2.8217217922210693 4.1815876960754395 -0.0773165225982666 4456788 5 -1
2.848592519760132 4.138125419616699 0.4638991355895996 4456788 5 -1
2.959502696990967 3.9700217247009277 0.9664565324783325 4456788 0 -1
2.793116331100464 4.222603797912598 -0.38907670974731445 4456788 5 -1
2.830152988433838 4.194082260131836 -0.427984356880188 4456788 5 -1
2.723722219467163 4.0363593101501465 -1.4395837783813477 4456788 0 -1
2.8648476600646973 4.161739349365234 -0.5057997107505798 4456788 5 -1
2.985229969024658 4.085155010223389 0.427984356880188 4456788 5 -1
2.909496307373047 4.143272876739502 0.38907670974731445 4456788 5 -1
2.83892560005188 4.207082271575928 0.1556306779384613 4456788 5 -1
2.837256669998169 4.204609394073486 0.23344601690769196 4456788 5 -1
2.8000361919403076 4.233064651489258 0.1556306779384613 4456788 5 -1
2.8399264812469482 4.208565711975098 -0.07781533896923065 4456788 5 -1
2.8402600288391113 4.209059715270996 0 4456788 5 -1
2.862553358078003 4.1584062576293945 0.5447073578834534 4456788 5 -1
2.8052875995635986 4.24100399017334 -0.5090420246124268 4456788 5 -1
2.8185646533966064 4.261075973510742 -0.11747123301029205 4456788 5 -1
2.8311479091644287 4.195556640625 0.7048274278640747 4456788 5 -1
2.792365074157715 4.221467971801758 0.7048274278640747 4456788 5 -1
2.9633309841156006 4.136756420135498 0.4698849320411682 4456788 5 -1
2.8907253742218018 4.199331760406494 0.35241371393203735 4456788 5 -1
2.8189785480499268 4.261701583862305 0.0783141553401947 4456788 5 -1
2.858130931854248 4.235543727874756 0.0783141553401947 4456788 5 -1
2.897538661956787 4.209229469299316 0.03915707767009735 4456788 5 -1
2.775883197784424 4.1965508460998535 -1.0639750957489014 4456788 0 -1
2.8101508617401123 4.248356342315674 -0.7093167304992676 4456788 5 -1
2.7847230434417725 4.209914684295654 0.9851621389389038 4456788 0 -1
2.783945083618164 4.293695449829102 0.5122843384742737 4456788 5 -1
2.761286973953247 4.1744842529296875 -1.1821945905685425 4456788 0 -1
2.852163314819336 4.2266998291015625 0.6699102520942688 4456788 5 -1
2.8101508617401123 4.248356342315674 0.7093167304992676 4456788 5 -1
2.8130927085876465 4.252803325653076 0.6699102520942688 4456788 5 -1
2.9429662227630615 4.190936088562012 0.4728778302669525 4456788 5 -1
2.797121286392212 4.314017295837402 -0.11821945756673813 4456788 5 -1
2.876589059829712 4.26289701461792 -0.039406485855579376 4456788 5 -1
2.9512319564819336 4.202706813812256 0.27584540843963623 4456788 5 -1
2.915309429168701 4.235044479370117 0.11821945756673813 4456788 5 -1
2.915309429168701 4.235044479370117 0.11821945756673813 4456788 5 -1
2.830897092819214 4.279719829559326 0.6741502285003662 4456788 5 -1
2.815485954284668 4.34234094619751 0.0396558940410614 4456788 5 -1
2.7680633068084717 4.184728622436523 -1.2689886093139648 4456788 0 -1
2.7886598110198975 4.300967216491699 0.7138060927391052 4456788 5 -1
2.824803590774536 4.270508289337158 0.753462016582489 4456788 5 -1
2.8804824352264404 4.2686662673950195 0.5155266523361206 4456788 5 -1
3.0405683517456055 4.16088342666626 0.4758707284927368 4456788 5 -1
2.9741921424865723 4.235403537750244 0 4456788 5 -1
3.009509563446045 4.201220512390137 -0.2775912582874298 4456788 5 -1
3.0106611251831055 4.202828407287598 -0.2379353642463684 4456788 5 -1
3.053145408630371 4.178094387054443 -0.0793117880821228 4456788 5 -1
2.839242935180664 4.292336940765381 0.7981060743331909 4456788 5 -1
2.811903238296509 4.336815357208252 0.6384848356246948 4456788 5 -1
2.9802188873291016 4.243985652923584 0.4788636267185211 4456788 5 -1
2.8487014770507812 4.306636333465576 0.6783901453018188 4456788 5 -1
2.8541407585144043 4.314859867095947 0.5985795259475708 4456788 5 -1
3.0636746883392334 4.192503452301025 0.39905303716659546 4456788 5 -1
2.992809772491455 4.261916160583496 -0.039905302226543427 4456788 5 -1
2.992546319961548 4.261540412902832 -0.07981060445308685 4456788 5 -1
3.028437376022339 4.2276434898376465 -0.2793371081352234 4456788 5 -1
3.0295960903167725 4.22926139831543 -0.23943181335926056 4456788 5 -1
3.030576467514038 4.2306294441223145 -0.19952651858329773 4456788 5 -1
2.9885895252227783 4.255906105041504 -0.2793371081352234 4456788 5 -1
3.0712647438049316 4.202889919281006 -0.1596212089061737 4523353 5 -1
3.1126136779785156 4.175412178039551 0 4590430 5 -1
3.0313782691955566 4.231749057769775 -0.1596212089061737 4725613 5 -1
2.9249393939971924 4.2490339279174805 0.9235583543777466 4456788 5 -1
2.8107471466064453 4.4227375984191895 -0.04015471041202545 4456788 5 -1
3.011514902114868 4.288552761077881 -0.04015471041202545 4456788 5 -1
3.0509517192840576 4.259073257446289 -0.12046413123607635 4456788 5 -1
3.010807514190674 4.287545680999756 -0.12046413123607635 4456788 5 -1
3.011514902114868 4.288552761077881 -0.04015471041202545 4456788 5 -1
3.011514902114868 4.288552761077881 -0.04015471041202545 4456788 5 -1
3.010807514190674 4.287545680999756 -0.12046413123607635 4456788 5 -1
3.0495173931121826 4.257071018218994 -0.20077355206012726 4456788 5 -1
3.0059397220611572 4.280613422393799 -0.3212376832962036 4456788 5 -1
3.007268190383911 4.282505512237549 -0.28108298778533936 4456788 5 -1
2.996624708175659 4.267348766326904 -0.5220112204551697 4456788 5 -1
2.97066330909729 4.315456867218018 -0.12046413123607635 4523353 5 -1
3.051668405532837 4.260073661804199 -0.04015471041202545 4590430 5 -1
2.968306541442871 4.312033176422119 -0.2409282624721527 4725613 5 -1
3.0195257663726807 4.299960613250732 -0.44444531202316284 4456788 5 -1
2.937803030014038 4.1835832595825195 -1.2929317951202393 4456788 0 -1
2.889817476272583 4.368795394897461 0.6060617566108704 4456788 5 -1
3.1825413703918457 4.184843063354492 0.40404120087623596 4456788 5 -1
3.185922622680664 4.189289569854736 0.3232329487800598 4456788 5 -1
3.148188829421997 4.223134517669678 0.24242471158504486 4456788 5 -1
3.029508113861084 4.314176082611084 -0.12121235579252243 4456788 5 -1
3.0299530029296875 4.314809799194336 -0.08080823719501495 4456788 5 -1
3.0299530029296875 4.314809799194336 -0.08080823719501495 4456788 5 -1
3.029508113861084 4.314176082611084 -0.12121235579252243 4456788 5 -1
3.0302200317382812 4.315189838409424 -0.04040411859750748 4456788 5 -1
3.029508113861084 4.314176082611084 -0.12121235579252243 4456788 5 -1
3.0280840396881104 4.312148571014404 -0.20202060043811798 4456788 5 -1
3.025946855545044 4.309104919433594 -0.28282883763313293 4456788 5 -1
3.0246102809906006 4.307201385498047 -0.3232329487800598 4456788 5 -1
3.0174715518951416 4.2970356941223145 -0.4848494231700897 4456788 5 -1
-4.272575378417969 2.555650472640991 -1.7373771667480469 4456788 0 -1
2.981114625930786 4.330639362335205 -0.40404120087623596 4456788 5 -1
2.9842820167541504 4.335240364074707 -0.3232329487800598 4523353 5 -1
3.023094654083252 4.3050432205200195 -0.3636370599269867 4728182 5 -1
2.7186639308929443 4.544463634490967 0.325228214263916 4456788 5 -1
2.888911247253418 4.367425441741943 0.8537240624427795 4456788 5 -1
3.1676220893859863 4.249203205108643 0.243921160697937 4456788 5 -1
3.1288509368896484 4.281694412231445 0.162614107131958 4456788 5 -1
3.169485330581665 4.251702785491943 0.162614107131958 4456788 5 -1
3.1299540996551514 4.283203601837158 -0.081307053565979 4456788 5 -1
3.007565975189209 4.369064807891846 -0.1219605803489685 4456788 5 -1
3.0482089519500732 4.34080696105957 0.1219605803489685 4456788 5 -1
3.0490145683288574 4.341954231262207 0 4456788 5 -1
2.988424062728882 4.341257572174072 -0.6098029017448425 4456788 5 -1
2.999516487121582 4.3573713302612305 -0.406535267829895 4456788 5 -1
-4.593713760375977 2.6542794704437256 -0.0406535267829895 4456788 0 -1
3.004030466079712 4.36392879486084 -0.2845746874809265 4728182 5 -1
3.007565975189209 4.369064807891846 -0.1219605803489685 4600703 5 -1
2.8122594356536865 4.514893054962158 0.4499322772026062 4456788 5 -1
2.8293843269348145 4.45206356048584 0.8180587291717529 4456788 5 -1
3.011763095855713 4.375162124633789 0.5317381620407104 4456788 5 -1
2.9633893966674805 4.391529083251953 0.6544469594955444 4456788 5 -1
2.8155834674835205 4.520229816436768 0.36812642216682434 4456788 5 -1
2.774777889251709 4.5453925132751465 0.36812642216682434 4456788 5 -1
2.778458595275879 4.551422119140625 0.24541760981082916 4456788 5 -1
3.146195650100708 4.305429935455322 0.24541760981082916 4456788 5 -1
3.18808650970459 4.276655197143555 0.20451468229293823 4456788 5 -1
3.1494336128234863 4.309860706329346 -0.04090293496847153 4456788 5 -1
3.1494336128234863 4.309860706329346 0.04090293496847153 4456788 5 -1
3.001027822494507 4.359567165374756 -0.6953498721122742 4456788 5 -1
3.011763095855713 4.375162124633789 -0.5317381620407104 4456788 5 -1
-4.621895790100098 2.670563220977783 -0.04090293496847153 4456788 0 -1
-3.551863193511963 3.9714853763580322 0.3272234797477722 4456788 0 -1
-3.3539421558380127 4.152698040008545 -0.04090293496847153 4523353 0 -1
-3.557615041732788 3.977916717529297 -0.12270880490541458 4728182 0 -1
-3.554792642593384 3.9747607707977295 -0.24541760981082916 4600703 0 -1
2.984511375427246 4.422830104827881 -0.1636117398738861 4600703 5 -1
-3.388559103012085 4.1117024421691895 0.3272234797477722 4017546 0 -1
2.8253891468048096 4.5359721183776855 0.5349804759025574 4456788 5 -1
2.887302875518799 4.4531049728393555 0.823046863079071 4456788 5 -1
2.8294074535369873 4.542423248291016 0.45267578959465027 4456788 5 -1
2.7943310737609863 4.577423095703125 0.28806641697883606 4456788 5 -1
2.8365092277526855 4.553824424743652 0.2469140589237213 4456788 5 -1
2.7943310737609863 4.577423095703125 0.28806641697883606 4456788 5 -1
2.796304941177368 4.580656051635742 0.20576171576976776 4456788 5 -1
3.165379762649536 4.3316826820373535 0.2469140589237213 4456788 5 -1
3.207526206970215 4.302732467651367 0.20576171576976776 4456788 5 -1
3.167893171310425 4.3351216316223145 0.12345702946186066 4456788 5 -1
3.2887063026428223 4.2388105392456055 0.2469140589237213 4456788 5 -1
-3.5286967754364014 4.027780532836914 -0.4115234315395355 4456788 0 -1
-3.5751001834869385 3.997467517852783 -0.28806641697883606 4456788 0 -1
-4.650078296661377 2.68684720993042 0.04115234315395355 4456788 0 -1
-3.5386860370635986 4.039182662963867 0.0823046863079071 4456788 0 -1
-3.5306758880615234 4.0300397872924805 -0.37037110328674316 4523353 0 -1
-3.5764682292938232 3.998997211456299 -0.2469140589237213 4590430 0 -1
-3.5374388694763184 4.037759304046631 -0.1646093726158142 4728182 0 -1
-3.536503314971924 4.036691188812256 -0.20576171576976776 4600703 0 -1
2.840236186981201 4.559807777404785 0.5796245336532593 4456788 5 -1
2.842512607574463 4.563462734222412 0.5382227897644043 4456788 5 -1
2.9173495769500732 4.499445915222168 0.6624280214309692 4456788 5 -1
2.8112664222717285 4.605165004730225 0.28981226682662964 4456788 5 -1
2.8112664222717285 4.605165004730225 0.28981226682662964 4456788 5 -1
2.8112664222717285 4.605165004730225 0.28981226682662964 4456788 5 -1
2.8123421669006348 4.606926918029785 0.24841050803661346 4456788 5 -1
3.185594320297241 4.359344959259033 0.20700876414775848 4456788 5 -1
3.1870925426483154 4.361395359039307 0.12420525401830673 4456788 5 -1
-3.847536087036133 3.78792405128479 0.20700876414775848 4456788 0 -1
-3.51408314704895 4.09414005279541 -0.28981226682662964 4456788 0 -1
-4.674962997436523 2.701225757598877 0.20700876414775848 4456788 0 -1
-3.5048208236694336 4.000527858734131 0.9522402882575989 4456788 0 -1
-3.850362777709961 3.7907071113586426 0 4523353 0 -1
-3.508802652359009 4.087987899780273 -0.41401752829551697 4523353 0 -1
3.2589943408966064 4.285374164581299 0.7497208714485168 4456788 5 -1
2.49723482131958 4.8236918449401855 -0.208255797624588 4456788 0 -1
2.7450194358825684 4.682672500610352 0.2915581166744232 4456788 5 -1
2.8596363067626953 4.590953350067139 0.5414651036262512 4456788 5 -1
3.0617597103118896 4.447791576385498 0.6247674226760864 4456788 5 -1
2.9425241947174072 4.538273334503174 0.5414651036262512 4456788 5 -1
2.785379648208618 4.655984401702881 0.3332092761993408 4456788 5 -1
2.8292839527130127 4.634679794311523 0.24990695714950562 4456788 5 -1
3.1205339431762695 4.443801403045654 0.24990695714950562 4456788 5 -1
3.288895606994629 4.324692726135254 0.1666046380996704 4456788 5 -1
-4.533441066741943 2.9850399494171143 0.2915581166744232 4456788 0 -1
-3.869462013244629 3.8095102310180664 -0.24990695714950562 4456788 0 -1
-3.8717379570007324 3.811750888824463 -0.1666046380996704 4523353 0 -1
2.7602367401123047 4.70863151550293 0.335204541683197 4456788 5 -1
2.805276870727539 4.689244270324707 0.20950284600257874 4456788 5 -1
2.8897809982299805 4.63934850692749 0.1676022708415985 4456788 5 -1
-4.556288719177246 3.0000839233398438 0.37710511684417725 4456788 0 -1
-4.1895647048950195 3.513261318206787 0.08380113542079926 4523353 0 -1
-3.9800865650177 3.748915672302246 0.08380113542079926 4523353 0 -1
2.516420364379883 4.860751152038574 -0.5479496717453003 4456788 0 -1
2.778956890106201 4.740565776824951 0.2528998553752899 4456788 5 -1
2.8199832439422607 4.713826656341553 0.29504984617233276 4456788 5 -1
2.8210623264312744 4.715630531311035 0.2528998553752899 4456788 5 -1
2.862072467803955 4.688390731811523 0.29504984617233276 4456788 5 -1
2.905273199081421 4.664220333099365 0.2528998553752899 4456788 5 -1
-4.619998455047607 2.949604034423828 0.4636497497558594 4456788 0 -1
4.740083694458008 2.7388529777526855 0.8055883049964905 4456788 0 -1
2.8810412883758545 4.71946382522583 0.211996927857399 4456788 5 -1
2.837754964828491 4.743533611297607 0.25439631938934326 4456788 5 -1
-3.3491580486297607 4.403933525085449 0.08479876816272736 4456788 0 -1
-3.3495514392852783 4.4044508934021 0 4456788 0 -1
-3.176591396331787 4.523630142211914 0.25439631938934326 4456788 0 -1
-4.647336006164551 2.967057228088379 0.46639323234558105 4456788 0 -1
2.7655718326568604 4.815001487731934 0.38383913040161133 4456788 5 -1
2.939655065536499 4.719418048858643 0.2558927536010742 4456788 5 -1
2.853355646133423 4.769611358642578 0.2985415458679199 4456788 5 -1
2.8741793632507324 4.804419994354248 0 4456788 5 -1
2.6389639377593994 4.689803600311279 1.5443352460861206 4456788 0 -1
2.5182063579559326 4.864201068878174 1.158251404762268 4456788 0 -1
2.9921884536743164 4.708237171173096 0.4718801975250244 4456788 5 -1
2.8673367500305176 4.79298210144043 0.38608381152153015 4456788 5 -1
3.081317186355591 4.658302307128906 0.38608381152153015 4456788 5 -1
2.8229572772979736 4.815625190734863 0.4289819896221161 4456788 5 -1
2.9940457344055176 4.711159706115723 0.4289819896221161 4456788 5 -1
2.9157071113586426 4.77625036239624 0.1715928018093109 4456788 5 -1
1.13978111743927 5.390044689178467 -1.1649854183197021 4456788 0 -1
1.410262942314148 5.396002292633057 -0.7766569256782532 4456788 0 -1
2.8464043140411377 4.8556227684021 -0.172590434551239 4456788 5 -1
3.189546823501587 4.633427143096924 0.2588856518268585 4456788 5 -1
2.9728994369506836 4.77278995513916 0.3020332455635071 4456788 5 -1
1.8553471565246582 5.316630840301514 0 4456788 0 -1
2.1091995239257812 5.206664562225342 0.3883284628391266 4456788 0 -1
2.8045122623443604 4.88279914855957 0.04314760863780975 4456788 5 -1
3.009584903717041 4.735610485076904 0.4746236801147461 4456788 5 -1
3.009584903717041 4.735610485076904 0.4746236801147461 4456788 5 -1
3.0561869144439697 4.713575839996338 0.3883284628391266 4456788 5 -1
2.960005044937134 4.752089023590088 0.6040664911270142 4456788 5 -1
2.979501247406006 4.783388614654541 0.5641612410545349 4456788 5 -1
3.0305590629577637 4.768613815307617 0.3905731439590454 4456788 5 -1
3.0269813537597656 4.762983798980713 0.47736719250679016 4456788 5 -1
3.032078266143799 4.7710041999816895 0.34717613458633423 4456788 5 -1
2.9921958446502686 4.803768634796143 0.2169850766658783 4456788 5 -1
3.050851821899414 4.800544261932373 0.3055249750614166 4456788 5 -1
3.049504041671753 4.798423767089844 0.34917140007019043 4456788 5 -1
3.049504041671753 4.798423767089844 0.34917140007019043 4456788 5 -1
-3.133303642272949 4.7368950843811035 0.43646425008773804 4456788 0 -1
2.9817605018615723 4.884452819824219 0.2633749842643738 4456788 5 -1
-3.1859047412872314 4.721280574798584 0.6145416498184204 4456788 0 -1
-3.15447998046875 4.768909454345703 0.7063238620758057 4456788 0 -1
-3.4559431076049805 4.729305267333984 0.632000207901001 4456788 0 -1
-3.831087112426758 4.555357456207275 0.22820845246315002 4523353 0 -1
-3.5778238773345947 4.799468040466309 -0.18356439471244812 4456788 0 -1
-3.7837185859680176 4.59119176864624 -0.6883664727210999 4456788 0 -1
-3.803478240966797 4.61516809463501 0.3212376832962036 4523353 0 -1
-3.5725467205047607 4.423364162445068 1.8815350532531738 4657508 0 -1
-3.268176794052124 5.040529251098633 -0.4152645468711853 4456788 0 -1
-3.502581834793091 4.6985344886779785 -1.384215235710144 4456788 0 -1
-3.5861527919769287 4.810640811920166 -0.5075455904006958 4456788 0 -1
-3.3917696475982666 4.927194118499756 -0.692107617855072 4456788 0 -1
-3.5861527919769287 4.810640811920166 -0.5075455904006958 4456788 0 -1
-3.5861527919769287 4.810640811920166 -0.5075455904006958 4523353 0 -1
-3.7830772399902344 4.684033393859863 -0.09228101372718811 4590430 0 -1
-3.505751848220825 4.893965721130371 -0.13842152059078217 4590430 0 -1
-3.2663447856903076 5.037703514099121 -0.46140506863594055 4590430 0 -1
-3.481599807739258 4.764415264129639 -1.199653148651123 4600703 0 -1
-3.6097989082336426 4.842360973358154 0.4175092279911041 4456788 0 -1
-3.381588935852051 5.011270046234131 -0.32472941279411316 4456788 0 -1
-3.511103630065918 4.804790019989014 -1.1133579015731812 4456788 0 -1
-3.5975332260131836 4.825907230377197 -0.6494588255882263 4456788 0 -1
-3.4069573879241943 4.9492573738098145 -0.7422386407852173 4456788 0 -1
-3.594433546066284 4.821749210357666 -0.6958487033843994 4456788 0 -1
-3.64365553855896 4.791179656982422 -0.6494588255882263 4523353 0 -1
-3.618413209915161 4.853916645050049 0 4657508 0 -1
-3.4263978004455566 4.977498531341553 -0.37111932039260864 4657508 0 -1
-3.511103630065918 4.804790019989014 -1.1133579015731812 4600703 0 -1
-3.7706806659698486 4.76354455947876 -0.37311458587646484 4523353 0 -1
-3.6921842098236084 4.854991436004639 0.8013483881950378 4456788 0 -1
-3.730294704437256 4.905104637145996 0.5212630033493042 4456788 0 -1
-3.5272552967071533 5.022994041442871 0.7582007646560669 4456788 0 -1
-3.4197771549224854 5.169982433319092 -0.47636955976486206 4456788 0 -1
-3.4920082092285156 5.174903392791748 -0.2873181700706482 4456788 0 -1
-3.4659199714660645 5.136242866516113 -0.8140681982040405 4456788 0 -1
-3.205305337905884 5.250644207000732 -1.101386308670044 4456788 0 -1
-3.556919574737549 5.1671061515808105 -0.3369503915309906 4456788 0 -1
-3.4248366355895996 5.177631378173828 -0.9627154469490051 4456788 0 -1
-4.066036701202393 5.240711212158203 -0.305275559425354 4456788 0 -1
-3.9685771465301514 5.115095138549805 1.4754985570907593 4523353 0 -1
-4.069950103759766 5.245754718780518 0.6646726727485657 4456788 0 -1
-4.026272296905518 5.18945837020874 1.1759593486785889 4456788 0 -1
-3.995044708251953 5.149209022521973 1.4316027164459229 4523353 0 -1
-4.0501790046691895 5.116637706756592 1.5413422584533691 4523353 0 -1
-4.483672142028809 5.6642746925354 0.16610582172870636 4456788 0 -1
-4.560543537139893 5.646656513214111 0.05561801418662071 4456788 0 -1
-4.580590724945068 5.671478271484375 -0.11173484474420547 4456788 0 -1
-4.482883930206299 5.777985095977783 0.39281782507896423 4456788 0 -1
-5.578869342803955 4.565298080444336 -1.465522289276123 4456788 0 -1
-4.376989364624023 5.755467891693115 -1.3527897596359253 4456788 0 -1
-4.508769512176514 5.811348915100098 0.11273247748613358 4456788 0 -1
3.3413238525390625 6.319681644439697 1.868316411972046 4456788 0 -1
-5.612284183502197 4.592641830444336 -1.415391206741333 4456788 0 -1
-4.297018051147461 5.880279064178467 -1.2455443143844604 4456788 0 -1
-4.529252052307129 5.837748050689697 0 4456788 0 -1
-4.407715797424316 5.912725925445557 0.4529251754283905 4523353 0 -1
-5.863083839416504 4.444784164428711 0.6793878078460693 4664956 0 -1
-4.698546886444092 5.701251029968262 0.11323129385709763 4664956 0 -1
-4.4280500411987305 5.8226094245910645 -1.2510312795639038 4456788 0 -1
-5.605126857757568 4.700314998626709 -1.2510312795639038 4456788 0 -1
-4.331957817077637 5.928092956542969 -1.080436110496521 4456788 0 -1
-4.549204349517822 5.863465309143066 0 4456788 0 -1
-4.434953689575195 5.949263572692871 0.11373011022806168 4523353 0 -1
-6.159021377563477 3.558724880218506 -2.227464199066162 4456788 0 -1
-5.614039421081543 4.707788944244385 -1.3707470893859863 4456788 0 -1
-4.533534049987793 5.727266311645508 -1.484976053237915 4456788 0 -1
-4.0917887687683105 6.185922622680664 -0.7424880266189575 4456788 0 -1
-4.511512756347656 5.9323577880859375 0.11422892659902573 4456788 0 -1
-4.265633583068848 6.0744829177856445 -0.9751858115196228 4456788 0 -1
-4.526954174041748 5.952661991119385 0.3441832363605499 4456788 0 -1
5.975144863128662 5.132328987121582 -0.06035676971077919 3107982 6 -1
5.975320339202881 5.132479667663574 0 2977934 6 -1
