VERSION .7
FIELDS x y z rgb label object
SIZE 4 4 4 4 4 4
TYPE F F F I I I
COUNT 1 1 1 1 1 1
WIDTH 694
HEIGHT 1
POINTS 694
VIEWPOINT 0 0 0 1 0 0 0
DATA ascii
-2.8032727241516113 2.5815961360931396 1.2270880937576294 3757452 0 -1
-2.506392478942871 2.9201138019561768 1.1043792963027954 3757452 0 -1
-2.9800004959106445 2.6823132038116455 -0.4638991355895996 4456788 0 -1
-2.334845781326294 3.259402275085449 -0.4638991355895996 4456788 0 -1
-2.938027858734131 2.7673819065093994 0 4456788 0 -1
-2.2201695442199707 3.356428384780884 -0.3092660903930664 4456788 0 -1
-2.318406105041504 3.301530122756958 0.12370643764734268 4456788 0 -1
-2.286149263381958 3.3210690021514893 0.18555966019630432 4523353 0 -1
-2.3170430660247803 3.299589157104492 0.18555966019630432 4590430 0 -1
-2.899484872817993 2.5499560832977295 1.1752111911773682 4664956 0 -1
-3.169285297393799 2.466013193130493 0.6546963453292847 4456788 0 -1
-2.377408981323242 3.003408193588257 1.3717447519302368 4456788 0 -1
-2.3205626010894775 3.3046011924743652 -0.49881628155708313 4456788 0 -1
-2.275247812271118 3.371752977371216 -0.09352805465459824 4456788 0 -1
-3.1588797569274902 2.521311044692993 -0.4676402509212494 4456788 0 -1
-2.329880952835083 3.317870855331421 0.3429361879825592 4456788 0 -1
-2.4230761528015137 3.2504329681396484 0.3429361879825592 4590430 0 -1
-2.4291582107543945 3.258591651916504 0.18705610930919647 4657508 0 -1
-3.038670063018799 2.6100544929504395 0.8799118995666504 4456788 0 -1
-3.109060525894165 2.607178211212158 0.5970830917358398 4456788 0 -1
-2.3167104721069336 3.2991156578063965 0.7542102336883545 4456788 0 -1
-3.424466371536255 2.2548365592956543 -0.09427627921104431 4456788 0 -1
-3.3307039737701416 2.3921968936920166 -0.06285085529088974 4456788 0 -1
-3.424466371536255 2.2548365592956543 -0.09427627921104431 4523353 0 -1
-3.068732738494873 2.6988015174865723 0.3456796705722809 4590430 0 -1
-3.0867269039154053 2.6513328552246094 0.7285211682319641 4456788 0 -1
-2.375917911529541 3.3167381286621094 0.6651715040206909 4456788 0 -1
-3.1337356567382812 2.6278700828552246 0.6018218398094177 4456788 0 -1
-2.366231679916382 3.3032166957855225 0.7601960301399231 4456788 0 -1
-3.323415756225586 2.453164577484131 -0.15837417542934418 4456788 0 -1
-3.1619138717651367 2.6514995098114014 0.5746363401412964 4456788 0 -1
-2.397582769393921 3.346982002258301 0.6384848356246948 4456788 0 -1
-3.336763858795166 2.7981245517730713 1.101386308670044 4456788 0 -1
-3.221550941467285 2.9667978286743164 0.9981313943862915 4456788 0 -1
-3.356208086013794 2.746450662612915 1.1702229976654053 4523353 0 -1
-3.2272167205810547 2.972015380859375 0.9637130498886108 4523353 0 -1
-3.36094331741333 2.8184006214141846 1.1093673706054688 4456788 0 -1
-3.2328484058380127 2.9772019386291504 1.0746996402740479 4456788 0 -1
-3.3731741905212402 2.7603344917297363 1.2133705615997314 4523353 0 -1
-3.2328484058380127 2.9772019386291504 1.0746996402740479 4523353 0 -1
-4.367838382720947 2.5237669944763184 -1.5353565216064453 4456788 0 -1
2.827540874481201 4.44916296005249 -0.12121235579252243 4728182 6 -1
2.867344617843628 4.422323226928711 -0.1616164743900299 4729209 6 -1
2.8863155841827393 4.451582431793213 -0.0406535267829895 4456788 6 -1
2.76411509513855 4.527925968170166 -0.081307053565979 4456788 6 -1
2.805011034011841 4.503256320953369 -0.0406535267829895 4456788 6 -1
2.8454127311706543 4.477283954620361 -0.081307053565979 4456788 6 -1
-3.453012704849243 4.022989273071289 0.2032676339149475 4456788 0 -1
-4.593308925628662 2.654045581817627 0.081307053565979 4456788 0 -1
-3.4554483890533447 4.025826930999756 -0.0406535267829895 4523353 0 -1
2.8856377601623535 4.450536727905273 -0.1219605803489685 4728182 6 -1
2.8850443363189697 4.449621677398682 -0.162614107131958 4729209 6 -1
2.8863155841827393 4.451582431793213 -0.0406535267829895 3692940 6 -1
2.8457469940185547 4.477809906005859 0 3562893 6 -1
2.805011034011841 4.503256320953369 0.0406535267829895 3432845 6 -1
2.805011034011841 4.503256320953369 0.0406535267829895 3432845 6 -1
2.821556806564331 4.529819488525391 -0.12270880490541458 4456788 6 -1
2.8624489307403564 4.504090785980225 -0.12270880490541458 4456788 6 -1
2.8219711780548096 4.530484676361084 -0.08180586993694305 4456788 6 -1
2.8628692626953125 4.504752159118652 -0.08180586993694305 4456788 6 -1
2.8222196102142334 4.5308837890625 -0.04090293496847153 4456788 6 -1
2.781317949295044 4.556106090545654 -0.04090293496847153 4456788 6 -1
2.781317949295044 4.556106090545654 0.04090293496847153 4456788 6 -1
2.7813994884490967 4.556239604949951 0 4456788 6 -1
2.9040231704711914 4.478892803192139 0.04090293496847153 4456788 6 -1
2.8222196102142334 4.5308837890625 -0.04090293496847153 4456788 6 -1
2.7806646823883057 4.555035591125488 -0.12270880490541458 4456788 6 -1
-3.47664737701416 4.050525188446045 0.04090293496847153 4456788 0 -1
-4.621895790100098 2.670563220977783 0.04090293496847153 4456788 0 -1
-3.5175492763519287 4.015056610107422 0.04090293496847153 4523353 0 -1
-3.434232473373413 4.083477020263672 -0.1636117398738861 4590430 0 -1
2.8222196102142334 4.5308837890625 0.04090293496847153 4728182 6 -1
2.821556806564331 4.529819488525391 0.12270880490541458 3562893 6 -1
2.78009295463562 4.554099082946777 0.1636117398738861 3432845 6 -1
2.7365517616271973 4.574364185333252 -0.2863205373287201 2782862 6 -1
2.9040231704711914 4.478892803192139 -0.04090293496847153 2782862 6 -1
2.78009295463562 4.554099082946777 0.1636117398738861 2458766 6 -1
2.7976198196411133 4.582810401916504 -0.12345702946186066 4456788 6 -1
2.839428424835205 4.558510780334473 -0.04115234315395355 4456788 6 -1
2.8803257942199707 4.532219886779785 -0.0823046863079071 4456788 6 -1
2.839428424835205 4.558510780334473 0.04115234315395355 4456788 6 -1
2.8395116329193115 4.558644771575928 0 4456788 6 -1
2.8395116329193115 4.558644771575928 0 4456788 6 -1
2.839428424835205 4.558510780334473 -0.04115234315395355 4456788 6 -1
-3.494250535964966 4.071033954620361 -0.2469140589237213 4456788 0 -1
-4.650214672088623 2.6869261264801025 0 4456788 0 -1
-3.4953811168670654 4.072350978851318 -0.20576171576976776 4523353 0 -1
-3.454258918762207 4.1072893142700195 -0.20576171576976776 4590430 0 -1
2.8374269008636475 4.5552978515625 0.20576171576976776 4590430 6 -1
2.838761329650879 4.557440280914307 0.12345702946186066 4726897 6 -1
2.754291534423828 4.604017734527588 0.2469140589237213 3432845 6 -1
2.8354241847991943 4.552082538604736 0.28806641697883606 2782862 6 -1
2.795400381088257 4.579174518585205 0.2469140589237213 2458766 6 -1
2.6698720455169678 4.648383617401123 0.3292187452316284 2070155 6 -1
2.878549098968506 4.529424667358398 0.20576171576976776 2070155 6 -1
2.630964994430542 4.675588130950928 0.2469140589237213 2468738 6 -1
2.6325125694274902 4.678338527679443 0.1646093726158142 2666112 6 -1
2.5913796424865723 4.701247215270996 0.1646093726158142 2994813 6 -1
2.6336727142333984 4.6803998947143555 -0.04115234315395355 3257723 6 -1
2.5919125080108643 4.702214241027832 -0.12345702946186066 4899181 6 -1
2.7045485973358154 4.61363410949707 -0.4938281178474426 5424489 6 -1
2.773184299468994 4.635598659515381 -0.12420525401830673 4456788 6 -1
2.8973567485809326 4.559018611907959 -0.12420525401830673 4456788 6 -1
2.898122549057007 4.560223579406738 0 4456788 6 -1
2.8567209243774414 4.586273193359375 0 4456788 6 -1
2.770984172821045 4.63192081451416 0.24841050803661346 4456788 6 -1
2.8980374336242676 4.560089588165283 0.04140175133943558 4456788 6 -1
2.8980374336242676 4.560089588165283 -0.04140175133943558 4456788 6 -1
-3.930278778076172 3.702000856399536 -0.20700876414775848 4456788 0 -1
-3.7671170234680176 3.872560739517212 -0.08280350267887115 4456788 0 -1
-4.678260803222656 2.7031311988830566 -0.04140175133943558 4456788 0 -1
-3.817556619644165 3.758409023284912 0.7038297653198242 4456788 0 -1
-3.931318521499634 3.7029802799224854 -0.1656070053577423 4523353 0 -1
-3.7621359825134277 3.8674404621124268 -0.28981226682662964 4523353 0 -1
2.8553786277770996 4.584118366241455 0.1656070053577423 4590430 6 -1
2.8973567485809326 4.559018611907959 0.12420525401830673 4657508 6 -1
2.770984172821045 4.63192081451416 0.24841050803661346 4726897 6 -1
2.771880865097046 4.633419513702393 0.20700876414775848 3432845 6 -1
2.851348638534546 4.577648162841797 0.3312140107154846 2782862 6 -1
2.851348638534546 4.577648162841797 0.3312140107154846 2134668 6 -1
2.771880865097046 4.633419513702393 0.20700876414775848 2139270 6 -1
2.6484673023223877 4.706692218780518 0.1656070053577423 2468738 6 -1
2.689138174057007 4.681926727294922 0.20700876414775848 2666112 6 -1
2.6484673023223877 4.706692218780518 0.1656070053577423 2994813 6 -1
2.64963436126709 4.708765983581543 0.04140175133943558 3257723 6 -1
2.6910347938537598 4.6852288246154785 -0.04140175133943558 4899181 6 -1
2.7285821437835693 4.654632568359375 -0.28981226682662964 5424489 6 -1
2.6484673023223877 4.706692218780518 0.1656070053577423 5949540 6 -1
2.731231927871704 4.659152507781982 -0.1656070053577423 8180304 6 -1
2.732515573501587 4.661342144012451 0 8705099 6 -1
2.690797805786133 4.684816360473633 0.08280350267887115 9360965 6 -1
2.915238857269287 4.587156295776367 -0.0833023190498352 4456788 6 -1
-4.115710258483887 3.5351743698120117 -0.3332092761993408 4456788 0 -1
-3.942779779434204 3.713775873184204 -0.45816275477409363 4456788 0 -1
-3.7898104190826416 3.8958895206451416 0.0833023190498352 4456788 0 -1
-4.706581115722656 2.7194948196411133 0 4456788 0 -1
-4.505728244781494 2.966792345046997 0.6664185523986816 4456788 0 -1
-4.040162563323975 3.636570453643799 0 4456788 0 -1
-3.952676296234131 3.723097562789917 -0.24990695714950562 4523353 0 -1
-4.032564640045166 3.6297316551208496 -0.3332092761993408 4590430 0 -1
-3.9012768268585205 3.757350444793701 -0.45816275477409363 4590430 0 -1
2.8738455772399902 4.613765716552734 0.0416511595249176 4590430 6 -1
2.6917028427124023 4.686391830444336 0.5831162333488464 3107982 6 -1
2.8670880794525146 4.602916717529297 0.3748604357242584 3107982 6 -1
2.8239519596099854 4.625945568084717 0.416511595249176 2134668 6 -1
2.9501919746398926 4.5500993728637695 0.3748604357242584 2070155 6 -1
2.742432117462158 4.678258419036865 0.3748604357242584 2070922 6 -1
2.9142115116119385 4.5855393409729 0.1666046380996704 2070922 6 -1
2.74606990814209 4.684463977813721 0.24990695714950562 2139270 6 -1
2.5775156021118164 4.774195671081543 0.3332092761993408 2468738 6 -1
2.747684955596924 4.687219619750977 0.1666046380996704 2468738 6 -1
2.7073254585266113 4.713591575622559 0 4899181 6 -1
2.8322789669036865 4.639585494995117 0 4899181 6 -1
2.748976469039917 4.689422607421875 0 5424489 6 -1
2.748976469039917 4.689422607421875 0 5424489 6 -1
2.7066099643707275 4.712346076965332 0.12495347857475281 5949540 6 -1
2.748976469039917 4.689422607421875 0 8705099 6 -1
2.704462766647339 4.7086076736450195 0.24990695714950562 9360965 6 -1
2.6649699211120605 4.736019611358643 0.12495347857475281 10016830 6 -1
2.6649699211120605 4.736019611358643 0.12495347857475281 10016830 6 -1
-4.100344657897949 3.6060540676116943 -0.2933039665222168 4456788 0 -1
-3.929276704788208 3.7843172550201416 -0.37710511684417725 4456788 0 -1
-4.631260395050049 2.863755226135254 -0.5028068423271179 4456788 0 -1
-4.105170726776123 3.6102981567382812 -0.12570171058177948 4523353 0 -1
-3.9357616901397705 3.7905631065368652 -0.20950284600257874 4523353 0 -1
-4.100344657897949 3.6060540676116943 -0.2933039665222168 4590430 0 -1
-4.100344657897949 3.6060540676116943 -0.2933039665222168 4590430 0 -1
2.6788008213043213 4.760599136352539 0.25140342116355896 4590430 6 -1
2.8489041328430176 4.6668195724487305 0.08380113542079926 4590430 6 -1
2.891139268875122 4.641529083251953 0 4664956 6 -1
2.7588539123535156 4.706272125244141 0.37710511684417725 2134668 6 -1
2.84714674949646 4.663940906524658 0.20950284600257874 2070155 6 -1
2.8070082664489746 4.692138195037842 0.08380113542079926 2070922 6 -1
2.8880820274353027 4.636621475219727 0.25140342116355896 2072968 6 -1
2.6788008213043213 4.760599136352539 0.25140342116355896 2271109 6 -1
2.889016628265381 4.638121604919434 0.20950284600257874 2271109 6 -1
2.722257375717163 4.739589214324951 0.1676022708415985 2994813 6 -1
2.7625133991241455 4.712514877319336 0.25140342116355896 3651704 6 -1
2.8491549491882324 4.667230606079102 0.04190056771039963 4899181 6 -1
2.807255744934082 4.692551612854004 0.04190056771039963 5424489 6 -1
2.6796674728393555 4.762139320373535 0.20950284600257874 5949540 6 -1
2.8489041328430176 4.6668195724487305 0.08380113542079926 5949540 6 -1
2.6809277534484863 4.764379024505615 0.12570171058177948 10016830 6 -1
2.8903751373291016 4.640302658081055 -0.12570171058177948 10016830 6 -1
-4.071227550506592 3.66453218460083 -0.5057997107505798 4456788 0 -1
-4.673700332641602 2.889998197555542 -0.2528998553752899 4456788 0 -1
2.549241542816162 4.821560382843018 -0.7165495753288269 4523353 6 -1
2.549241542816162 4.821560382843018 -0.7165495753288269 4523353 6 -1
2.6459991931915283 4.800337314605713 -0.4636497497558594 4726897 6 -1
2.821974992752075 4.717156410217285 0.21074987947940826 2070155 6 -1
2.9491121768951416 4.640456199645996 0.1685999035835266 2072968 6 -1
2.6947460174560547 4.788935661315918 0.2528998553752899 2271109 6 -1
2.906981945037842 4.666964054107666 0.1685999035835266 2271109 6 -1
2.737736940383911 4.766540050506592 0.21074987947940826 2994813 6 -1
2.864851713180542 4.692943572998047 0.1685999035835266 3257723 6 -1
2.8233022689819336 4.719374656677246 0.12644992768764496 3651704 6 -1
2.864851713180542 4.692943572998047 0.1685999035835266 4045940 6 -1
2.9075798988342285 4.667923450469971 0.12644992768764496 4505456 6 -1
2.908348321914673 4.6691575050354 0 4899181 6 -1
2.823716640472412 4.720067501068115 0.0842999517917633 5424489 6 -1
2.9918575286865234 4.614360332489014 -0.12644992768764496 5424489 6 -1
2.9082629680633545 4.669020175933838 -0.04214997589588165 7589974 6 -1
2.62935209274292 4.77013635635376 -0.9751858115196228 4456788 0 -1
2.6846492290496826 4.770992279052734 -0.8055883049964905 4456788 6 -1
-3.6848459243774414 4.120178699493408 -0.25439631938934326 4456788 0 -1
-4.491275310516357 2.7771952152252197 -1.6535760164260864 4456788 0 -1
2.587616443634033 4.792904853820801 -0.9751858115196228 4456788 0 -1
2.6063640117645264 4.827630043029785 -0.7207895517349243 4523353 6 -1
2.6113405227661133 4.83684778213501 -0.6359907388687134 4726897 6 -1
2.608931303024292 4.832385063171387 -0.6783901453018188 4664956 6 -1
2.705582857131958 4.808194160461426 -0.423993855714798 4212104 6 -1
2.7844414710998535 4.749921798706055 -0.5511919856071472 4147337 6 -1
2.6683366298675537 4.840861797332764 -0.25439631938934326 3562893 6 -1
2.67116117477417 4.8459858894348145 0 2588302 6 -1
2.755959987640381 4.798266887664795 0 2523534 6 -1
2.8394241333007812 4.746323585510254 0.1695975363254547 2070155 6 -1
2.8394241333007812 4.746323585510254 0.1695975363254547 2072968 6 -1
2.8777360916137695 4.714049339294434 0.3391950726509094 2271109 6 -1
2.7970447540283203 4.771420955657959 0.1695975363254547 2994813 6 -1
2.9648187160491943 4.665170192718506 0.25439631938934326 2994813 6 -1
2.9234097003936768 4.693337440490723 0.211996927857399 3257723 6 -1
2.9241831302642822 4.694579124450684 0.1695975363254547 4045940 6 -1
2.925471544265747 4.696647644042969 0.04239938408136368 4899181 6 -1
3.010002851486206 4.642345905303955 -0.08479876816272736 5424489 6 -1
2.967869758605957 4.669971466064453 0.04239938408136368 6343264 6 -1
2.9255576133728027 4.6967854499816895 0 7589974 6 -1
3.0060229301452637 4.636207580566406 -0.29679569602012634 10016830 6 -1
3.0470147132873535 4.606444358825684 -0.3391950726509094 10672695 6 -1
2.6639809608459473 4.8329596519470215 -0.725029468536377 4456788 6 -1
2.6713693141937256 4.846363544464111 -0.5970830917358398 4456788 6 -1
2.5843353271484375 4.887935638427734 -0.6397318840026855 4456788 6 -1
2.6189539432525635 4.850949764251709 -0.7676782608032227 4523353 6 -1
2.6289665699005127 4.869495391845703 -0.5970830917358398 4726897 6 -1
2.812753677368164 4.798218727111816 -0.21324396133422852 3562893 6 -1
2.7266366481781006 4.845609664916992 -0.2558927536010742 2782862 6 -1
2.7266366481781006 4.845609664916992 -0.2558927536010742 2782862 6 -1
2.6856114864349365 4.872201442718506 -0.1705951690673828 2588302 6 -1
2.771846055984497 4.825925350189209 -0.0852975845336914 2523534 6 -1
2.857133626937866 4.77592658996582 -0.0852975845336914 2070155 6 -1
2.8959431648254395 4.743874549865723 0.2985415458679199 2666112 6 -1
2.8144898414611816 4.801180362701416 0.0852975845336914 2994813 6 -1
2.939655065536499 4.719418048858643 0.2558927536010742 3257723 6 -1
2.9832236766815186 4.694130897521973 0.21324396133422852 4045940 6 -1
3.0707130432128906 4.642271041870117 0 5424489 6 -1
3.022369623184204 4.66141939163208 -0.3411903381347656 6343264 6 -1
3.0662927627563477 4.635588645935059 -0.2985415458679199 10672695 6 -1
2.6370270252227783 4.884425640106201 -0.7292693853378296 4456788 6 -1
2.6370270252227783 4.884425640106201 -0.7292693853378296 4456788 6 -1
2.6313509941101074 4.8739118576049805 -0.8150658011436462 4456788 6 -1
2.6250298023223877 4.862203598022461 -0.9008622169494629 4523353 6 -1
2.73571515083313 4.861743450164795 -0.4718801975250244 4729209 6 -1
2.8259568214416504 4.820741653442383 -0.3431856036186218 3887499 6 -1
2.830948829650879 4.829257488250732 -0.08579640090465546 3562893 6 -1
2.742581844329834 4.873946666717529 -0.2573891878128052 2782862 6 -1
2.9157071113586426 4.77625036239624 -0.1715928018093109 2782862 6 -1
2.7022693157196045 4.902421951293945 -0.08579640090465546 2588302 6 -1
2.9157071113586426 4.77625036239624 -0.1715928018093109 2588302 6 -1
2.7883012294769287 4.854574680328369 -0.04289820045232773 2523534 6 -1
2.830948829650879 4.829257488250732 0.08579640090465546 2468738 6 -1
2.9115917682647705 4.7695088386535645 0.3431856036186218 2666112 6 -1
2.9598889350891113 4.7519025802612305 -0.04289820045232773 4505456 6 -1
2.8720693588256836 4.8008928298950195 -0.21449099481105804 4899181 6 -1
2.6923201084136963 4.884372234344482 -0.7766569256782532 4456788 6 -1
2.845651388168335 4.8543381690979 -0.21573804318904877 3887499 6 -1
2.761122703552246 4.906896114349365 -0.0862952172756195 2782862 6 -1
2.717581033706665 4.930200099945068 0.12944282591342926 2588302 6 -1
2.846989631652832 4.856621265411377 -0.12944282591342926 2199437 6 -1
2.8313093185424805 4.8298726081848145 0.6040664911270142 2134668 6 -1
2.756762981414795 4.7996649742126465 -1.035542607307434 2070155 0 -1
2.8288698196411133 4.825710773468018 0.6472141146659851 2070922 6 -1
2.796349048614502 4.868586540222168 0.43147608637809753 2468738 6 -1
2.8823907375335693 4.818145751953125 0.43147608637809753 2666112 6 -1
2.9318833351135254 4.802748680114746 -0.21573804318904877 8705099 6 -1
3.0992319583892822 4.685385704040527 -0.3883284628391266 12640037 6 -1
2.8067877292633057 4.788041591644287 -1.1283224821090698 4536450 0 -1
2.8766212463378906 4.808501720428467 0.824543297290802 2199437 6 -1
2.919555902481079 4.782555103302002 0.824543297290802 2134668 6 -1
2.7938473224639893 4.864230632781982 0.7811462879180908 2070155 6 -1
2.7938473224639893 4.864230632781982 0.7811462879180908 2070155 6 -1
2.839799165725708 4.84435510635376 0.7377492785453796 2070922 6 -1
2.8856661319732666 4.823620796203613 0.6943522691726685 2006409 6 -1
2.715893268585205 4.927138328552246 0.6509552597999573 2139270 6 -1
2.83650279045105 4.646504878997803 -1.5622925758361816 2139270 0 -1
2.9502172470092773 4.832781791687012 -0.13019104301929474 6343264 6 -1
2.96577787399292 4.858271598815918 0.21823212504386902 4456788 6 -1
3.359886646270752 4.597856521606445 0.1309392750263214 4456788 0 -1
2.93289852142334 4.8044114112854 0.8729285001754761 2264205 6 -1
2.93289852142334 4.8044114112854 0.8729285001754761 2134668 6 -1
2.812845468521118 4.897307395935059 0.7419891953468323 2070155 6 -1
2.9795165061950684 4.783412933349609 0.8292820453643799 2070155 6 -1
2.858933210372925 4.87699556350708 0.6983428001403809 2070922 6 -1
2.942668914794922 4.8204169273376465 0.7419891953468323 2006409 6 -1
2.8993945121765137 4.846569061279297 0.7419891953468323 2072968 6 -1
2.902250289916992 4.851342678070068 0.6983428001403809 2139270 6 -1
2.929638385772705 4.799070835113525 1.0973957777023315 2134668 0 -1
2.98140549659729 4.786445617675781 1.0096042156219482 2070155 0 -1
3.0971450805664062 4.6822309494018555 1.141291618347168 2070922 0 -1
2.9531140327453613 4.837526798248291 0.8340208530426025 2006409 6 -1
2.959484338760376 4.847961902618408 0.7462291717529297 2072968 6 -1
2.9159624576568604 4.874263763427734 0.7462291717529297 2139270 6 -1
3.043342113494873 4.788727760314941 0.7901250123977661 2139270 6 -1
2.7056076526641846 4.908478260040283 1.1851874589920044 2666112 0 -1
2.926218271255493 4.891407012939453 0.8387596011161804 2458766 6 -1
2.979231119155884 4.880309581756592 0.7063238620758057 2328718 6 -1
3.0329394340515137 4.7723588943481445 1.1036310195922852 2070155 0 -1
3.069687843322754 4.830183029174805 0.662178635597229 2070922 6 -1
3.0572428703308105 4.810601234436035 0.8387596011161804 2006409 6 -1
2.976299524307251 4.875507354736328 0.7504690885543823 2072968 6 -1
2.5883805751800537 4.895586967468262 -1.589228630065918 11918891 0 -1
3.015285015106201 4.840837001800537 1.0210769176483154 2458766 0 -1
2.9899847507476807 4.89792537689209 0.7991036772727966 2328718 6 -1
2.9318745136260986 4.900862216949463 0.9766823053359985 2006409 0 -1
2.79390549659729 5.068666934967041 0.2663678824901581 4045940 0 -1
2.7001118659973145 5.106912136077881 0.4439464807510376 11918891 0 -1
2.826777696609497 5.023574352264404 0.8482370972633362 2264205 0 -1
2.8663415908813477 5.0938849449157715 0.40404120087623596 4899181 0 -1
-3.661198854446411 4.625235080718994 -0.5447073578834534 4523353 0 -1
-3.274507761001587 4.950366020202637 0.5020585656166077 4456788 0 -1
-2.169863224029541 5.4861040115356445 0.8215504288673401 4456788 0 -1
-3.6654775142669678 4.630640029907227 0.7759087085723877 4456788 0 -1
-4.557599067687988 3.821885347366333 -0.31949183344841003 4456788 0 -1
-3.539508581161499 4.748069763183594 -0.6389836668968201 4456788 0 -1
-3.696868419647217 4.670296669006348 -0.045641690492630005 4523353 0 -1
-3.6383421421051025 4.689455509185791 -0.5020585656166077 4590430 0 -1
-3.6147382259368896 4.75315523147583 -0.4589109718799591 4456788 0 -1
-3.6013708114624023 4.735577583312988 -0.6883664727210999 4456788 0 -1
-3.6530282497406006 4.7083845138549805 -0.5965842604637146 4456788 0 -1
-3.7613019943237305 4.6570725440979 -0.18356439471244812 4456788 0 -1
-3.566768169403076 4.784637451171875 -0.5048021078109741 4456788 0 -1
-3.671180009841919 4.731780529022217 -0.04589109867811203 4523353 0 -1
-3.620177984237671 4.760307788848877 -0.3212376832962036 4590430 0 -1
-3.5635666847229004 4.685867786407471 -1.101386308670044 4724328 0 -1
-3.7339155673980713 4.530760288238525 -1.3380746841430664 4456788 0 -1
-3.6296582221984863 4.7727742195129395 -0.5536860823631287 4456788 0 -1
-3.7700579166412354 4.667913913726807 -0.5075455904006958 4456788 0 -1
-3.5401763916015625 4.844574928283691 -0.5075455904006958 4456788 0 -1
-3.632128953933716 4.776022911071777 -0.5075455904006958 4523353 0 -1
-3.826850414276123 4.643527984619141 -0.23070253431797028 4590430 0 -1
-3.592191457748413 4.818741321563721 -0.36912405490875244 4590430 0 -1
-3.5829339027404785 4.711334228515625 -1.1073721647262573 4724328 0 -1
-3.8241491317749023 4.640250205993652 0.3229835331439972 4600703 0 -1
-3.6449930667877197 4.792938232421875 0.046140506863594055 4600703 0 -1
-3.64365553855896 4.791179656982422 -0.6494588255882263 4456788 0 -1
-3.594433546066284 4.821749210357666 -0.6958487033843994 4456788 0 -1
-3.72556734085083 4.706552505493164 -0.7886285185813904 4456788 0 -1
-3.646575927734375 4.795019626617432 -0.6030688881874084 4523353 0 -1
-3.77876353263855 4.67869234085083 -0.6958487033843994 4590430 0 -1
-3.6055374145507812 4.836644172668457 -0.5102890729904175 4590430 0 -1
-3.5975332260131836 4.825907230377197 -0.6494588255882263 4657508 0 -1
-3.695704936981201 5.262875080108643 1.203144907951355 4456788 0 -1
-3.706021308898926 5.277565956115723 1.1028828620910645 4456788 0 -1
-3.788118839263916 5.288145065307617 -0.957228422164917 4456788 0 -1
-3.724459171295166 5.3038225173950195 1.1083698272705078 4456788 0 -1
-4.533041954040527 4.760178565979004 -0.15114133059978485 4456788 0 -1
-3.551077365875244 5.587654113769531 -0.5087926387786865 4456788 0 -1
-3.9148268699645996 5.357267379760742 0.25439631938934326 4456788 0 -1
-3.6704413890838623 5.548933982849121 -0.5112866759300232 4456788 0 -1
-3.6600215435028076 5.533181190490723 -0.7158013582229614 4456788 0 -1
-3.6725001335144043 5.552046775817871 -0.46015802025794983 4456788 0 -1
-3.929503917694092 5.377352237701416 -0.40902936458587646 4456788 0 -1
-3.6811561584472656 5.5651326179504395 -0.05112867057323456 4456788 0 -1
-3.7830772399902344 5.495643138885498 -0.10225734114646912 4456788 0 -1
-3.7314066886901855 5.529674530029297 -0.15338601171970367 4523353 0 -1
-3.88018536567688 5.416667938232422 -0.3579006791114807 4590430 0 -1
-3.6802914142608643 5.5638251304626465 -0.15338601171970367 4590430 0 -1
-3.6808319091796875 5.564642429351807 0.10225734114646912 4724328 0 -1
-3.790800094604492 5.506862163543701 -0.5137807726860046 4456788 0 -1
-3.844182014465332 5.474314212799072 -0.46240270137786865 4456788 0 -1
-3.8492813110351562 5.4815754890441895 -0.3082684576511383 4456788 0 -1
-3.7478461265563965 5.554036617279053 -0.2568903863430023 4456788 0 -1
-3.84610915184021 5.477058410644531 -0.41102463006973267 4523353 0 -1
-3.7965047359466553 5.5151495933532715 -0.3596465289592743 4590430 0 -1
-3.8009731769561768 5.521640300750732 -0.15413422882556915 4657508 0 -1
-3.8647797107696533 5.503645896911621 -0.41301989555358887 4456788 0 -1
-3.866487503051758 5.506078243255615 -0.36139240860939026 4456788 0 -1
-4.401553630828857 4.9215593338012695 -1.342314600944519 4456788 0 -1
-3.767035722732544 5.582474708557129 -0.20650994777679443 4456788 0 -1
-3.9218454360961914 5.474824905395508 -0.20650994777679443 4523353 0 -1
-3.814934492111206 5.541922092437744 -0.36139240860939026 4590430 0 -1
-3.8702423572540283 5.511425018310547 -0.20650994777679443 4657508 0 -1
-4.489346504211426 5.786314487457275 0 4456788 0 -1
-4.509166717529297 5.81186056137085 0.05636623874306679 4456788 0 -1
-4.528055191040039 5.83620548248291 0.16984695196151733 4456788 0 -1
-4.548670291900635 5.862776756286621 0.11373011022806168 4456788 0 -1
-4.51204252243042 5.933054447174072 0 4456788 0 -1
-2.5806920528411865 7.02540922164917 -0.17209161818027496 4456788 4 -1
-2.5801615715026855 7.0239644050598145 -0.22945548593997955 4456788 4 -1
-2.521341562271118 7.04062032699585 -0.3441832363605499 4456788 4 -1
-2.4648356437683105 7.063163757324219 -0.28681936860084534 4456788 4 -1
-4.474250793457031 6.001978874206543 -0.05736387148499489 4456788 0 -1
-2.587722063064575 7.044546604156494 -0.4609062373638153 4456788 4 -1
-2.5898561477661133 7.050356388092041 -0.3456796705722809 4456788 4 -1
-2.5888655185699463 7.047659397125244 -0.4032929539680481 4456788 4 -1
-2.5349843502044678 7.07871675491333 0 4456788 4 -1
-2.7194664478302 7.044577121734619 0.05786268785595894 4456788 4 -1
-2.6037445068359375 7.088164329528809 -0.05786268785595894 4456788 4 -1
-2.7192270755767822 7.043956279754639 0.11572537571191788 4456788 4 -1
-2.7192270755767822 7.043956279754639 0.11572537571191788 4456788 4 -1
-2.8349387645721436 6.998188495635986 0.11572537571191788 4456788 4 -1
-2.772186040878296 7.00896692276001 -0.4629015028476715 4456788 4 -1
-3.2356462478637695 6.811126708984375 -0.40503883361816406 4724328 0 -1
-3.1778666973114014 6.838275909423828 -0.40503883361816406 4664956 0 -1
-2.7892987728118896 7.052233695983887 0.058112096041440964 4456788 4 -1
-2.729985475540161 7.07182502746582 0.23244838416576385 4456788 4 -1
-2.672842502593994 7.096475601196289 0.11622419208288193 4456788 4 -1
-2.672842502593994 7.096475601196289 0.11622419208288193 4456788 4 -1
-2.6730780601501465 7.097100734710693 0.058112096041440964 4456788 4 -1
-2.672842502593994 7.096475601196289 0.11622419208288193 4456788 4 -1
-2.730947732925415 7.0743184089660645 0.11622419208288193 4456788 4 -1
-2.7886435985565186 7.050577163696289 0.1743362843990326 4456788 4 -1
-2.673156499862671 7.097309112548828 0 4456788 4 -1
-2.8461549282073975 7.025876045227051 -0.23244838416576385 4456788 4 -1
-2.787332773208618 7.047263145446777 -0.2905604839324951 4456788 4 -1
-2.7627222537994385 6.985039710998535 1.0460177659988403 2523534 0 -1
-2.801270008087158 7.08250093460083 0.05836150422692299 4456788 4 -1
-2.448591470718384 7.203757286071777 0.35016903281211853 4456788 4 -1
-2.6782379150390625 7.110800743103027 0.5252535343170166 4456788 4 -1
-2.683919906616211 7.1258864402771 0.17508451640605927 4456788 4 -1
-2.6243395805358887 7.144230365753174 0.29180753231048584 4456788 4 -1
-2.684314012527466 7.126932621002197 0.11672300845384598 4456788 4 -1
-2.683919906616211 7.1258864402771 0.17508451640605927 4456788 4 -1
-2.6255738735198975 7.147590160369873 0.17508451640605927 4456788 4 -1
-2.6259593963623047 7.148639678955078 0.11672300845384598 4456788 4 -1
-2.6259593963623047 7.148639678955078 0.11672300845384598 4456788 4 -1
-2.8013522624969482 7.082708835601807 0 4456788 4 -1
-2.801023244857788 7.081876754760742 -0.11672300845384598 4456788 4 -1
-2.742910146713257 7.105306148529053 -0.05836150422692299 4456788 4 -1
-2.742990732192993 7.1055145263671875 0 4456788 4 -1
-2.684314012527466 7.126932621002197 -0.11672300845384598 4456788 4 -1
-2.6845505237579346 7.127560615539551 0.05836150422692299 4456788 4 -1
-2.8000361919403076 7.079380989074707 -0.23344601690769196 4456788 4 -1
-2.566020965576172 7.165383338928223 0.29180753231048584 4456788 4 -1
-3.0211308002471924 6.79814338684082 -1.6341221332550049 4505456 0 -1
-2.811258316040039 7.107754707336426 0.29305458068847656 4456788 4 -1
-2.751800060272217 7.1283345222473145 0.3516654670238495 4456788 4 -1
-2.751800060272217 7.1283345222473145 0.3516654670238495 4456788 4 -1
-2.693251132965088 7.150661468505859 0.3516654670238495 4456788 4 -1
-2.5751678943634033 7.190925598144531 0.4102763831615448 4456788 4 -1
-2.7539849281311035 7.1339945793151855 0.17583273351192474 4456788 4 -1
-2.519085168838501 7.2186198234558105 0.23444364964962006 4456788 4 -1
-2.5781986713409424 7.1993889808654785 0.17583273351192474 4456788 4 -1
-2.813323736190796 7.112976551055908 0 4456788 4 -1
-2.5788800716400146 7.201292037963867 0 4456788 4 -1
-2.8132412433624268 7.112767696380615 -0.058610912412405014 4456788 4 -1
-2.8129935264587402 7.1121416091918945 -0.11722182482481003 4456788 4 -1
-2.812002182006836 7.109634876251221 -0.23444364964962006 4456788 4 -1
-2.754389524459839 7.135042190551758 -0.11722182482481003 4456788 4 -1
-2.8129935264587402 7.1121416091918945 -0.11722182482481003 4456788 4 -1
-2.869826316833496 7.0843095779418945 -0.29305458068847656 4456788 4 -1
-2.7534186840057373 7.1325273513793945 -0.23444364964962006 4456788 4 -1
-2.6957852840423584 7.1573896408081055 -0.11722182482481003 4456788 4 -1
-2.8665337562561035 7.0761823654174805 -0.4688872992992401 4456788 4 -1
-2.8092739582061768 7.1027374267578125 -0.4102763831615448 4456788 4 -1
-3.221233606338501 6.931594371795654 -0.29305458068847656 3651704 0 -1
-2.5861260890960693 7.221525192260742 0.41202226281166077 4456788 4 -1
-2.6979401111602783 7.163110256195068 0.6474635601043701 4456788 4 -1
-2.5769731998443604 7.195967197418213 0.7651841640472412 4456788 4 -1
-2.7024829387664795 7.175171852111816 0.4708825647830963 4456788 4 -1
-2.8252124786376953 7.143034934997559 0.05886032059788704 4456788 4 -1
-2.5306966304779053 7.251893043518066 -0.11772064119577408 4456788 4 -1
-2.648714542388916 7.210586071014404 0 4456788 4 -1
-2.7156779766082764 6.8660969734191895 -2.118971586227417 4456788 0 -1
-2.82230806350708 7.1356916427612305 -0.35316193103790283 4456788 4 -1
-2.8249635696411133 7.142405986785889 -0.11772064119577408 4456788 4 -1
-2.88110613822937 7.112154483795166 -0.35316193103790283 4456788 4 -1
-2.7651352882385254 7.16287899017334 -0.23544128239154816 4456788 4 -1
-2.7063026428222656 7.185313701629639 -0.23544128239154816 4456788 4 -1
-2.875676393508911 7.098751068115234 -0.5886031985282898 4456788 4 -1
-2.6996145248413086 7.167556285858154 -0.5886031985282898 4456788 4 -1
-2.8342669010162354 7.165927410125732 0.3546583652496338 4456788 4 -1
-2.5898101329803467 7.231812953948975 0.7093167304992676 4456788 4 -1
-2.657984972000122 7.235823154449463 0.2955486476421356 4456788 4 -1
-2.5959370136260986 7.248921871185303 0.4728778302669525 4456788 4 -1
-2.5959370136260986 7.248921871185303 0.4728778302669525 4456788 4 -1
-2.7139341831207275 7.205575466156006 0.4728778302669525 4456788 4 -1
-2.7781572341918945 7.196610927581787 0 4456788 4 -1
-2.65962553024292 7.240288734436035 0.11821945756673813 4456788 4 -1
-2.7187283039093018 7.218303680419922 -0.11821945756673813 4456788 4 -1
-2.8369338512420654 7.172670364379883 -0.11821945756673813 4456788 4 -1
-2.7768521308898926 7.193230152130127 -0.23643891513347626 4456788 4 -1
-2.657984972000122 7.235823154449463 -0.2955486476421356 4456788 4 -1
-2.836517333984375 7.171617031097412 -0.1773291826248169 4456788 4 -1
-2.8359339237213135 7.170142650604248 -0.23643891513347626 4456788 4 -1
-2.7761175632476807 7.1913275718688965 -0.2955486476421356 4456788 4 -1
-2.8252475261688232 7.143123626708984 -0.7093167304992676 4456788 4 -1
-2.890929937362671 7.136404991149902 -0.4728778302669525 4456788 4 -1
-2.7139341831207275 7.205575466156006 -0.4728778302669525 4456788 4 -1
-2.8130927085876465 7.112392425537109 -1.0048654079437256 4456788 4 -1
-2.690077781677246 7.14223575592041 -1.1230849027633667 4456788 4 -1
-2.7453408241271973 7.111602306365967 1.1821945905685425 5949540 0 -1
-2.60412335395813 7.2717814445495605 0.5935913920402527 4456788 4 -1
-2.666137933731079 7.258017539978027 0.4748730957508087 4456788 4 -1
-2.66731595993042 7.26122522354126 0.4155139625072479 4456788 4 -1
-2.789142370223999 7.225066661834717 0.17807741463184357 4456788 4 -1
-2.6708474159240723 7.270838737487793 0.11871827393770218 4456788 4 -1
-2.967172622680664 7.1537957191467285 0.17807741463184357 4456788 4 -1
-2.730520248413086 7.249611854553223 0 4456788 4 -1
-2.7895517349243164 7.226127624511719 0.11871827393770218 4456788 4 -1
-2.845137119293213 7.193410873413086 -0.4155139625072479 4456788 4 -1
-2.7895517349243164 7.226127624511719 -0.11871827393770218 4456788 4 -1
-2.84714674949646 7.19849157333374 -0.29679569602012634 4456788 4 -1
-2.771390438079834 7.17908239364624 -0.8903870582580566 4456788 4 -1
-2.766108989715576 7.165400505065918 -1.0091053247451782 4456788 4 -1
-2.955383777618408 7.125372886657715 -0.7123096585273743 4456788 4 -1
-2.955383777618408 7.125372886657715 -0.7123096585273743 4456788 4 -1
-3.125185012817383 7.032285690307617 0.8903870582580566 10672695 0 -1
-2.793365001678467 7.236005783081055 0.5960854291915894 4456788 4 -1
-2.6200027465820312 7.316123008728027 0.3576512634754181 4456788 4 -1
-2.5594778060913086 7.334367752075195 0.4172598123550415 4456788 4 -1
-2.7975687980651855 7.246894836425781 0.4172598123550415 4456788 4 -1
-2.4961986541748047 7.343817710876465 0.5960854291915894 4456788 4 -1
-2.6820695400238037 7.301388263702393 0.11921709030866623 4456788 4 -1
-2.7419931888580322 7.2800726890563965 0 4456788 4 -1
-2.49465012550354 7.339262008666992 0.6556940078735352 4456788 4 -1
-2.8604540824890137 7.232137203216553 0.17882563173770905 4456788 4 -1
-2.562490224838257 7.3429999351501465 -0.17882563173770905 4456788 4 -1
-2.681124448776245 7.2988152503967285 -0.23843418061733246 4456788 4 -1
-2.8604540824890137 7.232137203216553 -0.17882563173770905 4456788 4 -1
-2.6224679946899414 7.323007106781006 -0.11921709030866623 4456788 4 -1
-2.7380459308624268 7.269592761993408 0.4172598123550415 4456788 4 -1
-2.71863055229187 7.218044281005859 -1.0133452415466309 4456788 4 -1
-2.7830350399017334 7.209246635437012 -0.8941282033920288 4456788 4 -1
-2.7804672718048096 7.202594757080078 -0.9537367224693298 4456788 4 -1
-2.9059128761291504 7.006099700927734 1.7286478281021118 4657508 0 -1
-2.8701436519622803 7.2566351890563965 0.35914772748947144 4456788 4 -1
-2.5093061923980713 7.382380485534668 0.4788636267185211 4456788 4 -1
-2.749502182006836 7.300009727478027 0.41900569200515747 4456788 4 -1
-2.450643301010132 7.405690670013428 0.41900569200515747 4456788 4 -1
-2.7527382373809814 7.308601379394531 0.17957386374473572 4456788 4 -1
-2.688542366027832 7.319009304046631 0.4788636267185211 4456788 4 -1
-2.688542366027832 7.319009304046631 0.4788636267185211 4456788 4 -1
-2.6318163871765137 7.349111557006836 0.2992897629737854 4456788 4 -1
-2.4535276889801025 7.414406776428223 0.17957386374473572 4456788 4 -1
-3.045487880706787 7.173580169677734 -0.5387215614318848 4456788 4 -1
-2.7397713661193848 7.274173259735107 -0.7781534194946289 4456788 4 -1
-2.883035182952881 7.289228916168213 0.3005368113517761 4456788 4 -1
-2.883035182952881 7.289228916168213 0.3005368113517761 4456788 4 -1
-2.879727602005005 7.280866622924805 0.4808588922023773 4456788 4 -1
-2.7597389221191406 7.327188491821289 0.4808588922023773 4456788 4 -1
-2.702845573425293 7.357946395874023 0.3005368113517761 4456788 4 -1
-2.582719087600708 7.400967121124268 0.3005368113517761 4456788 4 -1
-2.583402395248413 7.40292501449585 0.24042944610118866 4456788 4 -1
-2.5242128372192383 7.426235198974609 0.12021472305059433 4456788 4 -1
-2.9504408836364746 7.283310890197754 0.5432109236717224 4456788 4 -1
-2.869436740875244 7.254848003387451 -1.0864218473434448 4456788 4 -1
-2.6444475650787354 7.384383201599121 0.7242812514305115 4456788 4 -1
-2.472810745239258 7.472679138183594 0.30178385972976685 4456788 4 -1
-2.5313353538513184 7.447189807891846 0.42249739170074463 4456788 4 -1
-2.532303810119629 7.450039386749268 0.36214062571525574 4456788 4 -1
-2.5941216945648193 7.433642864227295 0.24142707884311676 4456788 4 -1
-2.6048412322998047 7.464360237121582 0.24242471158504486 4456788 4 -1
-2.6023142337799072 7.457118511199951 0.4242432415485382 4456788 4 -1
-2.5998613834381104 7.450089931488037 0.5454556345939636 4456788 4 -1
-2.6033101081848145 7.459972381591797 0.3636370599269867 4456788 4 -1
-2.6638522148132324 7.438568592071533 0.3636370599269867 4456788 4 -1
-2.6638522148132324 7.438568592071533 0.3636370599269867 4456788 4 -1
-2.613023281097412 7.48780632019043 0.4259890913963318 4456788 4 -1
-2.674814462661743 7.469180107116699 0.36513352394104004 4456788 4 -1
-2.6247365474700928 7.521371364593506 0.366629958152771 4456788 4 -1
-2.4439127445220947 7.589930057525635 -0.12220998853445053 4456788 4 -1
-4.452908992767334 6.731860160827637 0.12370643764734268 4456788 0 -1
-4.469288349151611 6.756622791290283 0.24841050803661346 4456788 0 -1
-4.5247297286987305 6.840438365936279 -0.12570171058177948 4456788 0 -1
-6.998253345489502 4.467983245849609 -2.4546749591827393 4456788 0 -1
-5.648650646209717 6.058140754699707 -2.521017551422119 4456788 0 -1
-4.942717552185059 7.0386857986450195 -0.9951384663581848 4456788 0 -1
-3.489631175994873 7.852362155914307 -1.06148099899292 4456788 0 -1
-2.9832236766815186 8.12121868133545 -0.33171284198760986 4456788 0 -1
-7.374050140380859 4.260776996612549 -1.7313913106918335 4456788 0 -1
-1.5361992120742798 8.21106243133545 2.397310972213745 4456788 0 -1
-7.077053070068359 4.659878730773926 -1.9311672449111938 4456788 0 -1
-3.240938186645508 8.395410537719727 -0.5526884198188782 4456788 0 -1
-3.2553210258483887 8.432668685913086 -0.41601279377937317 4456788 0 -1
-3.429157257080078 8.465046882629395 -0.4905858039855957 4456788 0 -1
-4.834447860717773 7.9193596839904785 -1.7358806133270264 4590430 0 -1
-4.834447860717773 7.9193596839904785 -1.7358806133270264 4590430 0 -1
-3.3144428730010986 8.585819244384766 -2.097522497177124 4590430 0 -1
-4.491359233856201 8.319107055664062 -0.580622136592865 4456788 0 -1
-5.103913307189941 7.716041564941406 -2.032177448272705 4590430 0 -1
-4.152073860168457 8.740233421325684 -2.8607113361358643 4456788 0 -1
-4.545442581176758 8.968316078186035 -0.8504817485809326 4523353 0 -1
-4.545442581176758 8.968316078186035 -0.8504817485809326 4523353 0 -1
-3.8578596115112305 8.680949211120605 -3.4019269943237305 4724328 0 -1
-5.372464656829834 7.96160364151001 -3.092660903930664 4725613 0 -1
-4.340503215789795 9.136881828308105 0.38782966136932373 4456788 0 -1
-4.421128273010254 9.106075286865234 -0.07756593078374863 4456788 0 -1
-4.343692302703857 9.143594741821289 0 4523353 0 -1
-5.092343807220459 8.341821670532227 -2.6372416019439697 4657508 0 -1
-4.050133228302002 8.71525764465332 -3.1802031993865967 4724328 0 -1
-4.016353607177734 8.642569541931152 -3.412900924682617 4725613 0 -1
-5.215717792510986 8.54392147064209 -1.711937427520752 4523353 0 -1
-3.497987747192383 9.52255916595459 0.4668920338153839 4523353 0 -1
-5.064408302307129 8.465561866760254 -2.412275552749634 4590430 0 -1
-4.158535480499268 8.75383472442627 -3.0347983837127686 4724328 0 -1
-5.084758758544922 8.673985481262207 -2.458665370941162 4724328 0 -1
-4.130083084106445 8.887297630310059 -3.3310952186584473 4724328 0 -1
-3.7747321128845215 9.100805282592773 -3.172471523284912 4724328 0 -1
-1.2473464012145996 10.097460746765137 -1.9034829139709473 4724328 0 -1
8.270403861999512 5.445639133453369 3.013848066329956 4724328 0 -1
-5.765998840332031 7.890514850616455 -3.4104068279266357 4725613 0 -1
-3.4024713039398193 9.501096725463867 -2.300041913986206 4725613 0 -1
-4.236202716827393 10.45727825164795 -0.519267737865448 4456788 0 -1
-4.327104091644287 10.432563781738281 -0.08654462546110153 4456788 0 -1
-3.964318037033081 10.023056030273438 -3.3752403259277344 4728182 0 -1
-4.455106258392334 10.493905067443848 -1.141291618347168 4456788 0 -1
-4.297243118286133 10.607959747314453 -0.5267499685287476 4523353 0 -1
-4.376651763916016 10.552021980285645 -1.2325750589370728 4456788 0 -1
-4.389050006866455 10.581914901733398 -1.2360666990280151 4456788 0 -1
-4.443562984466553 10.71334457397461 -0.7123096585273743 4456788 0 -1
-4.453777313232422 10.737970352172852 -0.8035930395126343 4456788 0 -1
-4.284903049468994 10.833597183227539 -1.2570170164108276 4456788 0 -1
-4.306365489959717 10.887860298156738 -0.9903997182846069 4456788 0 -1
3.7892227172851562 11.767988204956055 0.37910038232803345 4456788 5 -1
3.6944921016693115 11.798070907592773 0.37910038232803345 4456788 5 -1
3.7892227172851562 11.767988204956055 0.37910038232803345 4456788 5 -1
3.8005337715148926 11.803115844726562 0.19004900753498077 4456788 5 -1
3.799975633621216 11.801383018493652 0.28507351875305176 4456788 5 -1
3.704214572906494 11.829117774963379 0.38009801506996155 4456788 5 -1
3.799975633621216 11.801383018493652 0.28507351875305176 4456788 5 -1
3.7032346725463867 11.825989723205566 0.47512251138687134 4456788 5 -1
3.710333824157715 11.84865951538086 0.6669173836708069 4456788 5 -1
3.7117536067962646 11.853194236755371 0.5716434717178345 4456788 5 -1
3.903362512588501 11.795716285705566 0.47636955976486206 4456788 5 -1
3.6194519996643066 11.892012596130371 0.28582173585891724 4456788 5 -1
3.712954521179199 11.85702896118164 0.47636955976486206 4456788 5 -1
3.621244430541992 11.897902488708496 0.8597098588943481 4456788 0 -1
3.8137471675872803 11.844152450561523 0.7641865611076355 4456788 0 -1
3.628926992416382 11.92314338684082 0.2865699529647827 4456788 5 -1
3.7236592769622803 11.891213417053223 0.38209328055381775 4456788 5 -1
3.534259080886841 11.95460033416748 0.09552332013845444 4456788 5 -1
3.9135806560516357 11.826595306396484 0.4776165783405304 4456788 5 -1
3.634124755859375 11.940221786499023 0.670409083366394 4456788 5 -1
3.600588321685791 11.830035209655762 -1.8196817636489868 4456788 0 -1
3.721264362335205 11.556933403015137 -2.968954563140869 4456788 0 -1
3.6376538276672363 11.95181655883789 0.38309091329574585 4456788 5 -1
3.6376538276672363 11.95181655883789 0.38309091329574585 4456788 5 -1
3.5434868335723877 11.985814094543457 -0.09577272832393646 4456788 5 -1
3.919297456741333 11.843871116638184 -0.7661818265914917 4456788 5 -1
3.6487340927124023 11.988221168518066 -0.09602213650941849 4456788 5 -1
3.552819013595581 12.017379760742188 0 4456788 5 -1
3.5524017810821533 12.015968322753906 0.19204427301883698 4456788 5 -1
3.5524017810821533 12.015968322753906 0.19204427301883698 4456788 5 -1
3.6487340927124023 11.988221168518066 0.09602213650941849 4456788 5 -1
3.7999629974365234 11.801342964172363 -1.8244205713272095 4456788 0 -1
3.561628818511963 12.047178268432617 -0.19254308938980103 4456788 5 -1
3.561628818511963 12.047178268432617 0.19254308938980103 4456788 5 -1
3.5619425773620605 12.048239707946777 0.09627154469490051 4456788 5 -1
3.4656736850738525 12.07628345489502 -0.09627154469490051 4456788 5 -1
3.3694050312042236 12.103496551513672 0.09627154469490051 4456788 5 -1
3.3694050312042236 12.103496551513672 0.09627154469490051 4456788 5 -1
3.4653685092926025 12.075220108032227 0.19254308938980103 4456788 5 -1
3.849844217300415 11.956256866455078 0.28881463408470154 4456788 5 -1
3.7545902729034424 11.989989280700684 0 4456788 5 -1
3.474346160888672 12.106502532958984 -0.19304190576076508 4456788 5 -1
3.860837936401367 11.990399360656738 0 4456788 5 -1
3.5708558559417725 12.078389167785645 -0.19304190576076508 4456788 5 -1
3.5708558559417725 12.078389167785645 0.19304190576076508 4456788 5 -1
3.474346160888672 12.106502532958984 -0.19304190576076508 4456788 5 -1
3.4738359451293945 12.104724884033203 -0.289562851190567 4456788 5 -1
3.4738359451293945 12.104724884033203 -0.289562851190567 4456788 5 -1
3.764206647872925 12.020698547363281 0.09652095288038254 4456788 5 -1
3.957242727279663 11.958539962768555 0.09652095288038254 4456788 5 -1
3.9573590755462646 11.958890914916992 0 4456788 5 -1
3.6668269634246826 12.047667503356934 0.289562851190567 4456788 5 -1
3.3860676288604736 12.163351058959961 0.2903110682964325 4456788 5 -1
3.8703598976135254 12.019970893859863 -0.19354072213172913 4456788 5 -1
3.676301956176758 12.078798294067383 -0.2903110682964325 4456788 5 -1
3.4771814346313477 12.116382598876953 -0.7741628885269165 4456788 5 -1
3.9675846099853516 11.989791870117188 0 4456788 5 -1
3.8689959049224854 12.015734672546387 0.38708144426345825 4456788 5 -1
3.7740440368652344 12.05211353302002 0 4456788 5 -1
3.7740440368652344 12.05211353302002 0 4456788 5 -1
3.8697915077209473 12.018205642700195 0.2903110682964325 4456788 5 -1
3.8679723739624023 12.012557029724121 0.4838517904281616 4456788 5 -1
3.5769574642181396 12.099027633666992 -1.067217469215393 4456788 5 -1
3.6814441680908203 12.095693588256836 -0.6791383624076843 4456788 5 -1
3.5811853408813477 12.113327980041504 -0.8731778860092163 4456788 5 -1
3.6828527450561523 12.100321769714355 -0.5821186304092407 4456788 5 -1
3.489018440246582 12.157629013061523 -0.5821186304092407 4456788 5 -1
3.3956918716430664 12.197922706604004 0 4456788 5 -1
3.7836599349975586 12.082820892333984 -0.09701976925134659 4456788 5 -1
3.394794464111328 12.194700241088867 0.29105931520462036 4456788 5 -1
3.879765272140503 12.04918098449707 -0.29105931520462036 4456788 5 -1
3.68664288520813 12.112774848937988 -0.09701976925134659 4456788 5 -1
3.394794464111328 12.194700241088867 0.29105931520462036 4456788 5 -1
3.8807907104492188 12.05236530303955 0 4456788 5 -1
3.7836599349975586 12.082820892333984 0.09701976925134659 4456788 5 -1
3.7836599349975586 12.082820892333984 -0.09701976925134659 4456788 5 -1
4.074351787567139 11.98674488067627 0.19403953850269318 4456788 5 -1
3.8803348541259766 12.050950050354004 0.19403953850269318 4456788 5 -1
3.977693557739258 12.020340919494629 0.09701976925134659 4456788 5 -1
4.073753356933594 11.9849853515625 0.29105931520462036 4456788 5 -1
3.87520432472229 12.035016059875488 -0.6791383624076843 4456788 5 -1
3.8766872882843018 12.039621353149414 -0.5821186304092407 4456788 5 -1
