VERSION .7
FIELDS x y z rgb label object
SIZE 4 4 4 4 4 4
TYPE F F F I I I
COUNT 1 1 1 1 1 1
WIDTH 678
HEIGHT 1
POINTS 678
VIEWPOINT 0 0 0 1 0 0 0
DATA ascii
-0.6948503851890564 0.13819481432437897 0.10425260663032532 4456788 0 -1
0.537423312664032 0.4616178274154663 0.10425260663032532 4456788 0 -1
-0.6710039377212524 0.23798365890979767 0.07681770622730255 4456788 0 -1
-0.6419450640678406 0.24387207627296448 0.20301823318004608 4657508 0 -1
0.6208977103233337 0.29334813356399536 0.20301823318004608 2199437 0 -1
-0.16379067301750183 0.6934464573860168 -0.071330726146698 3257723 0 -1
-0.6837141513824463 0.22438406944274902 0.20650994777679443 4456788 0 -1
0.5624748468399048 0.4831357002258301 0.10325497388839722 4456788 0 -1
0.5917736887931824 0.4250270128250122 0.17209161818027496 4456788 0 -1
0.7037333846092224 0.23095406591892242 0.1089913547039032 4456788 0 -1
-0.6977817416191101 0.2650841772556305 0.05736387148499489 4456788 0 -1
-0.6695156693458557 0.2543460428714752 0.2179827094078064 4657508 0 -1
0.584625244140625 0.443202406167984 0.14914606511592865 4657508 0 -1
0.6146373152732849 0.3676466941833496 0.2179827094078064 4657508 0 -1
0.6146373152732849 0.3676466941833496 0.2179827094078064 4657508 0 -1
-0.660696804523468 0.2670009732246399 0.22945548593997955 4724328 0 -1
0.6065205931663513 0.3872286081314087 0.20650994777679443 4724328 0 -1
-0.6826300621032715 0.3073691129684448 0 4728182 0 -1
-0.6412671208381653 0.38357535004615784 0.04589109867811203 4536450 0 -1
0.4794599711894989 0.5701022744178772 -0.07457303255796432 4536450 0 -1
0.6362714767456055 0.3934406340122223 -0.028681935742497444 4536450 0 -1
0.6362714767456055 0.3934406340122223 -0.028681935742497444 4536450 0 -1
0.6362714767456055 0.3934406340122223 -0.028681935742497444 4536450 0 -1
-0.6649700999259949 0.3141704797744751 0.2633749842643738 4657508 0 -1
0.6109941005706787 0.46319255232810974 0.1496448814868927 4657508 0 -1
0.640410840511322 0.37003377079963684 0.25140342116355896 4657508 0 -1
0.6116774678230286 0.45150700211524963 0.17957386374473572 4724328 0 -1
0.6371615529060364 0.39399099349975586 0.22147442400455475 4724328 0 -1
0.10592063516378403 0.8062118887901306 -0.031176017597317696 4657508 0 -1
0.2742200493812561 0.7657349705696106 0.024940814822912216 4657508 0 -1
0.6394507884979248 0.47200772166252136 0.17458570003509521 4657508 0 -1
0.6652351021766663 0.3843774199485779 0.26811376214027405 4657508 0 -1
-0.13298696279525757 0.7776067852973938 -0.19952651858329773 4724328 0 -1
0.006220359355211258 0.8117763996124268 0.05611683055758476 4724328 0 -1
0.07432658225297928 0.8049203753471375 -0.09352805465459824 4724328 0 -1
0.1057991236448288 0.8052869439125061 -0.04988162964582443 4724328 0 -1
-0.26748988032341003 0.7469415664672852 -0.18082089722156525 4725613 0 -1
-0.10403545200824738 0.7918628454208374 -0.15588009357452393 4725613 0 -1
-0.062130156904459 0.8084580302238464 -0.06858723610639572 4725613 0 -1
-0.4087962210178375 0.6973570585250854 0.09352805465459824 4600703 0 -1
-0.2863217294216156 0.7239123582839966 -0.2369377315044403 4600703 0 -1
-0.24583889544010162 0.76348876953125 -0.13717447221279144 4600703 0 -1
-0.1395692676305771 0.7795506119728088 -0.18705610930919647 4600703 0 -1
-0.09290822595357895 0.8029876947402954 -0.09352805465459824 4600703 0 -1
0.11015746742486954 0.8384603261947632 -0.03242305666208267 4657508 0 -1
0.2915932834148407 0.7938033938407898 0.03242305666208267 4657508 0 -1
-0.7736630439758301 0.3307647407054901 -0.09078456461429596 4724328 0 -1
0.1033845841884613 0.8369141221046448 -0.071330726146698 4724328 0 -1
-0.02494008280336857 1.6272361278533936 -0.012470407411456108 4456788 0 -1
-0.22063910961151123 1.5844300985336304 -0.2992897629737854 4657508 0 -1
-0.1116754561662674 1.6155253648757935 -0.16211529076099396 4657508 0 -1
0.211691752076149 1.61128568649292 -0.08729285001754761 4657508 0 -1
0.2868109345436096 1.601954698562622 0.012470407411456108 4657508 0 -1
0.561020016670227 1.527262806892395 0.037411220371723175 4657508 0 -1
-0.09918757528066635 1.6150407791137695 -0.17458570003509521 4724328 0 -1
0.012467111460864544 1.6269972324371338 -0.037411220371723175 4724328 0 -1
0.17371737957000732 1.610036015510559 -0.16211529076099396 4724328 0 -1
1.3763415813446045 0.7952596545219421 0.34917140007019043 4724328 0 -1
0.38053181767463684 1.5561506748199463 0.28681936860084534 4726897 0 -1
-0.0119300726801157 1.556911826133728 -0.4738754630088806 4728182 0 -1
0.09776341915130615 1.5918517112731934 0.3242305815219879 4728182 0 -1
0.050825461745262146 1.6574901342391968 -0.0763188898563385 4456788 0 -1
-0.02542095258831978 1.6586109399795532 -0.06359907984733582 4523353 0 -1
-0.13872583210468292 1.6400238275527954 -0.21623685956001282 4657508 0 -1
0.22862708568572998 1.64179265499115 -0.08903870731592178 4657508 0 -1
-1.173559546470642 1.0320886373519897 -0.5596718788146973 4724328 0 -1
-0.1765601485967636 1.636383056640625 -0.21623685956001282 4724328 0 -1
0.15187862515449524 1.644770860671997 -0.16535760462284088 4724328 0 -1
0.2416694015264511 1.6422897577285767 -0.012719815596938133 4724328 0 -1
1.371659755706787 0.7925544381141663 0.49607279896736145 4724328 0 -1
-0.15445664525032043 1.6726895570755005 -0.20750758051872253 4724328 0 -1
0.24629947543144226 1.6737538576126099 -0.051876895129680634 4724328 0 -1
-0.23790597915649414 1.6167149543762207 -0.4409535825252533 4600703 0 -1
-0.09026069194078445 1.680384635925293 -0.18156912922859192 4600703 0 -1
0.03917070850729942 1.7035664319992065 0.4309772551059723 4456788 0 -1
0.34613579511642456 1.6368821859359741 0.5387215614318848 4456788 0 -1
0.31398168206214905 1.6782479286193848 0.4175092279911041 4456788 0 -1
0.4080493748188019 1.6133633852005005 0.5656576752662659 4456788 0 -1
0.27715930342674255 1.6999937295913696 0.35016903281211853 4523353 0 -1
0.6739479303359985 1.5165164470672607 0.579125702381134 4523353 0 -1
-1.4877718687057495 0.7352297902107239 0.579125702381134 4657508 0 -1
-0.18585419654846191 1.7225216627120972 -0.2962968647480011 4724328 0 -1
0.39170706272125244 1.6583843231201172 0.4309772551059723 4724328 0 -1
-0.3825462758541107 1.6195999383926392 -0.5656576752662659 4726897 0 -1
-0.01308256946504116 1.7073163986206055 -0.4175092279911041 4726897 0 -1
0.0664626806974411 1.7334949970245361 -0.28282883763313293 4726897 0 -1
0.5422165393829346 1.6839330196380615 0.2743489444255829 4523353 0 -1
0.6141048073768616 1.630466341972351 0.4115234315395355 4523353 0 -1
-0.4913720190525055 1.7122061252593994 -0.178326815366745 4657508 0 -1
-0.176981583237648 1.767880916595459 -0.21947915852069855 4657508 0 -1
-0.09584155678749084 1.7842836380004883 -0.10973957926034927 4657508 0 -1
1.073899745941162 1.4695844650268555 0.09776799380779266 4523353 0 -1
-0.1528712958097458 1.807252287864685 -0.18156912922859192 4657508 0 -1
-0.09753523766994476 1.8158148527145386 -0.12570171058177948 4657508 0 -1
-0.0935317724943161 1.741282343864441 -0.53074049949646 4726897 0 -1
-0.04045364633202553 1.7593625783920288 -0.4748730957508087 4726897 0 -1
-1.9884628057479858 1.7079828977584839 -0.28282883763313293 4456788 0 -1
-1.90812087059021 1.797293782234192 -0.28282883763313293 4456788 0 -1
-1.9482918977737427 1.7536672353744507 -0.28282883763313293 4456788 0 -1
-0.6421816945075989 2.539085865020752 0.3030308783054352 4456788 0 -1
-1.9448171854019165 1.7505396604537964 -0.3232329487800598 4456788 0 -1
-1.538985013961792 2.1060330867767334 -0.38383913040161133 4456788 0 -1
-1.4309314489364624 2.2069344520568848 -0.18181852996349335 4456788 0 -1
-1.6060625314712524 2.0289573669433594 -0.5050514936447144 4456788 0 -1
-1.52068293094635 2.1228456497192383 -0.3636370599269867 4456788 0 -1
-1.3331793546676636 2.2742433547973633 -0.04040411859750748 4456788 0 -1
-0.9668479561805725 2.4444990158081055 -0.20202060043811798 4456788 0 -1
-1.3906235694885254 2.2325525283813477 -0.18181852996349335 4456788 0 -1
-1.3531802892684937 2.261948823928833 -0.060606177896261215 4456788 0 -1
-1.4156551361083984 2.1833736896514893 -0.4242432415485382 4456788 0 -1
-0.28229695558547974 2.616365909576416 0.1616164743900299 4456788 0 -1
-1.2501722574234009 2.3156278133392334 0.1616164743900299 4523353 0 -1
-2.076355218887329 1.6156069040298462 -0.4499322772026062 4456788 0 -1
-1.5925443172454834 2.0940964221954346 -0.4499322772026062 4456788 0 -1
-1.4908080101013184 2.2092697620391846 -0.14316026866436005 4456788 0 -1
-1.0589711666107178 2.4376683235168457 -0.24541760981082916 4456788 0 -1
-2.1308834552764893 1.5304549932479858 -0.4908352196216583 4456788 0 -1
-1.715721845626831 1.9989298582077026 -0.42948082089424133 4456788 0 -1
-1.5112301111221313 2.1953506469726562 -0.14316026866436005 4456788 0 -1
-0.42946821451187134 2.6342010498046875 0.020451467484235764 4456788 0 -1
-1.8575836420059204 1.909578561782837 -0.1636117398738861 4456788 0 -1
-1.8575836420059204 1.909578561782837 -0.1636117398738861 4456788 0 -1
-1.5005139112472534 2.179783582687378 -0.3476749360561371 4456788 0 -1
-1.3488059043884277 2.3009002208709717 -0.10225734114646912 4456788 0 -1
-2.077423334121704 1.5748875141143799 -0.5726410746574402 4456788 0 -1
-1.9805690050125122 1.741814374923706 -0.40902936458587646 4456788 0 -1
-1.85561203956604 1.9075517654418945 -0.20451468229293823 4456788 0 -1
-1.427393913269043 2.2460179328918457 -0.20451468229293823 4456788 0 -1
-1.247209906578064 2.358936071395874 0.06135440245270729 4456788 0 -1
-1.5946121215820312 2.096815347671509 -0.42948082089424133 4456788 0 -1
-1.6033201217651367 2.0665175914764404 -0.5317381620407104 4456788 0 -1
-1.5431956052780151 2.111794948577881 -0.5317381620407104 4456788 0 -1
-1.5663447380065918 2.059645414352417 -0.6544469594955444 4523353 0 -1
-1.8098832368850708 1.7431128025054932 0.8998645544052124 4600703 0 -1
-1.3432347774505615 2.156473159790039 -0.8180587291717529 4600703 0 -1
-2.0332674980163574 1.6638625860214233 -0.47038376331329346 3692940 0 -1
-1.8779966831207275 1.8895066976547241 -0.1636117398738861 3692940 0 -1
-1.529983401298523 2.135828971862793 -0.47038376331329346 3692940 0 -1
-2.0906779766082764 1.5849359035491943 -0.4908352196216583 2782862 0 -1
-1.4485973119735718 2.234180450439453 -0.18406321108341217 2782862 0 -1
-1.5083221197128296 2.2352242469787598 -0.1656070053577423 4456788 0 -1
-1.5901726484298706 2.1760809421539307 -0.1863078773021698 4456788 0 -1
-1.1598261594772339 2.388861656188965 -0.49682101607322693 4456788 0 -1
-1.539337396621704 2.192095994949341 -0.3519148826599121 4456788 0 -1
-1.5527652502059937 2.1676321029663086 -0.43471840023994446 4456788 0 -1
-2.109734535217285 1.5993826389312744 -0.5382227897644043 4456788 0 -1
-1.9887943267822266 1.790123701095581 -0.3726157546043396 4456788 0 -1
-1.8770763874053955 1.9296168088912964 -0.22770963609218597 4456788 0 -1
-1.4050123691558838 2.301565408706665 -0.1656070053577423 4456788 0 -1
-1.2626051902770996 2.388054132461548 0.04140175133943558 4456788 0 -1
-1.595595359802246 2.1404097080230713 -0.41401752829551697 4456788 0 -1
-1.6097723245620728 2.1167502403259277 -0.47612014412879944 4456788 0 -1
-1.566782832145691 2.144073009490967 -0.49682101607322693 4456788 0 -1
-1.5871306657791138 2.1290547847747803 -0.49682101607322693 4523353 0 -1
-2.0456349849700928 1.7154169082641602 -0.41401752829551697 3692940 0 -1
-1.5582306385040283 2.1752617359161377 -0.3726157546043396 3692940 0 -1
-1.4612809419631958 2.2537424564361572 -0.28981226682662964 2458766 0 -1
-1.5466301441192627 2.2467761039733887 -0.18855255842208862 4456788 0 -1
-1.137250304222107 2.447186231613159 -0.4399559497833252 4456788 0 -1
-2.065046548843384 1.7316950559616089 -0.4609062373638153 4456788 0 -1
-1.9414432048797607 1.9113632440567017 -0.23045311868190765 4456788 0 -1
-1.5921504497528076 2.1787877082824707 -0.4399559497833252 4456788 0 -1
-1.480072021484375 2.282724380493164 -0.2723536789417267 4456788 0 -1
-1.5734137296676636 2.1964569091796875 -0.41900569200515747 4456788 0 -1
-1.863206386566162 1.9982765913009644 -0.10475142300128937 4456788 0 -1
-1.6425870656967163 2.1598994731903076 -0.335204541683197 4456788 0 -1
-1.5941165685653687 2.1814780235290527 -0.41900569200515747 4456788 0 -1
-1.6268455982208252 2.139200448989868 -0.5028068423271179 4456788 0 -1
-1.58792245388031 2.173001766204834 -0.4818565249443054 4456788 0 -1
-1.6038594245910645 2.1514956951141357 -0.5237571001052856 4523353 0 -1
-1.6167114973068237 2.168735980987549 -0.39805540442466736 4590430 0 -1
-2.087167263031006 1.665906310081482 -0.5866079330444336 2458766 0 -1
-1.9824447631835938 1.8256773948669434 -0.4609062373638153 2458766 0 -1
-1.4776124954223633 2.278930902481079 -0.3142542541027069 2458766 0 -1
-1.7159143686294556 2.167734384536743 0.1059984639286995 4456788 0 -1
-1.8017622232437134 2.099172592163086 -0.04239938408136368 4456788 0 -1
-2.2884910106658936 1.5525102615356445 -0.08479876816272736 4456788 0 -1
-1.9457284212112427 1.9576536417007446 -0.19079722464084625 4456788 0 -1
-1.7803035974502563 2.1168713569641113 0.06359907984733582 4456788 0 -1
-1.9657750129699707 1.935318112373352 -0.211996927857399 4456788 0 -1
-2.329500436782837 1.4872522354125977 -0.12719815969467163 4456788 0 -1
-1.998777985572815 1.8826851844787598 -0.3391950726509094 4456788 0 -1
-1.884056568145752 2.0206382274627686 -0.14839784801006317 4456788 0 -1
-1.671626091003418 2.1980838775634766 0.1695975363254547 4456788 0 -1
-1.884777545928955 2.021411657333374 -0.12719815969467163 4456788 0 -1
-1.6875402927398682 2.1750690937042236 0.2755959928035736 4456788 0 -1
-1.585958480834961 2.2139692306518555 -0.4875929057598114 4456788 0 -1
-1.8650798797607422 2.042572498321533 0.06359907984733582 4523353 0 -1
-1.843885898590088 2.06172513961792 -0.06359907984733582 4590430 0 -1
-1.78072190284729 2.117368698120117 0.02119969204068184 4664956 0 -1
-1.6887906789779663 2.17668080329895 0.25439631938934326 4664956 0 -1
-1.8019208908081055 2.0993576049804688 -0.02119969204068184 4017546 0 -1
-2.27360463142395 1.6329610347747803 0 4456788 0 -1
-1.8432682752609253 2.1039724349975586 -0.10724549740552902 4456788 0 -1
-2.336853504180908 1.5386989116668701 -0.08579640090465546 4456788 0 -1
-1.8231735229492188 2.1241180896759033 0 4456788 0 -1
-1.7141135931015015 2.2093193531036377 0.1286945939064026 4456788 0 -1
-1.242256999015808 2.5040156841278076 0.15014369785785675 4456788 0 -1
-2.3977816104888916 1.434238314628601 -0.1715928018093109 4456788 0 -1
-1.9044252634048462 2.0424835681915283 -0.19304190576076508 4456788 0 -1
-1.3298051357269287 2.463127613067627 -0.021449100226163864 4456788 0 -1
-1.8866339921951294 2.0661778450012207 -0.08579640090465546 4456788 0 -1
-1.8212456703186035 2.1218721866607666 -0.1286945939064026 4456788 0 -1
-1.8426721096038818 2.1032919883728027 -0.1286945939064026 4456788 0 -1
-1.8441351652145386 2.10496187210083 -0.0643472969532013 4456788 0 -1
-1.8655786514282227 2.0859806537628174 0.0643472969532013 4523353 0 -1
-1.8655786514282227 2.0859806537628174 -0.0643472969532013 4590430 0 -1
-1.8017244338989258 2.1423418521881104 0 4664956 0 -1
-1.8441566228866577 2.1485648155212402 -0.04339701682329178 4456788 0 -1
-1.8651950359344482 2.129000425338745 -0.08679403364658356 4456788 0 -1
-1.8658525943756104 2.129750967025757 -0.04339701682329178 4456788 0 -1
-1.8877148628234863 2.110732078552246 -0.02169850841164589 4523353 0 -1
-1.8872714042663574 2.110236406326294 -0.06509552150964737 4590430 0 -1
-1.9384609460830688 2.600346326828003 0.2743489444255829 4456788 0 -1
-1.9627597332000732 2.632941961288452 0.15114133059978485 4456788 0 -1
-1.9781206846237183 2.4989829063415527 0.8060871362686157 4456788 0 -1
-1.9640953540802002 2.58266282081604 0.5289946794509888 4456788 0 -1
-2.030186653137207 2.5136845111846924 0.763188898563385 4456788 0 -1
-2.047417640686035 2.5350191593170166 0.6359907388687134 4456788 0 -1
-2.087167263031006 2.481748104095459 0.7123096585273743 4456788 0 -1
-2.0126256942749023 2.5425732135772705 0.7123096585273743 4456788 0 -1
-2.1004843711853027 2.49758243560791 -0.610551118850708 4456788 0 -1
-2.0283572673797607 2.5624473094940186 -0.5851114988327026 4456788 0 -1
-1.9413613080978394 2.6042370796203613 -0.6868700385093689 4456788 0 -1
-1.8596752882003784 2.5448834896087646 1.0430248975753784 4456788 0 -1
-1.8014330863952637 2.565333843231201 1.0939041376113892 4728182 0 -1
-2.373095750808716 2.087022542953491 1.017585277557373 4341894 0 -1
-1.9130057096481323 2.5154831409454346 1.017585277557373 4212104 0 -1
-1.3412108421325684 2.823286771774292 -1.1193437576293945 4212104 0 -1
-1.9130057096481323 2.5154831409454346 1.017585277557373 4017546 0 -1
-1.3595211505889893 2.861830711364746 -0.9921455979347229 3302798 0 -1
-1.89646315574646 2.7549755573272705 -0.23120135068893433 4456788 0 -1
-2.0629000663757324 2.5031380653381348 -0.8477382659912109 4456788 0 -1
-1.906150221824646 2.714456558227539 -0.48809173703193665 4456788 0 -1
-1.8883907794952393 2.743248701095581 -0.3853355646133423 4456788 0 -1
-2.071164608001709 2.5131661891937256 0.796360194683075 4456788 0 -1
-2.046210765838623 2.533524990081787 0.796360194683075 4456788 0 -1
-1.7963312864303589 2.8265445232391357 -0.15413422882556915 4456788 0 -1
-2.057448148727417 2.547438383102417 -0.7192930579185486 4456788 0 -1
-1.7717108726501465 2.844362497329712 -0.10275615751743317 4456788 0 -1
-1.944320797920227 2.660717010498047 -0.6165369153022766 4456788 0 -1
-1.8230648040771484 2.8117241859436035 -0.10275615751743317 4456788 0 -1
-1.8942242860794067 2.751723051071167 -0.2825794219970703 4456788 0 -1
-1.9139095544815063 2.725506067276001 -0.3853355646133423 4456788 0 -1
-1.8452074527740479 2.789564847946167 -0.23120135068893433 4456788 0 -1
-1.895400047302246 2.7534310817718506 -0.2568903863430023 4523353 0 -1
-1.8974138498306274 2.756356716156006 -0.20551231503486633 4590430 0 -1
-1.7929459810256958 2.8212175369262695 -0.2568903863430023 4725613 0 -1
-2.5186188220977783 2.0102763175964355 0.9248054027557373 4212104 0 -1
-1.9461650848388672 2.5590856075286865 0.9504944086074829 4212104 0 -1
3.1558942794799805 0.8516157269477844 0.744982123374939 2782862 0 -1
-1.9224040508270264 2.737602710723877 -0.5187689065933228 4456788 0 -1
-1.9049654006958008 2.767326593399048 -0.41501516103744507 4456788 0 -1
-1.8989944458007812 2.758652687072754 -0.4928304851055145 4456788 0 -1
-2.036876678466797 2.5732100009918213 0.8300303220748901 4456788 0 -1
-2.062023401260376 2.55310320854187 0.8300303220748901 4456788 0 -1
-1.859656572341919 2.8114089965820312 -0.3112613558769226 4456788 0 -1
-2.052088737487793 2.5924274921417236 -0.7262765169143677 4456788 0 -1
-1.838166356086731 2.835015296936035 -0.20750758051872253 4456788 0 -1
-1.865593433380127 2.8203842639923096 -0.1556306779384613 4456788 0 -1
-1.9126148223876953 2.7784388065338135 -0.285322904586792 4456788 0 -1
-1.911313772201538 2.7765488624572754 -0.3112613558769226 4456788 0 -1
-1.8899457454681396 2.800762891769409 -0.20750758051872253 4456788 0 -1
-1.8879398107528687 2.797790288925171 -0.2593844532966614 4523353 0 -1
-1.9158353805541992 2.7831172943115234 -0.20750758051872253 4590430 0 -1
-1.9451550245285034 2.7700014114379883 0.051876895129680634 4725613 0 -1
-1.81035315990448 2.8486080169677734 -0.2593844532966614 4725613 0 -1
-1.8664480447769165 2.605527639389038 1.0894147157669067 4212104 0 -1
-2.74519681930542 1.8623390197753906 0.6743996143341064 2782862 0 -1
-2.4625189304351807 2.06500506401062 1.063476324081421 2782862 0 -1
-1.8803249597549438 2.5731418132781982 1.141291618347168 2782862 0 -1
-1.8582795858383179 2.8093273639678955 -0.3371998071670532 2458766 0 -1
-1.9022053480148315 2.8189306259155273 -0.34044212102890015 4456788 0 -1
-1.8713017702102661 2.8290140628814697 -0.41900569200515747 4456788 0 -1
-2.043510675430298 2.5815906524658203 0.9165748953819275 4456788 0 -1
-1.9296917915344238 2.80324649810791 -0.3142542541027069 4456788 0 -1
-2.1113815307617188 2.5619654655456543 -0.8118234872817993 4456788 0 -1
-1.876147747039795 2.8363401889801025 -0.34044212102890015 4456788 0 -1
-2.0530316829681396 2.646150588989258 -0.6808842420578003 4456788 0 -1
-1.9022053480148315 2.8189306259155273 -0.34044212102890015 4456788 0 -1
-1.8746451139450073 2.834068536758423 -0.366629958152771 4456788 0 -1
-1.854911208152771 2.8608407974243164 -0.23569069802761078 4456788 0 -1
-1.8819797039031982 2.8451569080352783 -0.20950284600257874 4456788 0 -1
-1.9310053586959839 2.80515456199646 -0.28806641697883606 4456788 0 -1
-1.881036639213562 2.843731164932251 -0.23569069802761078 4456788 0 -1
-1.9060930013656616 2.8246920108795166 -0.2618785500526428 4456788 0 -1
-1.9071621894836426 2.8262765407562256 -0.23569069802761078 4456788 0 -1
-1.9060930013656616 2.8246920108795166 -0.2618785500526428 4523353 0 -1
-1.934256911277771 2.80987811088562 -0.20950284600257874 4590430 0 -1
-1.9571000337600708 2.7870116233825684 -0.28806641697883606 4726897 0 -1
-1.889509677886963 2.637721300125122 1.073702096939087 4212104 0 -1
-1.9620122909545898 2.7940070629119873 -0.15712712705135345 3302798 0 -1
-1.87881600856781 2.840373992919922 -0.28806641697883606 2458766 0 -1
-2.135531187057495 2.591269016265869 -0.793117880821228 4456788 0 -1
-2.0789105892181396 2.6795058250427246 -0.6344943046569824 4456788 0 -1
-1.9544191360473633 2.783194065093994 -0.5816197991371155 4456788 0 -1
-2.807675838470459 1.7925398349761963 -0.8988669514656067 4456788 0 -1
-1.8967094421386719 2.8674252033233643 -0.29080989956855774 4456788 0 -1
-1.9554260969161987 2.7297394275665283 -0.793117880821228 4456788 0 -1
-1.95169997215271 2.8352174758911133 -0.2379353642463684 4456788 0 -1
-1.9992388486862183 2.7909011840820312 -0.3436844050884247 4456788 0 -1
-1.9014701843261719 2.874622344970703 -0.1586235761642456 4456788 0 -1
-1.9493958950042725 2.8318703174591064 -0.29080989956855774 4456788 0 -1
-2.952268362045288 1.7659058570861816 0.2643726170063019 4456788 0 -1
-1.9262908697128296 2.854623794555664 -0.21149811148643494 4456788 0 -1
-1.9493958950042725 2.8318703174591064 -0.29080989956855774 4523353 0 -1
-1.9542888402938843 2.8389782905578613 -0.1586235761642456 4590430 0 -1
-2.8957793712615967 1.848788857460022 0.3172471523284912 4657508 0 -1
-2.0356693267822266 2.7857234477996826 0 4657508 0 -1
-1.9029799699783325 2.8769047260284424 -0.0793117880821228 4657508 0 -1
-2.9554052352905273 1.7677820920944214 0.21149811148643494 4725613 0 -1
-1.9825618267059326 2.823270559310913 0.052874527871608734 4725613 0 -1
-2.000720262527466 2.792969226837158 -0.3172471523284912 4726897 0 -1
-1.9930213689804077 2.838165521621704 -0.3202400505542755 4456788 0 -1
-1.6763170957565308 2.9790470600128174 0.6671667695045471 4456788 0 -1
-2.782633066177368 1.8877357244491577 -0.9073468446731567 4456788 0 -1
-2.966359853744507 1.7743346691131592 0.4269867241382599 4456788 0 -1
-2.966359853744507 1.7743346691131592 0.4269867241382599 4456788 0 -1
-2.907362461090088 1.7977772951126099 -0.6671667695045471 4523353 0 -1
-1.9960609674453735 2.7315213680267334 -0.8272867798805237 4657508 0 -1
-1.8543667793273926 2.748037576675415 -1.0674668550491333 4657508 0 -1
-2.50142765045166 2.148592233657837 1.1208401918411255 4728182 0 -1
3.15738844871521 1.4216831922531128 0.3736133873462677 4728182 0 -1
-2.954586982727051 1.8269788026809692 -0.5387215614318848 4456788 0 -1
-2.9205660820007324 1.8646137714385986 -0.5925937294960022 4523353 0 -1
-2.2974321842193604 2.6766610145568848 0.3805968165397644 4523353 0 -1
-2.246915102005005 2.671696186065674 0.7956119775772095 4456788 0 -1
-2.49560809135437 2.9075491428375244 -0.2648714482784271 4456788 0 -1
-1.9512171745300293 3.1963090896606445 0.8534746766090393 4456788 0 -1
-2.9506802558898926 2.355133056640625 0.7063238620758057 4590430 0 -1
-3.3049299716949463 1.9768511056900024 0.4155139625072479 4456788 0 -1
-3.126007556915283 2.1829445362091064 0.6826300621032715 4456788 0 -1
-3.004859447479248 2.33807373046875 0.7123096585273743 4456788 0 -1
-2.8918137550354004 2.5432097911834717 0.4155139625072479 4456788 0 -1
-2.986969470977783 2.444295644760132 0.32647526264190674 4456788 0 -1
-2.953195571899414 2.476473808288574 0.38583439588546753 4456788 0 -1
-3.056187868118286 2.378012180328369 0.08903870731592178 4726897 0 -1
-2.9504168033599854 2.534249782562256 0.35914772748947144 4456788 0 -1
-3.0077922344207764 2.4613354206085205 0.38907670974731445 4456788 0 -1
-3.0053834915161133 2.459364175796509 0.41900569200515747 4456788 0 -1
-2.9802188873291016 2.4991350173950195 0.35914772748947144 4523353 0 -1
-3.0462710857391357 2.370296001434326 0.5985795259475708 4590430 0 -1
-3.0462710857391357 2.370296001434326 0.5985795259475708 4590430 0 -1
-3.0708670616149902 2.4510622024536133 0.2716054618358612 4456788 0 -1
-2.975003480911255 2.555368423461914 0.36214062571525574 4456788 0 -1
-3.030428409576416 2.479858875274658 0.42249739170074463 4456788 0 -1
-3.030428409576416 2.479858875274658 0.42249739170074463 4456788 0 -1
-3.0004241466522217 2.516078472137451 0.42249739170074463 4523353 0 -1
-2.806544065475464 2.7030045986175537 0.5733892917633057 2070922 0 -1
-2.826673746109009 2.7223916053771973 0.3319622278213501 2006409 0 -1
-3.0817246437072754 2.2133736610412598 1.0562435388565063 11918891 0 -1
-2.285832166671753 2.94620680809021 1.2674921751022339 11918891 0 -1
-3.0438361167907715 2.490830659866333 0.5477002859115601 4456788 0 -1
-2.845396041870117 2.6801300048828125 0.6998392343521118 4456788 0 -1
-2.811432361602783 2.7077126502990723 0.7302670478820801 4523353 0 -1
-2.996459484100342 2.3916726112365723 -1.0345449447631836 4726897 0 -1
-2.8084378242492676 2.764925003051758 0.4868446886539459 2328718 0 -1
-2.850034713745117 2.7448906898498535 0.33470574021339417 2006409 0 -1
-2.619715452194214 2.8690237998962402 0.8215504288673401 2006409 0 -1
-2.876432180404663 2.648970365524292 0.8589616417884827 4456788 0 -1
-2.839714288711548 2.5560410022735596 1.196410894393921 4523353 0 -1
-2.8616743087768555 2.5167036056518555 1.2270880937576294 4590430 0 -1
-2.377753734588623 3.1896352767944336 -0.680385410785675 4456788 0 -1
-2.244614839553833 3.3263566493988037 -0.4329725205898285 4456788 0 -1
-3.0157337188720703 2.652191400527954 -0.40204593539237976 4456788 0 -1
-2.30795955657959 3.286653518676758 -0.40204593539237976 4456788 0 -1
-2.163273334503174 3.403931140899658 -0.1546330451965332 4456788 0 -1
-3.284183979034424 2.2934019565582275 0.4948257505893707 4456788 0 -1
-2.9825704097747803 2.684626340866089 0.4329725205898285 4456788 0 -1
-2.8758368492126465 2.831279993057251 0.06185321882367134 4456788 0 -1
-2.286888837814331 3.3221435546875 0.1546330451965332 4523353 0 -1
-1.6297341585159302 3.929257392883301 0.29405221343040466 3107982 4 -1
-1.501829981803894 3.987403154373169 0.16336233913898468 3107982 4 -1
-1.674079418182373 3.9432573318481445 0.3292187452316284 3107982 4 -1
-1.3987598419189453 3.8078389167785645 -1.4156405925750732 2666112 0 -1
-1.4905589818954468 4.057743549346924 0.23219898343086243 2134668 4 -1
-1.5899295806884766 4.019847393035889 0.23219898343086243 2070155 4 -1
-1.5884310007095337 4.016058444976807 0.2985415458679199 4505456 4 -1
-1.5247586965560913 4.048279285430908 0.16585642099380493 8705099 4 -1
-1.5247586965560913 4.048279285430908 0.16585642099380493 9360965 4 -1
-1.4905589818954468 4.057743549346924 0.23219898343086243 11197490 4 -1
-1.4171322584152222 3.857854127883911 -1.3600225448608398 11918891 0 -1
-1.6003741025924683 4.0462541580200195 0.30078622698783875 2458766 4 -1
-1.601176381111145 4.048282623291016 0.2673655152320862 2139270 4 -1
-1.6317864656448364 4.028146743774414 0.3676275908946991 2271109 4 -1
-1.599476933479309 4.043985843658447 0.3342069089412689 4505456 4 -1
-1.5670329332351685 4.0592827796936035 0.30078622698783875 8180304 4 -1
-1.567818522453308 4.0613179206848145 0.2673655152320862 8705099 4 -1
-1.7086344957351685 4.024651050567627 0.43771129846572876 3107982 4 -1
-1.6403144598007202 4.049198627471924 0.47138139605522156 2264205 4 -1
-1.6439640522003174 4.0582075119018555 0.37037110328674316 2072968 4 -1
-1.6123172044754028 4.076450347900391 0.3030308783054352 2468738 4 -1
-1.6114132404327393 4.074164867401123 0.33670100569725037 4505456 4 -1
-1.6123172044754028 4.076450347900391 0.3030308783054352 5949540 4 -1
-1.8178359270095825 3.9996116161346436 0.5427120923995972 4456788 4 -1
-1.8655180931091309 4.014305591583252 -0.03391950577497482 4456788 4 -1
-1.8646963834762573 4.012537002563477 0.1356780230998993 4456788 4 -1
-1.8303086757659912 4.0270538330078125 -0.1695975363254547 4456788 4 -1
-1.7604973316192627 4.052526473999023 0.2713560461997986 4456788 4 -1
-1.8225435018539429 4.009969234466553 -0.4409535825252533 4726897 4 -1
-1.745021939277649 4.016903400421143 0.6444706320762634 3692940 4 -1
-1.7199125289916992 4.051216125488281 0.4748730957508087 2264205 4 -1
-1.6510411500930786 4.075677871704102 0.5087926387786865 2199437 4 -1
-1.6550148725509644 4.085487365722656 0.40703409910202026 2072968 4 -1
-1.590421438217163 4.119869232177734 0.305275559425354 11918891 4 -1
-1.8570915460586548 3.9961726665496826 0.683378279209137 4456788 4 -1
-1.8274873495101929 4.020846366882324 0.6150404810905457 4456788 4 -1
-1.8312023878097534 4.029020309448242 0.5467026233673096 4456788 4 -1
-1.8790696859359741 4.043466091156006 -0.0683378279209137 4456788 4 -1
-1.878793716430664 4.042872428894043 0.10250674933195114 4456788 4 -1
-1.8446338176727295 4.058572292327881 -0.10250674933195114 4456788 4 -1
-1.8449047803878784 4.059168338775635 0.0683378279209137 4456788 4 -1
-1.8107398748397827 4.074523448944092 -0.0683378279209137 4725613 4 -1
-1.8451213836669922 4.059645175933838 0 4726897 4 -1
-1.8451213836669922 4.059645175933838 0 4726897 4 -1
-1.7759488821029663 4.088094711303711 -0.1366756558418274 4728182 4 -1
-1.8790696859359741 4.043466091156006 0.0683378279209137 4729209 4 -1
-1.7076431512832642 4.11709451675415 -0.1366756558418274 4729209 4 -1
-1.809037685394287 4.070693492889404 -0.20501349866390228 4341894 4 -1
-1.772553563117981 4.0802788734436035 0.3075202405452728 3692940 4 -1
-1.7633800506591797 4.059162139892578 0.5467026233673096 2912910 4 -1
-1.765008568763733 4.062911033630371 0.5125337243080139 2782862 4 -1
-1.697123646736145 4.091732025146484 0.5125337243080139 2199437 4 -1
-1.8239569664001465 4.104264736175537 0.06883664429187775 4456788 4 -1
-1.8583712577819824 4.088797569274902 -0.06883664429187775 4456788 4 -1
-1.8241711854934692 4.1047468185424805 0 4456788 4 -1
-1.7889119386672974 4.117934703826904 0.1376732885837555 4456788 4 -1
-1.8577163219451904 4.0873565673828125 0.1376732885837555 4456788 4 -1
-1.7895426750183105 4.119386196136475 -0.06883664429187775 4523353 4 -1
-1.8583712577819824 4.088797569274902 -0.06883664429187775 4590430 4 -1
-1.7897002696990967 4.119749069213867 0.03441832214593887 4725613 4 -1
-1.8929522037506104 4.073339462280273 0.03441832214593887 4729209 4 -1
-1.8241711854934692 4.1047468185424805 0 4341894 4 -1
-1.7892799377441406 4.118781566619873 0.10325497388839722 3757452 4 -1
-1.7551283836364746 4.134166240692139 0.06883664429187775 3562893 4 -1
-1.779425024986267 4.096096515655518 0.4818565249443054 2782862 4 -1
-1.6945383548736572 3.9006941318511963 -1.445569634437561 2458766 0 -1
-1.7478983402252197 4.117136478424072 0.41301989555358887 2199437 4 -1
-1.938598394393921 4.080804347991943 0.24267412722110748 4456788 4 -1
-1.938598394393921 4.080804347991943 0.24267412722110748 4456788 4 -1
-1.9723445177078247 4.06238317489624 0.2773418426513672 4456788 4 -1
-1.8373358249664307 4.134369850158691 -0.0346677303314209 4456788 4 -1
-1.9408799409866333 4.085607528686523 0.10400319844484329 4456788 4 -1
-1.8001270294189453 4.1437506675720215 -0.24267412722110748 4456788 4 -1
-1.8373358249664307 4.134369850158691 -0.0346677303314209 4456788 4 -1
-1.867600679397583 4.109104156494141 0.3120095729827881 4456788 4 -1
-1.8720026016235352 4.118789196014404 -0.0346677303314209 4590430 4 -1
-1.801398515701294 4.146677494049072 0.1733386516571045 4725613 4 -1
-1.9062213897705078 4.101892471313477 0.10400319844484329 4729209 4 -1
-1.8369042873382568 4.133398532867432 0.10400319844484329 4341894 4 -1
-1.8022457361221313 4.148627758026123 0.10400319844484329 3757452 4 -1
-1.7672237157821655 4.162656784057617 0.1386709213256836 3562893 4 -1
-1.829606056213379 4.116976261138916 0.41601279377937317 3302798 4 -1
-2.0179874897003174 4.067654609680176 0.38408854603767395 4456788 4 -1
-1.916831135749817 4.124722957611084 0.2793371081352234 4456788 4 -1
-2.021385669708252 4.0745038986206055 0.2793371081352234 4456788 4 -1
-1.916831135749817 4.124722957611084 0.2793371081352234 4456788 4 -1
-1.9195404052734375 4.130553245544434 0.1396685540676117 4456788 4 -1
-1.953924298286438 4.113065719604492 0.17458570003509521 4456788 4 -1
-1.850391149520874 4.1637468338012695 0.06983427703380585 4456788 4 -1
-1.9532922506332397 4.1117353439331055 0.20950284600257874 4456788 4 -1
-1.850608468055725 4.164235591888428 0 4590430 4 -1
-1.85055410861969 4.164113521575928 -0.034917138516902924 4017546 4 -1
-1.8143582344055176 4.176509857177734 0.17458570003509521 3757452 4 -1
-1.7765346765518188 4.184588432312012 0.3142542541027069 3562893 4 -1
-1.8462026119232178 4.154322147369385 0.3142542541027069 3302798 4 -1
-1.8154780864715576 4.1790876388549805 -0.06983427703380585 3107982 4 -1
-1.8462026119232178 4.154322147369385 0.3142542541027069 2139270 4 -1
-1.5890754461288452 4.2190423011779785 0.6634256839752197 2139270 4 -1
-2.003021478652954 4.12556791305542 0.17583273351192474 4456788 4 -1
-1.9341601133346558 4.162012100219727 0 4456788 4 -1
-2.002373695373535 4.124233245849609 0.2109992951154709 4456788 4 -1
-1.9692689180374146 4.145366668701172 0.03516654670238495 4456788 4 -1
-1.8934106826782227 4.165891170501709 0.3516654670238495 4456788 4 -1
-1.7831445932388306 4.20015811920166 0.49233168363571167 3562893 4 -1
-1.8603219985961914 4.186093330383301 0.2813323736190796 3302798 4 -1
-1.7190585136413574 4.243582248687744 0.31649893522262573 3302798 4 -1
-1.7858961820602417 4.206639289855957 0.4219985902309418 2782862 4 -1
-1.752070426940918 4.224207878112793 0.38683202862739563 2718350 4 -1
-1.7508785724639893 4.221334457397461 0.4219985902309418 4505456 4 -1
-2.741702079772949 3.6778533458709717 0.1406661868095398 4899181 0 -1
-1.6601442098617554 4.002575397491455 -1.5121616125106812 4899181 0 -1
-1.9338607788085938 3.8980801105499268 -1.5583020448684692 4456788 0 -1
-2.0531604290008545 4.138552188873291 0.1416638195514679 4456788 4 -1
-1.981196403503418 4.170474529266357 0.21249572932720184 4456788 4 -1
-1.978571891784668 4.164949893951416 0.31874361634254456 4456788 4 -1
-1.9804385900497437 4.168879508972168 0.24791169166564941 4456788 4 -1
-2.015803575515747 4.151894569396973 0.24791169166564941 4456788 4 -1
-2.017760992050171 4.15592622756958 0.1416638195514679 4456788 4 -1
-1.98276948928833 4.17378568649292 -0.10624786466360092 4726897 4 -1
-1.8756675720214844 4.220623970031738 0.17707978188991547 4471684 4 -1
-2.689636468887329 3.75468373298645 -0.17707978188991547 3757452 0 -1
-1.7590625286102295 4.241065502166748 0.5312393307685852 3692940 4 -1
-1.7454560995101929 4.208261013031006 -0.7791510224342346 2588302 4 -1
-2.0992469787597656 4.141887187957764 0.320988267660141 4456788 4 -1
-2.026948928833008 4.1748504638671875 0.35665363073349 4456788 4 -1
-1.9943853616714478 4.198237419128418 0.2496575564146042 4456788 4 -1
-2.0291028022766113 4.179286479949951 0.285322904586792 4456788 4 -1
-2.9406073093414307 3.5681543350219727 0.5349804759025574 4456788 0 -1
-2.8056278228759766 3.689225196838379 0.427984356880188 4456788 0 -1
-2.812265157699585 3.69795298576355 -0.285322904586792 4729209 0 -1
-1.7807011604309082 4.293235778808594 -0.2496575564146042 4471684 4 -1
-1.776922583580017 4.284125804901123 0.392318993806839 4341894 4 -1
-1.8387972116470337 4.232766628265381 0.6063112020492554 4017546 4 -1
-2.7104880809783936 3.78379225730896 -0.035665363073349 3757452 0 -1
-1.7269595861434937 4.263086318969727 0.71330726146698 3692940 4 -1
-1.7662252187728882 4.258334636688232 -0.641976535320282 2588302 4 -1
-4.017824172973633 2.239058017730713 -0.71330726146698 2523534 0 -1
-0.6650925278663635 4.519705772399902 0.8916341066360474 2523534 0 -1
-2.8677785396575928 3.696276903152466 0.2873181700706482 4456788 0 -1
-2.1189093589782715 4.180682182312012 0.035914771258831024 4456788 4 -1
-1.9393976926803589 4.2670722007751465 0 4456788 4 -1
-1.9373470544815063 4.2625603675842285 0.21548862755298615 4456788 4 -1
-1.7785764932632446 4.288113594055176 0.6464658975601196 4341894 4 -1
-1.7585318088531494 4.341023921966553 0.17957386374473572 2782862 4 -1
-2.6926639080047607 3.6120710372924805 1.2929317951202393 5424489 0 -1
-1.7342098951339722 4.084893226623535 -1.508420467376709 5424489 0 -1
-0.7730307579040527 4.520096778869629 -0.9696988463401794 5424489 0 -1
-2.643656015396118 3.6177265644073486 1.4827314615249634 4456788 0 -1
-2.0965371131896973 4.225986480712891 0.1446567177772522 4456788 4 -1
-2.0583908557891846 4.23961067199707 0.25314927101135254 4456788 4 -1
-2.021385669708252 4.2550740242004395 0.2893134355545044 4456788 4 -1
-1.777370572090149 4.285205841064453 0.8679403066635132 3107982 4 -1
-1.815505027770996 4.2763824462890625 0.8317761421203613 2912910 4 -1
-1.782331943511963 4.297167778015137 0.7956119775772095 2782862 4 -1
-1.8225868940353394 4.293063640594482 0.723283588886261 2718350 4 -1
-1.8102169036865234 4.263926029205322 0.9041045308113098 2588302 4 -1
-2.109755039215088 4.25262975692749 0.21848152577877045 4456788 4 -1
-2.0353262424468994 4.284419059753418 0.2913087010383606 4456788 4 -1
-2.105778932571411 4.24461555480957 0.36413589119911194 4456788 4 -1
-2.0706331729888916 4.264825820922852 0.32772231101989746 4456788 4 -1
-2.034306287765503 4.2822723388671875 0.32772231101989746 4456788 4 -1
-2.066781759262085 4.256893157958984 0.4369630515575409 4590430 4 -1
-1.8169151544570923 4.279703617095947 0.9831668734550476 3107982 4 -1
-1.82542085647583 4.299738883972168 0.8739261031150818 2977934 4 -1
-1.82542085647583 4.299738883972168 0.8739261031150818 2912910 4 -1
-1.8280258178710938 4.305874824523926 0.8375125527381897 2782862 4 -1
-1.7921820878982544 4.320916175842285 0.8375125527381897 2718350 4 -1
-1.82542085647583 4.299738883972168 0.8739261031150818 2588302 4 -1
-1.789628267288208 4.314758777618408 0.8739261031150818 2523534 4 -1
-2.1233928203582764 4.280119895935059 0.2566409707069397 4456788 4 -1
-2.1233928203582764 4.280119895935059 0.2566409707069397 4456788 4 -1
-2.1233928203582764 4.280119895935059 0.2566409707069397 4456788 4 -1
-2.049266815185547 4.313764572143555 0.2933039665222168 4456788 4 -1
-2.0823543071746826 4.288967609405518 0.4032929539680481 4456788 4 -1
-2.118886947631836 4.2710371017456055 0.4032929539680481 4456788 4 -1
-2.0823543071746826 4.288967609405518 0.4032929539680481 4456788 4 -1
-2.0470917224884033 4.309185981750488 0.366629958152771 4456788 4 -1
-2.0105364322662354 4.326362609863281 0.366629958152771 4456788 4 -1
-2.118886947631836 4.2710371017456055 0.4032929539680481 4456788 4 -1
-1.973981261253357 4.343163013458252 0.366629958152771 4456788 4 -1
-2.0823543071746826 4.288967609405518 0.4032929539680481 4590430 4 -1
-1.8323308229446411 4.316015243530273 0.9532378911972046 2912910 4 -1
-1.8766356706619263 4.3198676109313965 0.8432489037513733 2782862 4 -1
-1.801885962486267 4.3443121910095215 0.8799118995666504 2718350 4 -1
-1.801885962486267 4.3443121910095215 0.8799118995666504 2523534 4 -1
-1.8739614486694336 4.313711643218994 0.8799118995666504 2458766 4 -1
-2.1358225345611572 4.305174350738525 0.3322116434574127 4456788 4 -1
-2.0610175132751465 4.338500022888184 0.36912405490875244 4456788 4 -1
-2.058337926864624 4.332859516143799 0.4429488480091095 4456788 4 -1
-2.059739112854004 4.335808753967285 0.40603646636009216 4456788 4 -1
-2.131850004196167 4.29716682434082 0.4429488480091095 4456788 4 -1
-2.0950939655303955 4.315206527709961 0.4429488480091095 4456788 4 -1
-2.1700820922851562 4.281647682189941 0.40603646636009216 4456788 4 -1
-1.9874097108840942 4.372708320617676 0.36912405490875244 4456788 4 -1
-2.0533957481384277 4.322456359863281 0.5536860823631287 4456788 4 -1
-2.0215818881988525 4.350130081176758 0.4429488480091095 4724328 4 -1
-3.0528273582458496 3.7043230533599854 0.40603646636009216 2718350 0 -1
-1.627760887145996 4.431247711181641 0.9597225189208984 2718350 4 -1
-1.9827854633331299 4.461660385131836 -0.5649094581604004 2912910 4 -1
-1.9564509391784668 4.503596305847168 -0.6065605878829956 2912910 4 -1
-4.402042388916016 2.361846923828125 -1.221601128578186 2271109 0 -1
-4.651517391204834 2.094447374343872 -0.8724296689033508 4341894 0 -1
-4.341328144073486 2.4193406105041504 -1.5563068389892578 4728182 0 -1
-4.4507832527160645 2.4803378582000732 -1.0774431228637695 4341894 0 -1
-4.7987751960754395 1.823033332824707 -0.8779166340827942 3432845 0 -1
-4.444766998291016 2.5682170391082764 -0.8779166340827942 3432845 0 -1
-4.470878601074219 2.5833044052124023 -0.6783901453018188 3302798 0 -1
-4.541491985321045 2.341226577758789 -1.1644866466522217 4600703 0 -1
-4.485874652862549 2.4998936653137207 -1.0440224409103394 4341894 0 -1
-4.471375942230225 2.67456316947937 -0.5621659755706787 3302798 0 -1
-4.71002721786499 2.1207926273345947 -0.8834036588668823 3238030 0 -1
-4.7293291091918945 2.0219335556030273 -1.003867745399475 3107982 0 -1
-4.577736854553223 2.3599114418029785 -1.1313153505325317 4600703 0 -1
-4.686374664306641 2.2141153812408447 -0.9696988463401794 4341894 0 -1
-1.8974391222000122 4.797328948974609 1.0909112691879272 4341894 0 -1
-4.791222095489502 2.0483946800231934 -0.8080824017524719 3238030 0 -1
-4.696126461029053 2.1145336627960205 -1.1313153505325317 3107982 0 -1
-4.468897819519043 2.7633581161499023 -0.44444531202316284 3107982 0 -1
-4.593308925628662 2.654045581817627 0.081307053565979 4456788 0 -1
-3.5150699615478516 4.012226581573486 -0.20451468229293823 4456788 0 -1
-3.513932943344116 4.010928630828857 -0.24541760981082916 4456788 0 -1
-4.825977325439453 2.173001766204834 -0.6953498721122742 4456788 0 -1
-3.390056610107422 4.113519191741943 0.2863205373287201 4456788 0 -1
-3.4763412475585938 4.050168514251709 0.08180586993694305 4456788 0 -1
-4.62148904800415 2.670328140258789 0.08180586993694305 4456788 0 -1
-3.513932943344116 4.010928630828857 -0.24541760981082916 4523353 0 -1
-3.468472480773926 4.041000843048096 -0.36812642216682434 4590430 0 -1
-1.8391399383544922 4.764156341552734 1.5543115139007568 4341894 0 -1
-3.4963057041168213 4.073428630828857 -0.1646093726158142 4456788 0 -1
-4.650078296661377 2.68684720993042 0.04115234315395355 4456788 0 -1
-3.491370916366577 4.067678928375244 -0.3292187452316284 4523353 0 -1
-3.7036020755767822 3.8891782760620117 -0.04115234315395355 4590430 0 -1
-3.489621639251709 4.065640926361084 -0.37037110328674316 4590430 0 -1
-3.7244069576263428 3.9110255241394043 -0.1656070053577423 4456788 0 -1
-4.678398132324219 2.7032105922698975 0 4456788 0 -1
-3.8079545497894287 3.8312933444976807 0.12420525401830673 4456788 0 -1
-3.765789270401001 3.8711960315704346 0.1656070053577423 4523353 0 -1
-3.786247730255127 3.8922271728515625 -0.24990695714950562 4456788 0 -1
-4.706581115722656 2.7194948196411133 0 4456788 0 -1
-3.8247005939483643 3.848141670227051 0.3332092761993408 4456788 0 -1
-3.7884747982025146 3.8945164680480957 -0.1666046380996704 4523353 0 -1
-4.63441276550293 2.8657047748565674 -0.4609062373638153 4456788 0 -1
-4.063281059265137 3.657379627227783 -0.12570171058177948 4523353 0 -1
-3.793987512588501 3.90018367767334 -0.5447073578834534 4523353 0 -1
-4.673700332641602 2.889998197555542 -0.2528998553752899 4456788 0 -1
-4.084224700927734 3.6762309074401855 -0.2528998553752899 4523353 0 -1
-4.272654056549072 3.3245418071746826 -1.1447833776474 4523353 0 -1
-4.0698628425598145 3.7480270862579346 -0.08479876816272736 4523353 0 -1
-3.351135015487671 4.772189617156982 -1.0440224409103394 4456788 0 -1
-3.6004421710968018 4.64060640335083 0.7716687917709351 4456788 0 -1
-3.4472806453704834 4.812341213226318 0.2269614040851593 4456788 0 -1
-3.5469768047332764 4.303927421569824 1.9972604513168335 4657508 0 -1
-3.5712332725524902 4.695949077606201 -0.8215504288673401 4456788 0 -1
-3.6391117572784424 4.597332000732422 -1.0497589111328125 4456788 0 -1
-3.6787893772125244 4.5549092292785645 1.0954005718231201 4456788 0 -1
-3.594184398651123 4.632540702819824 1.0497589111328125 4523353 0 -1
-3.5723390579223633 4.604384422302246 1.2323256731033325 4590430 0 -1
-3.7408602237701416 4.631762504577637 0.18256676197052002 4657508 0 -1
-3.5841197967529297 4.527859687805176 1.4605340957641602 4729209 0 -1
-4.037942409515381 4.422217845916748 -0.09178219735622406 4456788 0 -1
-3.6732704639434814 4.6404852867126465 -0.9178219437599182 4456788 0 -1
-3.671180009841919 4.731780529022217 -0.04589109867811203 4456788 0 -1
-3.6362009048461914 4.686695575714111 -0.8260397911071777 4456788 0 -1
-3.5409739017486572 4.656159400939941 -1.2849507331848145 4456788 0 -1
-3.6986911296844482 4.6725993156433105 -0.5965842604637146 4456788 0 -1
-3.6469576358795166 4.700560092926025 -0.6883664727210999 4523353 0 -1
-3.6044764518737793 4.73966121673584 -0.6424753665924072 4590430 0 -1
-3.714449882507324 4.692507743835449 0.22945548593997955 4657508 0 -1
-3.671180009841919 4.731780529022217 -0.04589109867811203 4725613 0 -1
-3.6469576358795166 4.700560092926025 -0.6883664727210999 4726897 0 -1
-4.059887886047363 4.44625186920166 -0.09228101372718811 4456788 0 -1
-3.7700579166412354 4.667913913726807 0.5075455904006958 4456788 0 -1
-3.4154434204101562 4.863768100738525 -0.968950629234314 4456788 0 -1
-2.9526455402374268 5.247259140014648 -0.09228101372718811 4456788 0 -1
-3.8844316005706787 4.254098415374756 -1.7533392906188965 4456788 0 -1
-3.72005295753479 4.513939380645752 -1.4303556680679321 4456788 0 -1
-3.4605493545532227 4.550406455993652 -1.8917607069015503 4456788 0 -1
-3.5338263511657715 4.646760940551758 -1.4764962196350098 4456788 0 -1
-3.7320010662078857 4.714680194854736 -0.3229835331439972 4456788 0 -1
-3.526017665863037 4.825199127197266 -0.7382481098175049 4456788 0 -1
-3.6062636375427246 4.742011547088623 -0.8766696453094482 4456788 0 -1
-3.5375802516937256 4.7454833984375 -1.1073721647262573 4456788 0 -1
-3.6559627056121826 4.712166786193848 -0.8305290937423706 4456788 0 -1
-3.62406587600708 4.765420436859131 -0.6459670662879944 4523353 0 -1
-3.7834105491638184 4.684446334838867 -0.046140506863594055 4590430 0 -1
-3.581059694290161 4.803808689117432 -0.5998265743255615 4590430 0 -1
-3.7303526401519775 4.712597846984863 -0.36912405490875244 4657508 0 -1
-3.572031021118164 4.69699764251709 -1.199653148651123 4724328 0 -1
-3.6450998783111572 4.793078899383545 0 4725613 0 -1
-3.617602586746216 4.756921291351318 -0.7382481098175049 4726897 0 -1
-3.7292370796203613 4.711188316345215 -0.7422386407852173 4456788 0 -1
-3.54158878326416 4.846507549285889 -0.7886285185813904 4456788 0 -1
-3.6297781467437744 4.7729315757751465 -0.8350184559822083 4456788 0 -1
-3.571261405944824 4.790665149688721 -0.9741882085800171 4456788 0 -1
-3.675724744796753 4.737637996673584 -0.8350184559822083 4456788 0 -1
-3.749534845352173 4.642502784729004 -1.020578145980835 4523353 0 -1
-3.5911171436309814 4.817300319671631 -0.7422386407852173 4523353 0 -1
-3.77876353263855 4.67869234085083 -0.6958487033843994 4590430 0 -1
-3.594433546066284 4.821749210357666 -0.6958487033843994 4590430 0 -1
-3.686598539352417 4.75165319442749 -0.6958487033843994 4657508 0 -1
-3.5080983638763428 4.897241592407227 -0.6030688881874084 4657508 0 -1
-2.3439126014709473 5.651127815246582 1.8087078332901 4600703 0 -1
-5.908491611480713 2.244609832763672 -1.0809348821640015 4456788 0 -1
-5.6527910232543945 2.6707067489624023 -1.4248687028884888 4600703 0 -1
-2.3613550662994385 5.693181037902832 1.768802523612976 4600703 0 -1
-5.633337020874023 2.783892869949341 -1.4321016073226929 4600703 0 -1
-5.595011234283447 2.884336233139038 -1.3827186822891235 4147337 0 -1
