VERSION .7
FIELDS x y z rgb label object
SIZE 4 4 4 4 4 4
TYPE F F F I I I
COUNT 1 1 1 1 1 1
WIDTH 690
HEIGHT 1
POINTS 690
VIEWPOINT 0 0 0 1 0 0 0
DATA ascii
-2.8204801082611084 1.8007146120071411 0.20551231503486633 4590430 0 -1
-2.6095597743988037 1.8223001956939697 -1.0532505512237549 4728182 0 -1
-1.921013593673706 2.7356226444244385 -0.2568903863430023 4341894 0 -1
-1.919821858406067 2.7339255809783936 -0.2825794219970703 4212104 0 -1
-1.9307081699371338 2.7494282722473145 -0.41501516103744507 4456788 0 -1
-1.9224040508270264 2.737602710723877 -0.5187689065933228 4456788 0 -1
-1.9307081699371338 2.7494282722473145 -0.41501516103744507 4456788 0 -1
-1.9267911911010742 2.7438502311706543 -0.4668920338153839 4456788 0 -1
-2.719778299331665 1.8992677927017212 -0.6743996143341064 4456788 0 -1
-1.9341576099395752 2.754340410232544 -0.36313825845718384 4456788 0 -1
-1.9288082122802734 2.74672269821167 -0.4409535825252533 4456788 0 -1
-2.892799139022827 1.7303341627120972 0.3112613558769226 4456788 0 -1
-1.9166820049285889 2.7843472957611084 -0.18156912922859192 4456788 0 -1
-1.8899457454681396 2.800762891769409 -0.20750758051872253 4456788 0 -1
-1.838166356086731 2.835015296936035 -0.20750758051872253 4523353 0 -1
-2.8464365005493164 1.8172862529754639 0.23344601690769196 4590430 0 -1
-2.704615354537964 1.834808588027954 -0.8819071650505066 4728182 0 -1
-1.8967465162277222 2.7010650634765625 -0.7522149682044983 4728182 0 -1
-1.8396823406219482 2.837353467941284 -0.1556306779384613 4728182 0 -1
-1.9396641254425049 2.7621819972991943 -0.2593844532966614 4341894 0 -1
-1.9396641254425049 2.7621819972991943 -0.2593844532966614 4212104 0 -1
-2.76484751701355 1.8756701946258545 0.5447073578834534 3562893 0 -1
-1.8350763320922852 2.830249547958374 -0.285322904586792 3562893 0 -1
-1.9473545551300049 2.7731335163116455 -0.4451935291290283 4456788 0 -1
-1.9510728120803833 2.778428554534912 -0.39281782507896423 4456788 0 -1
-1.9510728120803833 2.778428554534912 -0.39281782507896423 4456788 0 -1
-1.9453181028366089 2.770233392715454 -0.47138139605522156 4456788 0 -1
-2.7499094009399414 1.8106751441955566 -0.9165748953819275 4456788 0 -1
-1.9022053480148315 2.8189306259155273 -0.34044212102890015 4456788 0 -1
-2.791877269744873 1.669967532157898 -1.0475142002105713 4456788 0 -1
-1.9282629489898682 2.801170825958252 -0.34044212102890015 4456788 0 -1
-2.8523805141448975 1.8781471252441406 0.1309392750263214 4456788 0 -1
-2.9244167804718018 1.74924635887146 0.2618785500526428 4456788 0 -1
-1.9358521699905396 2.8121955394744873 -0.15712712705135345 4456788 0 -1
-1.8799822330474854 2.842137098312378 -0.2618785500526428 4456788 0 -1
-1.9603954553604126 2.7917046546936035 -0.20950284600257874 4212104 0 -1
-3.145594596862793 2.1339685916900635 0.23344601690769196 4456788 0 -1
3.348902463912964 1.726423740386963 -0.5544342994689941 4456788 0 -1
-2.965369701385498 2.4266200065612793 -0.2648714482784271 4456788 0 -1
3.4205093383789062 1.690353512763977 -0.44145241379737854 4456788 0 -1
-3.0857186317443848 2.2777092456817627 0.20601113140583038 4456788 0 -1
3.3994364738464355 1.7524750232696533 -0.35316193103790283 4456788 0 -1
-3.167146921157837 2.148589611053467 0.32373178005218506 4456788 0 -1
-2.9962310791015625 2.3914902210235596 -0.23544128239154816 4523353 0 -1
-2.8928236961364746 2.4258475303649902 -0.7063238620758057 4590430 0 -1
-3.0791707038879395 2.272876024246216 0.32373178005218506 4728182 0 -1
-3.0525951385498047 2.3752167224884033 0.20775698125362396 4456788 0 -1
-2.903127908706665 2.5531599521636963 0.23743654787540436 4456788 0 -1
-2.983992338180542 2.3817217350006104 0.6529505252838135 4456788 0 -1
-2.873504161834717 2.5864553451538086 0.23743654787540436 4456788 0 -1
-2.9878668785095215 2.3848142623901367 0.6232709288597107 4456788 0 -1
-2.873504161834717 2.5864553451538086 0.23743654787540436 4456788 0 -1
-2.95923113822937 2.4815351963043213 0.29679569602012634 4456788 0 -1
-3.0244250297546387 2.353297710418701 0.5639117956161499 4523353 0 -1
-2.9455676078796387 2.4700772762298584 0.4748730957508087 4590430 0 -1
-3.030949115753174 2.3583741188049316 0.5045526623725891 4657508 0 -1
-2.903127908706665 2.5531599521636963 0.23743654787540436 4657508 0 -1
-3.0736217498779297 2.3915774822235107 0.2992897629737854 4456788 0 -1
-2.9559147357940674 2.5389721393585205 0.2693607807159424 4456788 0 -1
-3.016695499420166 2.4078242778778076 0.5985795259475708 4456788 0 -1
-2.9244167804718018 2.571882486343384 0.2992897629737854 4456788 0 -1
-3.012974977493286 2.4048547744750977 0.6285085082054138 4456788 0 -1
-2.9244167804718018 2.571882486343384 0.2992897629737854 4456788 0 -1
-2.9802188873291016 2.4991350173950195 0.35914772748947144 4456788 0 -1
-3.053222894668579 2.3757052421569824 0.5387215614318848 4523353 0 -1
-2.952425241470337 2.5359747409820557 0.3292187452316284 4523353 0 -1
-2.9730632305145264 2.4931344985961914 0.4489346444606781 4590430 0 -1
-3.059429883956909 2.3805348873138428 0.4788636267185211 4657508 0 -1
-2.9260571002960205 2.5733251571655273 0.2693607807159424 4657508 0 -1
-3.067352533340454 2.3866994380950928 0.38907670974731445 4724328 0 -1
-2.9275238513946533 2.574615240097046 0.23943181335926056 4724328 0 -1
-3.0973126888275146 2.4100112915039062 0.3319622278213501 4456788 0 -1
-2.9805474281311035 2.5601303577423096 0.2716054618358612 4456788 0 -1
-3.054974317550659 2.4383771419525146 0.4828541576862335 4456788 0 -1
-3.002829074859619 2.5180952548980713 0.392318993806839 4456788 0 -1
-3.0250236988067627 2.475435972213745 0.4828541576862335 4456788 0 -1
-3.005053997039795 2.51996111869812 0.36214062571525574 4456788 0 -1
-3.0004241466522217 2.516078472137451 0.42249739170074463 4523353 0 -1
-3.0004241466522217 2.516078472137451 0.42249739170074463 4590430 0 -1
-3.0904366970062256 2.404661178588867 0.42249739170074463 4657508 0 -1
-3.095205783843994 2.408371925354004 0.36214062571525574 4724328 0 -1
-3.1073596477508545 2.4178287982940674 0.5172724723815918 4456788 0 -1
-3.1159775257110596 2.424534559249878 0.4259890913963318 4456788 0 -1
-3.1104202270507812 2.420210361480713 0.4868446886539459 4456788 0 -1
-3.0554730892181396 2.5003535747528076 0.4259890913963318 4456788 0 -1
-2.807243585586548 2.7036783695220947 0.7606948614120483 4456788 0 -1
-3.0438361167907715 2.490830659866333 0.5477002859115601 4523353 0 -1
-3.185525417327881 2.351381301879883 0.3042779266834259 4590430 0 -1
-3.057922124862671 2.5023577213287354 0.3955613076686859 4590430 0 -1
-2.8233273029327393 2.6593432426452637 0.8519781827926636 4590430 0 -1
-3.1184751987457275 2.4264779090881348 0.3955613076686859 4657508 0 -1
-3.1184751987457275 2.4264779090881348 0.3955613076686859 4657508 0 -1
-3.122910261154175 2.429928779602051 0.33470574021339417 4724328 0 -1
-3.176913261413574 2.408407211303711 -0.36812642216682434 4456788 0 -1
-3.209644079208374 2.3691842555999756 0.33744922280311584 4456788 0 -1
-3.176913261413574 2.408407211303711 0.36812642216682434 4456788 0 -1
-2.901292562484741 2.6114680767059326 0.8896388411521912 4456788 0 -1
-3.181049108505249 2.4115426540374756 0.30677202343940735 4456788 0 -1
-2.8464694023132324 2.6811411380767822 0.8589616417884827 4456788 0 -1
-3.1790759563446045 2.4100465774536133 0.33744922280311584 4523353 0 -1
-2.80112361907959 2.697784185409546 0.9509932398796082 4523353 0 -1
-3.235610246658325 2.3238980770111084 0.39880362153053284 4590430 0 -1
-2.8414721488952637 2.67643404006958 0.8896388411521912 4590430 0 -1
-3.1895859241485596 2.4180142879486084 0.09203160554170609 4657508 0 -1
-2.9113099575042725 2.6204845905303955 0.8282844424247742 4657508 0 -1
-3.2211060523986816 2.3776450157165527 0 4724328 0 -1
-2.9633419513702393 2.6061153411865234 0.6748984456062317 4724328 0 -1
-2.3917222023010254 3.2083733081817627 0.5257523655891418 4456788 0 -1
-2.9921584129333496 2.5091469287872314 1.020578145980835 4456788 0 -1
-2.9323151111602783 2.578828811645508 1.020578145980835 4456788 0 -1
-3.2472939491271973 2.396975517272949 0 4456788 0 -1
-2.9982516765594482 2.514256715774536 0.9896515011787415 4523353 0 -1
-3.2735016345977783 2.3511126041412354 0.21648626029491425 4590430 0 -1
-2.8431591987609863 2.8605847358703613 0.1546330451965332 4590430 0 -1
-3.165764093399048 2.210707187652588 -1.1752111911773682 4657508 0 -1
-2.3801000118255615 3.257061719894409 0.5299922823905945 4456788 0 -1
-3.0499680042266846 2.6197588443756104 0.6235203742980957 4456788 0 -1
-3.1101796627044678 2.608116626739502 0.2805841565132141 4456788 0 -1
-2.3801000118255615 3.257061719894409 0.5299922823905945 4456788 0 -1
-3.3661201000213623 2.2835729122161865 -0.09352805465459824 4456788 0 -1
-3.3917953968048096 2.2333242893218994 0.24940814077854156 4456788 0 -1
-3.1486854553222656 2.5766308307647705 -0.031176017597317696 4456788 0 -1
-3.2399253845214844 2.456176519393921 -0.15588009357452393 4456788 0 -1
-3.1428563594818115 2.5718607902526855 -0.24940814077854156 4523353 0 -1
-2.998088836669922 2.575197458267212 0.9664565324783325 4590430 0 -1
-2.3801000118255615 3.257061719894409 0.5299922823905945 4725613 0 -1
-2.3813107013702393 3.3242666721343994 0.3142542541027069 4456788 0 -1
-3.124408483505249 2.620048761367798 0.4399559497833252 4456788 0 -1
-2.3572099208831787 3.2906222343444824 0.6599339246749878 4456788 0 -1
-2.3966317176818848 3.2796847820281982 0.5656576752662659 4456788 0 -1
-3.424466371536255 2.2548365592956543 -0.09427627921104431 4456788 0 -1
-3.413182497024536 2.2474067211151123 0.3456796705722809 4456788 0 -1
-3.1693990230560303 2.593581438064575 0.2199779748916626 4456788 0 -1
-2.614760398864746 2.9845809936523438 1.037039041519165 4456788 0 -1
-2.3916642665863037 3.1448893547058105 -1.099889874458313 4456788 0 -1
-3.2465851306915283 2.4612252712249756 -0.47138139605522156 4456788 0 -1
-3.1460320949554443 2.511056423187256 -0.7856356501579285 4590430 0 -1
-3.1460320949554443 2.511056423187256 -0.7856356501579285 4590430 0 -1
-3.093355417251587 2.594008445739746 0.7227848172187805 4657508 0 -1
-2.3628861904144287 3.298546075820923 0.5970830917358398 4725613 0 -1
-2.442460775375366 3.2764363288879395 0.3456796705722809 4726897 0 -1
-3.1931419372558594 2.6130106449127197 0.25339868664741516 4456788 0 -1
-2.3696084022521973 3.3079304695129395 0.7285211682319641 4456788 0 -1
-3.454545021057129 2.205528736114502 0.5384721755981445 4456788 0 -1
-2.3092100620269775 3.1600518226623535 1.3303430080413818 4456788 0 -1
-3.4379308223724365 2.263702154159546 0.38009801506996155 4456788 0 -1
-3.2751736640930176 2.482897996902466 -0.44344767928123474 4456788 0 -1
-3.199955463409424 2.554096221923828 0.5701470375061035 4523353 0 -1
-2.391333818435669 3.338258743286133 0.47512251138687134 4590430 0 -1
-2.4834351539611816 3.2655622959136963 0.5067973732948303 4725613 0 -1
-2.381639242172241 3.3247249126434326 0.6018218398094177 4725613 0 -1
-2.3842806816101074 3.3284125328063965 0.5701470375061035 4726897 0 -1
3.6465630531311035 1.8798736333847046 -0.5067973732948303 4726897 0 -1
-3.4942009449005127 2.230846881866455 0.41501516103744507 4456788 0 -1
-3.4413342475891113 2.3345980644226074 -0.255393922328949 4590430 0 -1
-2.4030544757843018 3.3546204566955566 0.5746363401412964 4590430 0 -1
-3.548797845840454 2.2657036781311035 0.42149975895881653 4456788 0 -1
-3.3557822704315186 2.814072608947754 0.9981313943862915 4456788 0 -1
-3.290161609649658 3.029982805252075 -0.41301989555358887 4456788 0 -1
-3.3098902702331543 2.843018054962158 1.0669680833816528 4456788 0 -1
-3.370131492614746 2.7578446865081787 1.101386308670044 4523353 0 -1
-3.2272167205810547 2.972015380859375 0.9637130498886108 4523353 0 -1
-3.327333927154541 2.858001232147217 1.1093673706054688 4456788 0 -1
-3.3338749408721924 2.863619565963745 1.0746996402740479 4456788 0 -1
-3.3675503730773926 2.823941230773926 1.0746996402740479 4523353 0 -1
-3.2328484058380127 2.9772019386291504 1.0746996402740479 4523353 0 -1
2.7124505043029785 4.18342924118042 -1.26100754737854 4456788 0 -1
2.6389319896698 4.1523847579956055 -1.4974465370178223 4456788 0 -1
2.722935676574707 4.199600696563721 -1.1821945905685425 4456788 0 -1
2.776754379272461 4.282605171203613 0.63050377368927 4456788 5 -1
2.771121025085449 4.273916721343994 0.7093167304992676 4456788 5 -1
2.8130927085876465 4.252803325653076 0.6699102520942688 4456788 5 -1
2.7823100090026855 4.291173934936523 0.793117880821228 4456788 5 -1
2.791579008102417 4.305469512939453 0.6741502285003662 4456788 5 -1
2.7943286895751953 4.309710502624512 0.6344943046569824 4456788 5 -1
2.7943286895751953 4.309710502624512 0.6344943046569824 4456788 5 -1
2.8387482166290283 4.291589260101318 0.5551825165748596 4456788 5 -1
2.8336853981018066 4.283935546875 0.6344943046569824 4456788 5 -1
2.830897092819214 4.279719829559326 0.6741502285003662 4456788 5 -1
2.6068105697631836 4.357491493225098 1.1572537422180176 4456788 0 -1
2.882049798965454 4.270989418029785 0.7582007646560669 4456788 5 -1
2.7209410667419434 4.368287563323975 0.7981060743331909 4456788 5 -1
2.7569706439971924 4.3381195068359375 0.8380113840103149 4456788 5 -1
2.766674518585205 4.353388786315918 0.7182954549789429 4456788 5 -1
2.809136152267456 4.332548141479492 0.6783901453018188 4456788 5 -1
2.8610100746154785 4.325244426727295 0.4788636267185211 4456788 5 -1
2.8610100746154785 4.325244426727295 0.4788636267185211 4456788 5 -1
2.809136152267456 4.332548141479492 0.6783901453018188 4456788 5 -1
2.862957715988159 4.328188896179199 0.4389583170413971 4456788 5 -1
2.9027209281921387 4.30162239074707 0.4389583170413971 4456788 5 -1
2.8515074253082275 4.310878276824951 0.6384848356246948 4456788 5 -1
2.553264617919922 4.537503719329834 -0.11971590667963028 4456788 5 -1
2.864734649658203 4.330875396728516 0.39905303716659546 4456788 5 -1
2.6325125694274902 4.490749359130859 0.1596212089061737 4456788 5 -1
2.6736552715301514 4.4692277908325195 0 4456788 5 -1
2.9932823181152344 4.178567886352539 0.8380113840103149 4456788 5 -1
2.630218505859375 4.486835956573486 0.6424753665924072 4456788 5 -1
2.8693292140960693 4.3378214836120605 0.6424753665924072 4456788 5 -1
2.728515625 4.46960973739624 0.20077355206012726 4456788 5 -1
2.6370298862457275 4.498455047607422 0.5220112204551697 4456788 5 -1
2.7253854274749756 4.464482307434082 0.3212376832962036 4456788 5 -1
2.8744559288024902 4.345571517944336 0.5621659755706787 4456788 5 -1
2.8826394081115723 4.357943534851074 0.4015471041202545 4456788 5 -1
2.886977434158325 4.364501476287842 0.28108298778533936 4456788 5 -1
2.8744559288024902 4.345571517944336 0.5621659755706787 4456788 5 -1
2.6482651233673096 4.5176215171813965 0.20077355206012726 4456788 5 -1
2.68965482711792 4.495972156524658 0.12046413123607635 4456788 5 -1
2.591810703277588 4.332417964935303 1.4054148197174072 4456788 0 -1
2.771796703338623 4.449933052062988 0.5656576752662659 4456788 5 -1
2.721221923828125 4.457662105560303 0.7272741198539734 4456788 5 -1
2.894627809524536 4.376067638397217 0.5252535343170166 4456788 5 -1
2.686654567718506 4.490957260131836 0.6464658975601196 4456788 5 -1
2.856539726257324 4.405658721923828 0.4848494231700897 4456788 5 -1
2.7838709354400635 4.469317436218262 0.28282883763313293 4456788 5 -1
2.7838709354400635 4.469317436218262 0.28282883763313293 4456788 5 -1
2.7067580223083496 4.524561882019043 -0.08080823719501495 4456788 5 -1
2.786574363708496 4.473657608032227 0.1616164743900299 4456788 5 -1
2.7067580223083496 4.524561882019043 0.08080823719501495 4456788 5 -1
2.6659672260284424 4.547818660736084 0.12121235579252243 4456788 5 -1
2.653409004211426 4.526395797729492 0.5252535343170166 4456788 5 -1
2.666358709335327 4.548486709594727 0.08080823719501495 4456788 5 -1
2.665419101715088 4.546883583068848 0.1616164743900299 4456788 5 -1
2.6659672260284424 4.547818660736084 0.12121235579252243 4456788 5 -1
2.666593551635742 4.548887252807617 0.04040411859750748 4456788 5 -1
2.7067580223083496 4.524561882019043 -0.08080823719501495 4456788 5 -1
2.707076072692871 4.525093078613281 0 4456788 5 -1
-3.146984577178955 4.221519470214844 -0.28282883763313293 4456788 0 -1
-4.272575378417969 2.555650472640991 -1.7373771667480469 4456788 0 -1
-3.269273042678833 4.130110740661621 0.24242471158504486 4523353 0 -1
2.552058458328247 4.629910945892334 0.4471887946128845 4456788 5 -1
2.7592411041259766 4.519941806793213 0.325228214263916 4456788 5 -1
2.795111656188965 4.487363338470459 0.4471887946128845 4456788 5 -1
2.783932685852051 4.469416618347168 0.650456428527832 4456788 5 -1
2.7435858249664307 4.494296550750732 0.650456428527832 4456788 5 -1
2.876129388809204 4.4358720779418945 0.4471887946128845 4456788 5 -1
2.6417810916900635 4.599475383758545 -0.1219605803489685 4456788 5 -1
2.799818277359009 4.494919776916504 0.325228214263916 4456788 5 -1
2.950582265853882 4.372549533843994 0.569149374961853 4456788 5 -1
2.7237863540649414 4.553025722503662 0 4456788 5 -1
2.6828176975250244 4.576563835144043 -0.081307053565979 4456788 5 -1
2.6811628341674805 4.5737409591674805 0.2032676339149475 4456788 5 -1
2.54728627204895 4.345363616943359 1.6667946577072144 4456788 0 -1
2.6792705059051514 4.570512294769287 0.2845746874809265 4456788 5 -1
2.6386754512786865 4.59406852722168 0.2845746874809265 4456788 5 -1
2.723466396331787 4.552491188049316 0.081307053565979 4456788 5 -1
2.723466396331787 4.552491188049316 0.081307053565979 4456788 5 -1
2.7237062454223633 4.552892208099365 -0.0406535267829895 4456788 5 -1
-4.593848705291748 2.6543571949005127 0 4456788 0 -1
-3.4936366081237793 3.9877617359161377 -0.2032676339149475 4523353 0 -1
-3.494560718536377 3.988816738128662 -0.162614107131958 4590430 0 -1
2.574993133544922 4.671518802642822 0.20451468229293823 4456788 5 -1
2.7392091751098633 4.578806400299072 0.1636117398738861 4456788 5 -1
2.617480516433716 4.6516242027282715 0.08180586993694305 4456788 5 -1
2.616558074951172 4.649984836578369 0.1636117398738861 4456788 5 -1
2.7806646823883057 4.555035591125488 0.12270880490541458 4456788 5 -1
2.616558074951172 4.649984836578369 0.1636117398738861 4456788 5 -1
2.5629138946533203 4.3720221519470215 1.6770203113555908 4456788 0 -1
2.6976118087768555 4.601800441741943 0.20451468229293823 4456788 5 -1
2.6094539165496826 4.543192386627197 1.0225733518600464 4456788 5 -1
2.698880434036255 4.603964805603027 0.12270880490541458 4456788 5 -1
2.5836753845214844 4.591547966003418 0.8589616417884827 4456788 5 -1
2.938000202178955 4.4416375160217285 0.36812642216682434 4456788 5 -1
2.7397725582122803 4.579748153686523 -0.12270880490541458 4456788 5 -1
2.7392091751098633 4.578806400299072 -0.1636117398738861 4456788 5 -1
2.7392091751098633 4.578806400299072 -0.1636117398738861 4456788 5 -1
2.7392091751098633 4.578806400299072 -0.1636117398738861 4456788 5 -1
2.7339723110198975 4.570052623748779 -0.36812642216682434 4456788 5 -1
2.7324397563934326 4.567490577697754 -0.40902936458587646 4456788 5 -1
-3.5977671146392822 3.940153121948242 -0.1636117398738861 4456788 0 -1
-3.429385185241699 4.077713489532471 -0.3272234797477722 4456788 0 -1
-4.62148904800415 2.670328140258789 0.08180586993694305 4456788 0 -1
-3.3828628063201904 4.104790210723877 -0.4499322772026062 4456788 0 -1
-3.5150699615478516 4.012226581573486 -0.20451468229293823 4523353 0 -1
-3.475116014480591 4.048740863800049 -0.1636117398738861 4590430 0 -1
-3.4665279388427734 4.038735389709473 -0.40902936458587646 4657508 0 -1
-4.4928460121154785 2.868424415588379 -0.2863205373287201 4664956 0 -1
-3.312748670578003 4.185033798217773 0.08180586993694305 4664956 0 -1
-3.4357457160949707 4.085276126861572 0.04090293496847153 4600703 0 -1
2.6337499618530273 4.680537223815918 0 4456788 5 -1
2.6336727142333984 4.6803998947143555 0.04115234315395355 4456788 5 -1
2.716054677963257 4.6332621574401855 0 4456788 5 -1
2.715735673904419 4.632718086242676 -0.0823046863079071 4456788 5 -1
2.6749024391174316 4.65714168548584 0 4456788 5 -1
2.674588203430176 4.656594753265381 0.0823046863079071 4456788 5 -1
2.7140605449676514 4.6298604011535645 0.20576171576976776 4456788 5 -1
2.6720738410949707 4.652216911315918 0.2469140589237213 4456788 5 -1
2.715735673904419 4.632718086242676 0.0823046863079071 4456788 5 -1
2.7131826877593994 4.628362655639648 0.2469140589237213 4456788 5 -1
2.555495262145996 4.636146068572998 0.9053515791893005 4456788 5 -1
2.8294074535369873 4.542423248291016 0.45267578959465027 4456788 5 -1
2.8311636447906494 4.545242786407471 0.4115234315395355 4456788 5 -1
2.7980306148529053 4.5834832191467285 -0.0823046863079071 4456788 5 -1
2.7564785480499268 4.607673645019531 -0.12345702946186066 4456788 5 -1
2.7559115886688232 4.606726169586182 -0.1646093726158142 4456788 5 -1
2.796304941177368 4.580656051635742 -0.20576171576976776 4456788 5 -1
2.7970447540283203 4.5818681716918945 -0.1646093726158142 4456788 5 -1
2.7916972637176514 4.573108673095703 -0.37037110328674316 4456788 5 -1
2.7901322841644287 4.570544719696045 -0.4115234315395355 4456788 5 -1
2.7943310737609863 4.577423095703125 -0.28806641697883606 4456788 5 -1
-3.6204493045806885 3.964993715286255 -0.12345702946186066 4456788 0 -1
-3.4092211723327637 4.136773586273193 -0.3292187452316284 4456788 0 -1
-4.645297527313232 2.684084892272949 0.2469140589237213 4456788 0 -1
-3.4566197395324707 3.864989757537842 1.3991796970367432 4456788 0 -1
-3.357708692550659 4.15736198425293 -0.5349804759025574 4456788 0 -1
-3.5353593826293945 4.035385608673096 -0.2469140589237213 4523353 0 -1
-3.4953811168670654 4.072350978851318 -0.20576171576976776 4590430 0 -1
-3.5644776821136475 3.8228790760040283 1.2345702648162842 4664956 0 -1
2.5030694007873535 4.541036128997803 -1.3991796970367432 4664956 0 -1
2.6911139488220215 4.685366630554199 0 4456788 5 -1
2.732435464859009 4.661205291748047 -0.04140175133943558 4456788 5 -1
2.732435464859009 4.661205291748047 0.04140175133943558 4456788 5 -1
2.6904027462005615 4.684128761291504 0.12420525401830673 4456788 5 -1
2.690797805786133 4.684816360473633 0.08280350267887115 4456788 5 -1
2.732194662094116 4.660794734954834 0.08280350267887115 4456788 5 -1
2.683202028274536 4.671591758728027 0.41401752829551697 4456788 5 -1
2.731231927871704 4.659152507781982 0.1656070053577423 4456788 5 -1
2.8086166381835938 4.600824356079102 0.3726157546043396 4456788 5 -1
2.8123421669006348 4.606926918029785 0.24841050803661346 4456788 5 -1
2.7699244022369385 4.6301493644714355 0.28981226682662964 4456788 5 -1
2.892672538757324 4.551647663116455 0.3312140107154846 4456788 5 -1
2.8152365684509277 4.611668109893799 0.04140175133943558 4456788 5 -1
2.731231927871704 4.659152507781982 -0.1656070053577423 4456788 5 -1
2.771880865097046 4.633419513702393 -0.20700876414775848 4456788 5 -1
2.8132522106170654 4.608417510986328 -0.20700876414775848 4456788 5 -1
2.8139963150024414 4.6096367835998535 -0.1656070053577423 4456788 5 -1
2.7640464305877686 4.62032413482666 -0.45541927218437195 4456788 5 -1
2.8100247383117676 4.60313081741333 -0.3312140107154846 4456788 5 -1
2.807042121887207 4.598245143890381 -0.41401752829551697 4456788 5 -1
2.796661615371704 4.581240653991699 -0.6210262775421143 4456788 5 -1
2.7640464305877686 4.62032413482666 -0.45541927218437195 4456788 5 -1
-4.716334342956543 2.628324508666992 0.20700876414775848 4456788 0 -1
-4.716334342956543 2.628324508666992 0.20700876414775848 4456788 0 -1
-3.8493454456329346 3.789705276489258 0.12420525401830673 4456788 0 -1
-3.808513879776001 3.8318560123443604 0.08280350267887115 4523353 0 -1
2.955061197280884 4.5576090812683105 -0.208255797624588 4456788 5 -1
3.0818238258361816 4.476938724517822 -0.0833023190498352 4456788 5 -1
2.9974746704101562 4.53154993057251 -0.1666046380996704 4456788 5 -1
2.9974746704101562 4.53154993057251 -0.1666046380996704 4456788 5 -1
3.040177583694458 4.50532341003418 -0.0833023190498352 4456788 5 -1
2.7073254585266113 4.713591575622559 0 4456788 5 -1
2.7072458267211914 4.71345329284668 -0.0416511595249176 4456788 5 -1
2.6655960083007812 4.7371320724487305 0.0416511595249176 4456788 5 -1
2.790545701980591 4.6646199226379395 0.0416511595249176 4456788 5 -1
2.7066099643707275 4.712346076965332 0.12495347857475281 4456788 5 -1
2.70700740814209 4.713037967681885 0.0833023190498352 4456788 5 -1
2.7066099643707275 4.712346076965332 0.12495347857475281 4456788 5 -1
2.9142115116119385 4.5855393409729 -0.1666046380996704 4456788 5 -1
2.8322789669036865 4.639585494995117 0 4456788 5 -1
2.7486536502838135 4.68887186050415 0.0833023190498352 4456788 5 -1
2.7486536502838135 4.68887186050415 0.0833023190498352 4456788 5 -1
2.7876768112182617 4.659824371337891 0.24990695714950562 4456788 5 -1
2.8309481143951416 4.637405872344971 0.1666046380996704 4456788 5 -1
2.8309481143951416 4.637405872344971 0.1666046380996704 4456788 5 -1
2.7906277179718018 4.664756774902344 0 4456788 5 -1
2.915238857269287 4.587156295776367 0.0833023190498352 4456788 5 -1
2.8718199729919434 4.610513687133789 -0.208255797624588 4456788 5 -1
2.8282017707824707 4.632906913757324 -0.2915581166744232 4456788 5 -1
2.766850709915161 4.625011444091797 -0.7080697417259216 4456788 5 -1
2.7721338272094727 4.633842468261719 -0.6247674226760864 4456788 5 -1
-4.529168128967285 2.9822263717651367 0.3748604357242584 4456788 0 -1
-3.873444080352783 3.8134305477142334 -0.0416511595249176 4456788 0 -1
-3.8725342750549316 3.812534809112549 -0.12495347857475281 4523353 0 -1
-3.903698444366455 3.7596826553344727 -0.416511595249176 4590430 0 -1
3.0586516857147217 4.532700538635254 -0.04190056771039963 4456788 5 -1
3.100550889968872 4.504143238067627 0.04190056771039963 4456788 5 -1
3.100277900695801 4.503746509552002 0.08380113542079926 4456788 5 -1
3.058382272720337 4.532301425933838 -0.08380113542079926 4456788 5 -1
3.0160436630249023 4.559622764587402 -0.12570171058177948 4456788 5 -1
3.0573043823242188 4.530704021453857 -0.1676022708415985 4456788 5 -1
2.932264804840088 4.613946437835693 -0.12570171058177948 4456788 5 -1
2.8484857082366943 4.666134357452393 -0.12570171058177948 4456788 5 -1
2.8491549491882324 4.667230606079102 0.04190056771039963 4456788 5 -1
2.8907997608184814 4.640984058380127 0.08380113542079926 4456788 5 -1
2.8070082664489746 4.692138195037842 0.08380113542079926 4456788 5 -1
2.7651126384735107 4.716948986053467 0.08380113542079926 4456788 5 -1
2.9326953887939453 4.6146240234375 0.08380113542079926 4456788 5 -1
2.891054391860962 4.641393184661865 -0.04190056771039963 4456788 5 -1
2.800645589828491 4.587767124176025 -1.0056136846542358 4456788 0 -1
2.780508041381836 4.64784049987793 -0.7542102336883545 4456788 0 -1
2.786160469055176 4.657289028167725 -0.670409083366394 4456788 5 -1
-4.543102741241455 2.900510311126709 -0.9218124747276306 4456788 0 -1
-4.147059917449951 3.5621020793914795 0.12570171058177948 4523353 0 -1
3.076857805252075 4.559680938720703 0.04214997589588165 4456788 5 -1
2.9491121768951416 4.640456199645996 -0.1685999035835266 4456788 5 -1
3.1611554622650146 4.501648902893066 -0.04214997589588165 4456788 5 -1
2.9922969341278076 4.61503791809082 -0.0842999517917633 4456788 5 -1
2.947378396987915 4.637728214263916 -0.2528998553752899 4456788 5 -1
2.987020492553711 4.606899738311768 -0.3371998071670532 4456788 5 -1
2.9062130451202393 4.665729522705078 -0.21074987947940826 4456788 5 -1
3.0304296016693115 4.581371307373047 -0.29504984617233276 4456788 5 -1
2.9041616916656494 4.662436008453369 -0.29504984617233276 4456788 5 -1
3.0315892696380615 4.58312463760376 -0.2528998553752899 4456788 5 -1
2.946251153945923 4.6359543800354 -0.29504984617233276 4456788 5 -1
2.946251153945923 4.6359543800354 -0.29504984617233276 4456788 5 -1
2.9894838333129883 4.61069917678833 -0.2528998553752899 4456788 5 -1
2.9904510974884033 4.612191200256348 -0.21074987947940826 4456788 5 -1
3.033996343612671 4.586763381958008 -0.12644992768764496 4456788 5 -1
2.9082629680633545 4.669020175933838 -0.04214997589588165 4456788 5 -1
2.9080069065093994 4.668609142303467 0.0842999517917633 4456788 5 -1
2.8210623264312744 4.715630531311035 0.2528998553752899 4456788 5 -1
3.0344419479370117 4.587436676025391 0.0842999517917633 4456788 5 -1
2.9082629680633545 4.669020175933838 -0.04214997589588165 4456788 5 -1
2.72999906539917 4.753067970275879 -0.4636497497558594 4456788 5 -1
2.9501519203186035 4.642092227935791 0.0842999517917633 4456788 5 -1
2.8251805305480957 4.627957820892334 -0.9272994995117188 4456788 0 -1
2.716404914855957 4.729399681091309 -0.7165495753288269 4456788 5 -1
2.854487895965576 4.582688331604004 -1.053749442100525 4456788 0 -1
2.8288488388061523 4.633966445922852 -0.8851494789123535 4456788 0 -1
2.797058582305908 4.675506591796875 -0.7586995959281921 4456788 5 -1
2.7634623050689697 4.7141337394714355 -0.632249653339386 4456788 5 -1
-4.619998455047607 2.949604034423828 0.4636497497558594 4456788 0 -1
-4.169784069061279 3.581620693206787 -0.21074987947940826 4523353 0 -1
2.912050247192383 4.582138538360596 -0.8851494789123535 13164576 0 -1
3.010267972946167 4.642754554748535 -0.04239938408136368 4456788 5 -1
3.010267972946167 4.642754554748535 -0.04239938408136368 4456788 5 -1
3.010002851486206 4.642345905303955 -0.08479876816272736 4456788 5 -1
3.0060229301452637 4.636207580566406 -0.29679569602012634 4456788 5 -1
3.048361301422119 4.608479976654053 -0.29679569602012634 4456788 5 -1
3.0918822288513184 4.581945896148682 -0.25439631938934326 4456788 5 -1
2.9648187160491943 4.665170192718506 -0.25439631938934326 4456788 5 -1
3.010002851486206 4.642345905303955 -0.08479876816272736 4456788 5 -1
3.010267972946167 4.642754554748535 -0.04239938408136368 4456788 5 -1
2.9648187160491943 4.665170192718506 -0.25439631938934326 4456788 5 -1
2.9252140522003174 4.696234226226807 0.08479876816272736 4456788 5 -1
2.9241831302642822 4.694579124450684 0.1695975363254547 4456788 5 -1
3.0519490242004395 4.613903999328613 0.12719815969467163 4456788 5 -1
2.882819652557373 4.722376823425293 -0.08479876816272736 4456788 5 -1
2.7530457973480225 4.793193340301514 -0.25439631938934326 4456788 5 -1
2.96577787399292 4.666679859161377 -0.211996927857399 4456788 5 -1
2.8746817111968994 4.709046363830566 -0.423993855714798 4456788 5 -1
-3.649445056915283 4.08059549331665 0.8055883049964905 4456788 0 -1
-3.6463470458984375 4.162071228027344 0 4456788 0 -1
-4.652828693389893 2.970564126968384 0.3815944492816925 4456788 0 -1
-3.7969655990600586 3.98721981048584 0.5511919856071472 4523353 0 -1
-3.5577824115753174 4.23038387298584 0.25439631938934326 4523353 0 -1
-4.689584255218506 2.899820327758789 -0.46639323234558105 4590430 0 -1
-3.779474973678589 3.9688527584075928 0.763188898563385 4590430 0 -1
-3.5194780826568604 4.18483829498291 0.847987711429596 4590430 0 -1
3.02726411819458 4.668968200683594 -0.1279463768005371 4456788 5 -1
3.070352554321289 4.641726016998291 -0.0852975845336914 4456788 5 -1
2.9822587966918945 4.692612648010254 -0.2558927536010742 4456788 5 -1
2.9766385555267334 4.683769226074219 -0.42648792266845703 4456788 5 -1
3.024862289428711 4.665264129638672 -0.2558927536010742 4456788 5 -1
3.026641607284546 4.668007850646973 -0.1705951690673828 4456788 5 -1
2.941988945007324 4.723165512084961 -0.1279463768005371 4456788 5 -1
2.984626531600952 4.696338653564453 -0.1279463768005371 4456788 5 -1
3.02726411819458 4.668968200683594 0.1279463768005371 4456788 5 -1
3.070352554321289 4.641726016998291 0.0852975845336914 4456788 5 -1
2.9424211978912354 4.723858833312988 0.0852975845336914 4456788 5 -1
3.069901704788208 4.641044616699219 0.1279463768005371 4456788 5 -1
2.7492728233337402 4.68992805480957 1.1941661834716797 4456788 0 -1
2.784830093383789 4.750584602355957 0.8103270530700684 4456788 5 -1
2.9171385765075684 4.499120712280273 1.4927077293395996 4456788 0 -1
3.023705244064331 4.663479328155518 -0.2985415458679199 4456788 5 -1
-3.6890337467193604 4.124861717224121 0.5970830917358398 4456788 0 -1
-3.7100090980529785 4.148314952850342 0.0852975845336914 4456788 0 -1
-3.8343327045440674 4.026459217071533 0.2558927536010742 4523353 0 -1
-3.6247215270996094 4.223041534423828 -0.0852975845336914 4523353 0 -1
-4.989908695220947 2.4659221172332764 0 4590430 0 -1
-4.72009801864624 2.9186885356903076 -0.42648792266845703 4590430 0 -1
-3.8328659534454346 4.024919033050537 0.2985415458679199 4590430 0 -1
-3.6251473426818848 4.223537445068359 0 4590430 0 -1
-3.1745963096618652 4.258558750152588 1.6633028984069824 4590430 0 -1
-4.805144786834717 2.7764458656311035 -0.42648792266845703 4657508 0 -1
-4.566824436187744 3.0981295108795166 -0.725029468536377 4657508 0 -1
-1.9578155279159546 5.071576118469238 1.1941661834716797 4657508 0 -1
3.088670492172241 4.669418811798096 0 4456788 5 -1
3.0413877964019775 4.690751075744629 -0.3002873957157135 4456788 5 -1
3.0014631748199463 4.7228312492370605 -0.1715928018093109 4456788 5 -1
2.998551368713379 4.718249320983887 -0.3002873957157135 4456788 5 -1
3.0020804405212402 4.72380256652832 -0.1286945939064026 4456788 5 -1
3.0425517559051514 4.692546367645264 -0.2573891878128052 4456788 5 -1
2.9598889350891113 4.7519025802612305 0.04289820045232773 4456788 5 -1
3.0027859210968018 4.724912166595459 -0.04289820045232773 4456788 5 -1
2.908501625061035 4.76444673538208 0.4289819896221161 4456788 5 -1
3.0878543853759766 4.668185234069824 0.1286945939064026 4456788 5 -1
2.740828037261963 4.771921634674072 1.0295567512512207 4456788 5 -1
2.8714194297790527 4.703701972961426 -0.9866586327552795 4456788 0 -1
2.9972269535064697 4.716165065765381 0.3431856036186218 4456788 5 -1
2.91692852973938 4.589815139770508 1.3298442363739014 4456788 0 -1
3.0385210514068604 4.6863298416137695 0.38608381152153015 4456788 5 -1
3.0634801387786865 4.72482442855835 0 4456788 5 -1
3.018913507461548 4.750289440155029 -0.172590434551239 4456788 5 -1
3.0181150436401367 4.749032974243164 -0.21573804318904877 4456788 5 -1
3.0633902549743652 4.7246856689453125 -0.04314760863780975 4456788 5 -1
2.976398229598999 4.778407096862793 -0.12944282591342926 4456788 5 -1
3.0195345878601074 4.7512664794921875 -0.12944282591342926 4456788 5 -1
2.9285197257995605 4.797238826751709 0.345180869102478 4456788 5 -1
2.884007453918457 4.82084846496582 0.3883284628391266 4456788 5 -1
2.8878328800201416 4.827242851257324 -0.2588856518268585 4456788 5 -1
3.1090447902679443 4.700220584869385 -0.5641612410545349 4456788 5 -1
2.9982054233551025 4.717704772949219 -0.9113373756408691 4456788 0 -1
3.0369884967803955 4.778730392456055 -0.13019104301929474 4456788 5 -1
3.0369884967803955 4.778730392456055 -0.13019104301929474 4456788 5 -1
3.0808262825012207 4.751577377319336 -0.08679403364658356 4456788 5 -1
3.0808262825012207 4.751577377319336 -0.08679403364658356 4456788 5 -1
3.0808262825012207 4.751577377319336 -0.08679403364658356 4456788 5 -1
2.99404239654541 4.80673360824585 -0.08679403364658356 4456788 5 -1
3.0374343395233154 4.77943229675293 -0.08679403364658356 4456788 5 -1
3.034579038619995 4.774939060211182 0.2603820860385895 4456788 5 -1
2.725973606109619 4.844431400299072 1.0849254131317139 4456788 5 -1
2.9817090034484863 4.786932945251465 0.520764172077179 4456788 5 -1
2.8990519046783447 4.845996379852295 0.4339701533317566 4456788 5 -1
3.00274920463562 4.820712089538574 -0.43646425008773804 4456788 5 -1
3.1726913452148438 4.701699256896973 -0.5237571001052856 4456788 5 -1
3.0350022315979004 4.775604724884033 -0.6546963453292847 4456788 5 -1
3.0350022315979004 4.775604724884033 -0.6546963453292847 4456788 5 -1
3.097440242767334 4.777201175689697 -0.17458570003509521 4456788 5 -1
3.0520191192626953 4.80238151550293 -0.2618785500526428 4456788 5 -1
3.098532199859619 4.778885364532471 -0.08729285001754761 4456788 5 -1
3.0980772972106934 4.778183460235596 -0.1309392750263214 4456788 5 -1
3.0551600456237793 4.807323455810547 0.043646425008773804 4456788 5 -1
3.053006649017334 4.8039350509643555 0.21823212504386902 4456788 5 -1
2.7484328746795654 4.986171245574951 0.17458570003509521 4456788 5 -1
2.7610442638397217 4.807118892669678 1.3093926906585693 4456788 0 -1
2.8640410900115967 4.885709285736084 0.6110499501228333 4456788 5 -1
2.9240496158599854 4.887782096862793 -0.6145416498184204 4456788 5 -1
3.0596914291381836 4.814453601837158 -0.5267499685287476 4456788 5 -1
3.0596914291381836 4.814453601837158 -0.5267499685287476 4456788 5 -1
2.939639091491699 4.913841247558594 0.17558333277702332 4456788 5 -1
2.795360803604126 4.967741966247559 0.570645809173584 4456788 5 -1
2.7641382217407227 5.0146636962890625 0.17558333277702332 4456788 5 -1
2.689393997192383 4.981421947479248 0.8779166340827942 4456788 5 -1
2.890227794647217 4.930380344390869 -0.39506250619888306 4456788 5 -1
2.721461772918701 5.0408196449279785 0.04389583319425583 4456788 5 -1
2.721461772918701 5.0408196449279785 0.04389583319425583 4456788 5 -1
2.630964994430542 5.08200740814209 0.2633749842643738 4456788 5 -1
2.8052892684936523 4.985386371612549 0.3072708249092102 4456788 5 -1
2.9135003089904785 4.970080375671387 -0.044145241379737854 4456788 5 -1
3.084355592727661 4.853262901306152 -0.35316193103790283 4456788 5 -1
3.044590473175049 4.887885093688965 0.17658096551895142 4456788 5 -1
2.824528217315674 4.917647838592529 1.0153405666351318 4456788 5 -1
2.7296454906463623 4.95208740234375 1.1036310195922852 4456788 5 -1
2.8199822902679443 5.011497974395752 0.35316193103790283 4456788 5 -1
2.821228504180908 5.013712406158447 0.3090166747570038 4456788 5 -1
2.686448812484741 5.0810699462890625 0.3973071575164795 4456788 5 -1
2.9135003089904785 4.970080375671387 0.044145241379737854 4456788 5 -1
3.0810818672180176 4.848111629486084 -0.44145241379737854 4456788 5 -1
3.0131590366363525 4.935887336730957 0.35515719652175903 4456788 5 -1
2.8271262645721436 5.02419376373291 0.5771304368972778 4456788 5 -1
2.7902045249938965 5.061952590942383 0.3995518386363983 4456788 5 -1
2.837167501449585 5.042038440704346 0.31076255440711975 4456788 5 -1
2.763947010040283 5.119513034820557 0.31250840425491333 4456788 5 -1
2.807286262512207 5.092942237854004 0.35715246200561523 4456788 5 -1
2.7985870838165283 5.077160358428955 0.5803727507591248 4456788 5 -1
2.779388189315796 5.148113250732422 0.3142542541027069 4456788 5 -1
2.776768445968628 5.143260955810547 0.40404120087623596 4456788 5 -1
2.7372148036956787 5.177087306976318 0.17957386374473572 4456788 5 -1
2.914989709854126 5.075145721435547 0.2693607807159424 4456788 5 -1
2.843249559402466 5.158186435699463 0.13542862236499786 4456788 5 -1
2.7921948432922363 5.171834945678711 0.4062858521938324 4456788 5 -1
2.8386526107788086 5.14984655380249 0.36114299297332764 4456788 5 -1
2.8589580059051514 5.186684608459473 0.13617683947086334 4456788 5 -1
2.902973175048828 5.158984184265137 0.2269614040851593 4456788 5 -1
-4.036947250366211 4.329599380493164 -0.2269614040851593 4456788 0 -1
-3.570798873901367 4.695377826690674 0.5447073578834534 4456788 0 -1
-4.256716251373291 4.099677085876465 -0.4085305333137512 4456788 0 -1
-3.570798873901367 4.695377826690674 0.5447073578834534 4456788 0 -1
-3.3092615604400635 4.528578281402588 -1.9064757823944092 4523353 0 -1
-3.613321542739868 4.6572065353393555 0.5900996923446655 4590430 0 -1
-3.266284227371216 4.559673309326172 -1.9064757823944092 4590430 0 -1
-3.5341365337371826 4.555145263671875 -1.3617684841156006 4728182 0 -1
-4.498851776123047 3.7726213932037354 -1.0041171312332153 4456788 0 -1
-4.236694812774658 4.171053409576416 -0.36513352394104004 4456788 0 -1
-3.4277942180633545 4.7851386070251465 -0.9128338098526001 4456788 0 -1
-4.145583152770996 4.26162052154541 -0.36513352394104004 4456788 0 -1
-3.878518581390381 4.518731594085693 0.13692507147789001 4456788 0 -1
-4.268980503082275 4.1114888191223145 -0.5933419466018677 4456788 0 -1
-3.560047149658203 4.588541507720947 -1.3236089944839478 4456788 0 -1
-3.5848867893218994 4.713902473449707 0.6389836668968201 4456788 0 -1
-3.5574381351470947 4.772121429443359 -0.22820845246315002 4456788 0 -1
-3.7068498134613037 4.5896525382995605 0.8215504288673401 4523353 0 -1
-3.5093512535095215 4.80239200592041 0.31949183344841003 4523353 0 -1
-3.669088125228882 4.635201454162598 0.7302670478820801 4590430 0 -1
-3.648801326751709 4.609572887420654 0.9584754705429077 4212104 0 -1
-4.127166748046875 4.33396577835083 -0.22945548593997955 4456788 0 -1
-3.4051616191864014 4.84912633895874 -0.8719308376312256 4456788 0 -1
-3.992408275604248 4.464076995849609 0.04589109867811203 4456788 0 -1
-3.423133611679077 4.778632164001465 -1.1472774744033813 4456788 0 -1
-4.288870811462402 4.130645275115967 -0.6424753665924072 4456788 0 -1
-3.6138248443603516 4.657855033874512 -1.055495262145996 4456788 0 -1
-3.546961784362793 4.66403341293335 -1.2390596866607666 4456788 0 -1
-3.625396728515625 4.767170429229736 0 4456788 0 -1
-3.57098388671875 4.790292739868164 -0.41301989555358887 4456788 0 -1
-3.7413551807403564 4.632375240325928 0.6424753665924072 4523353 0 -1
-3.531954526901245 4.8333234786987305 0.18356439471244812 4523353 0 -1
-3.6957290172576904 4.668857097625732 0.6424753665924072 4590430 0 -1
-3.6986911296844482 4.6725993156433105 0.5965842604637146 4600703 0 -1
-5.517158031463623 2.3587546348571777 -0.5075455904006958 4456788 0 -1
-4.502539157867432 3.8674397468566895 -1.0150911808013916 4456788 0 -1
-4.275797367095947 4.209549903869629 -0.5075455904006958 4456788 0 -1
-3.5108518600463867 4.804445743560791 -0.9228101372718811 4456788 0 -1
-3.4609827995300293 4.8314690589904785 -0.968950629234314 4456788 0 -1
-3.5019750595092773 4.792297840118408 -1.0150911808013916 4456788 0 -1
-3.598536968231201 4.827253341674805 -0.09228101372718811 4456788 0 -1
-3.5477046966552734 4.85487699508667 -0.3229835331439972 4456788 0 -1
-3.7369420528411865 4.720922470092773 0.09228101372718811 4523353 0 -1
-3.551880121231079 4.860590934753418 0.13842152059078217 4523353 0 -1
-3.7126128673553467 4.690186977386475 0.692107617855072 4590430 0 -1
-3.7216713428497314 4.701630592346191 -0.8350184559822083 4456788 0 -1
-3.5615217685699463 4.873785018920898 -0.4638991355895996 4456788 0 -1
-3.675724744796753 4.737637996673584 -0.8350184559822083 4456788 0 -1
-3.510697841644287 4.900870323181152 -0.5566789507865906 4456788 0 -1
-3.6257569789886475 4.767643928527832 -0.8814083933830261 4523353 0 -1
-3.449599504470825 4.912407875061035 -0.7886285185813904 4523353 0 -1
-3.5618584156036377 5.493475914001465 -0.6045653223991394 4456788 0 -1
-3.8693175315856934 5.401496887207031 -0.6135440468788147 4456788 0 -1
-3.798002004623413 5.408551216125488 -0.9203160405158997 4456788 0 -1
-3.83284854888916 5.458174705505371 -0.20451468229293823 4456788 0 -1
-3.7817440032958984 5.493706703186035 -0.20451468229293823 4456788 0 -1
-3.7284462451934814 5.525287628173828 -0.30677202343940735 4523353 0 -1
-3.8515453338623047 5.484799861907959 -0.20551231503486633 4456788 0 -1
-3.8492813110351562 5.4815754890441895 -0.3082684576511383 4456788 0 -1
-3.7979576587677 5.51725959777832 -0.3082684576511383 4456788 0 -1
-3.746633768081665 5.552240371704102 -0.3082684576511383 4523353 0 -1
-3.9037020206451416 5.449497222900391 -0.15413422882556915 4657508 0 -1
-3.7452006340026855 5.550116539001465 -0.3596465289592743 4657508 0 -1
-3.8702423572540283 5.511425018310547 -0.20650994777679443 4456788 0 -1
-3.816394329071045 5.544042587280273 -0.30976492166519165 4456788 0 -1
-4.541084289550781 4.973241806030273 -0.20650994777679443 4456788 0 -1
-4.019371032714844 5.391780853271484 -0.41301989555358887 4456788 0 -1
-3.8194243907928467 5.548444747924805 -0.15488246083259583 4456788 0 -1
-3.9734487533569336 5.437489032745361 -0.20650994777679443 4523353 0 -1
-3.9734487533569336 5.437489032745361 -0.20650994777679443 4523353 0 -1
-5.446396350860596 4.128894805908203 0.9517414569854736 4456788 0 -1
-5.222115993499756 4.485517501831055 0.4758707284927368 4456788 0 -1
-5.357793807983398 4.384387493133545 0.3718675374984741 4456788 0 -1
-4.509166717529297 5.81186056137085 0.05636623874306679 4456788 0 -1
-6.46306037902832 3.467653751373291 -0.5636624097824097 4523353 0 -1
-5.379933834075928 4.954500675201416 -0.7891273498535156 4523353 0 -1
-5.117116451263428 5.260347843170166 -0.5072961449623108 4523353 0 -1
-5.379933834075928 4.954500675201416 -0.7891273498535156 4590430 0 -1
-5.070578098297119 5.324649333953857 -0.22546495497226715 4590430 0 -1
-3.60701584815979 6.410164833068848 -0.11273247748613358 4590430 0 -1
-4.529252052307129 5.837748050689697 0 4456788 0 -1
-5.090020656585693 5.345065593719482 -0.33969390392303467 4523353 0 -1
-4.812188625335693 5.60651969909668 0.05661564692854881 4590430 0 -1
-4.812188625335693 5.60651969909668 0.05661564692854881 4590430 0 -1
-4.549204349517822 5.863465309143066 0 4456788 0 -1
-5.057274341583252 5.423893451690674 -0.2843252718448639 4523353 0 -1
-4.451657295227051 5.971671104431152 -0.2855723202228546 4456788 0 -1
-4.472280025482178 5.999335289001465 -0.22945548593997955 4456788 0 -1
6.38514518737793 4.713166236877441 -0.3042779266834259 4456788 6 -1
6.324334621429443 4.794456481933594 -0.3042779266834259 4456788 6 -1
6.438560962677002 4.624339580535889 -0.4868446886539459 4456788 6 -1
6.406788349151611 4.729142189025879 -0.42773497104644775 4456788 6 -1
6.461709499359131 4.640964984893799 -0.5499449372291565 4456788 6 -1
6.409240245819092 4.73095178604126 -0.366629958152771 4456788 6 -1
6.415835857391357 4.735820770263672 -0.061104994267225266 4456788 6 -1
6.4678053855896 4.645343780517578 -0.42773497104644775 4456788 6 -1
6.413010120391846 4.733734607696533 -0.24441997706890106 4456788 6 -1
6.411314010620117 4.732482433319092 -0.3055249750614166 4456788 6 -1
6.393193244934082 4.719107151031494 -0.67215496301651 4456788 6 -1
6.400749683380127 4.724684715270996 -0.5499449372291565 4456788 6 -1
6.384113788604736 4.712404727935791 -0.7943649291992188 4456788 6 -1
6.440509796142578 4.75403356552124 -0.18406321108341217 4456788 6 -1
6.432938575744629 4.7484450340271 -0.42948082089424133 4456788 6 -1
6.491336345672607 4.662243843078613 -0.4908352196216583 4456788 6 -1
6.332342147827148 4.674190044403076 -1.4725056886672974 4456788 0 -1
6.466037750244141 4.644073963165283 -0.8589616417884827 4456788 6 -1
6.466037750244141 4.644073963165283 -0.8589616417884827 4456788 6 -1
6.454505920410156 4.635791301727295 -0.9816704392433167 4456788 0 -1
6.4050374031066895 4.727849960327148 -0.8589616417884827 4456788 6 -1
6.406044006347656 4.856400012969971 0.12320762127637863 4456788 6 -1
6.525209903717041 4.686572551727295 -0.3080190420150757 4456788 6 -1
6.3994832038879395 4.72374963760376 -1.1704723834991455 4456788 0 -1
6.4051032066345215 4.855687141418457 0.18481142818927765 4456788 6 -1
6.4066081047058105 4.856827735900879 0.061603810638189316 4456788 6 -1
6.4615607261657715 4.769571781158447 0.3696228563785553 4456788 6 -1
6.221254348754883 5.0909743309021 0.12320762127637863 4456788 6 -1
6.468210220336914 4.77448034286499 -0.061603810638189316 4456788 6 -1
6.406580924987793 4.7289886474609375 -1.1088685989379883 4456788 0 -1
6.474366188049316 4.650055885314941 -1.047264814376831 4456788 0 -1
6.44938325881958 4.760583400726318 -0.6160380840301514 4456788 6 -1
6.1384596824646 5.147554397583008 -0.6776419281959534 8705099 6 -1
6.4234747886657715 4.869614601135254 0.4329725205898285 4456788 6 -1
6.4898200035095215 4.790431499481201 0.3092660903930664 4456788 6 -1
6.299946308135986 5.028404235839844 0.4329725205898285 4456788 6 -1
6.616545677185059 4.620447158813477 0.18555966019630432 4456788 6 -1
6.482374668121338 4.784935474395752 -0.4948257505893707 4456788 6 -1
6.432734966278076 4.87663459777832 0 4456788 6 -1
6.4928717613220215 4.792684078216553 0.18555966019630432 4456788 6 -1
6.431035041809082 4.875345706939697 0.18555966019630432 4456788 6 -1
6.429712772369385 4.874343395233154 0.24741287529468536 4456788 6 -1
6.491536617279053 4.791698932647705 0.24741287529468536 4456788 6 -1
6.494397163391113 4.7938103675842285 0.06185321882367134 4456788 6 -1
6.431979179382324 4.876061916351318 -0.12370643764734268 4456788 6 -1
6.4928717613220215 4.792684078216553 -0.18555966019630432 4456788 6 -1
6.370694637298584 4.957021713256836 -0.06185321882367134 4456788 6 -1
5.837114334106445 5.49808406829834 -0.9277982711791992 2912910 0 -1
