VERSION .7
FIELDS x y z rgb label object
SIZE 4 4 4 4 4 4
TYPE F F F I I I
COUNT 1 1 1 1 1 1
WIDTH 679
HEIGHT 1
POINTS 679
VIEWPOINT 0 0 0 1 0 0 0
DATA ascii
-1.2889034748077393 1.7992857694625854 -0.01695975288748741 4456788 0 -1
-1.5417057275772095 1.5848588943481445 -0.10175852477550507 2264205 0 -1
-1.42357337474823 1.6927011013031006 0.08479876816272736 2264205 0 -1
-1.1363035440444946 1.8994218111038208 0 11197490 0 -1
-1.427983045578003 1.732724905014038 0.05162748694419861 4456788 0 -1
-1.1521673202514648 1.9259395599365234 -0.08604580909013748 4456788 0 -1
-1.3356385231018066 1.7916908264160156 0.22371910512447357 4456788 0 -1
-1.445527195930481 1.7188053131103516 -0.017209161072969437 4456788 0 -1
-1.393287181854248 1.7601559162139893 -0.06883664429187775 4456788 0 -1
-1.3391189575195312 1.7963597774505615 -0.15488246083259583 4456788 0 -1
-1.2939614057540894 1.8063466548919678 -0.3269740641117096 4456788 0 -1
-1.307742714881897 1.825585126876831 -0.03441832214593887 4456788 0 -1
-1.298029899597168 1.8120262622833252 -0.275346577167511 4456788 0 -1
-1.3054367303848267 1.8223658800125122 -0.1376732885837555 4456788 0 -1
-1.5924919843673706 1.5678186416625977 -0.22371910512447357 3302798 0 -1
-1.4627788066864014 1.7042343616485596 0 3302798 0 -1
-1.3202520608901978 1.8430479764938354 0.2269614040851593 4456788 0 -1
-1.3539103269577026 1.8162016868591309 0.24441997706890106 4456788 0 -1
-1.3559995889663696 1.8190041780471802 0.20950284600257874 4456788 0 -1
-1.3385438919067383 1.7955882549285889 -0.41900569200515747 4456788 0 -1
-1.3614085912704468 1.8262600898742676 -0.052375711500644684 4456788 0 -1
-1.3791865110397339 1.8135441541671753 -0.017458569258451462 4456788 0 -1
-1.3559995889663696 1.8190041780471802 0.20950284600257874 4456788 0 -1
-1.2923299074172974 1.8403446674346924 0.366629958152771 4456788 0 -1
-1.3801875114440918 1.7789223194122314 -0.34917140007019043 4456788 0 -1
-1.614277720451355 1.5892667770385742 -0.24441997706890106 3302798 0 -1
-1.4839348793029785 1.7288826704025269 -0.017458569258451462 3302798 0 -1
-1.3395261764526367 1.8330824375152588 0.19204427301883698 8705099 0 -1
-1.170193076133728 1.9169055223464966 0.38408854603767395 8705099 0 -1
-1.3811817169189453 1.8527847528457642 0.017707977443933487 4456788 0 -1
-1.3808573484420776 1.8523496389389038 0.05312393233180046 4456788 0 -1
-1.3779339790344238 1.8484281301498413 0.15937180817127228 4456788 0 -1
-1.3771615028381348 1.847391963005066 0.17707978188991547 4456788 0 -1
-1.354478120803833 1.8535434007644653 0.2656196653842926 4456788 0 -1
-1.3786247968673706 1.8493547439575195 0.1416638195514679 4456788 0 -1
-1.398889183998108 1.8394519090652466 0.017707977443933487 4456788 0 -1
-1.3329442739486694 1.860766053199768 0.31874361634254456 4456788 0 -1
-1.356732726097107 1.8566287755966187 0.23020371794700623 4456788 0 -1
-1.3808573484420776 1.8523496389389038 0.05312393233180046 4456788 0 -1
-1.3779339790344238 1.8484281301498413 0.15937180817127228 4456788 0 -1
-1.39827299118042 1.8386417627334595 -0.07083190977573395 4456788 0 -1
-1.3824056386947632 1.817777156829834 -0.35415956377983093 4456788 0 -1
-1.3556431531906128 1.818526029586792 -0.44269946217536926 4600703 0 -1
-1.2127407789230347 1.9082592725753784 -0.47811540961265564 4600703 0 -1
-1.3763072490692139 1.8462458848953247 0.19478775560855865 8705099 0 -1
-1.418591856956482 1.8653596639633179 0.017957385629415512 4456788 0 -1
-1.4182586669921875 1.8649215698242188 0.053872156888246536 4456788 0 -1
-1.3956918716430664 1.8722493648529053 -0.19753125309944153 4456788 0 -1
-1.3571118116378784 1.8571475744247437 0.4489346444606781 4456788 0 -1
-1.3502205610275269 1.8848834037780762 0.3411903381347656 4456788 0 -1
-1.3502205610275269 1.8848834037780762 0.3411903381347656 4456788 0 -1
-1.4179669618606567 1.8645380735397339 0.07182954251766205 4456788 0 -1
-1.3937097787857056 1.869590401649475 0.23344601690769196 4456788 0 -1
-1.3517181873321533 1.8869739770889282 0.3232329487800598 4456788 0 -1
-1.3722879886627197 1.877915382385254 0.2873181700706482 4456788 0 -1
-1.436211347579956 1.8511313199996948 0.053872156888246536 4456788 0 -1
-1.4000180959701538 1.8780527114868164 -0.07182954251766205 4456788 0 -1
-1.38575279712677 1.8589165210723877 0.3411903381347656 4456788 0 -1
-1.418591856956482 1.8653596639633179 0.017957385629415512 4456788 0 -1
-1.4184669256210327 1.865195393562317 -0.035914771258831024 4456788 0 -1
-1.3198060989379883 1.879472255706787 -0.4668920338153839 4590430 0 -1
-1.2567284107208252 1.9382599592208862 -0.39506250619888306 4590430 0 -1
-1.3759605884552002 1.8829413652420044 0.4551698565483093 4456788 0 -1
-1.381860375404358 1.8910149335861206 0.4005494713783264 4456788 0 -1
-1.368973731994629 1.9110623598098755 0.3459290862083435 4456788 0 -1
-1.3704919815063477 1.9131819009780884 0.32772231101989746 4456788 0 -1
-1.3704919815063477 1.9131819009780884 0.32772231101989746 4456788 0 -1
-1.436266303062439 1.888600468635559 0.12744756042957306 4456788 0 -1
-1.419087290763855 1.9036332368850708 -0.09103397279977798 4456788 0 -1
-1.368973731994629 1.9110623598098755 0.3459290862083435 4456788 0 -1
-1.385363221168518 1.8958083391189575 0.36413589119911194 4456788 0 -1
-1.4141138792037964 1.8969615697860718 0.21848152577877045 4456788 0 -1
-1.3767777681350708 1.846877098083496 0.5826174020767212 4456788 0 -1
-1.6209732294082642 1.6663453578948975 -0.4915834367275238 4523353 0 -1
-1.4381678104400635 1.8911008834838867 0.036413587629795074 4523353 0 -1
-1.5271692276000977 1.8158818483352661 0.12744756042957306 4590430 0 -1
-1.3892658948898315 1.939389944076538 0.3322116434574127 4456788 0 -1
-1.392090082168579 1.9433324337005615 0.295299232006073 4456788 0 -1
-1.3892658948898315 1.939389944076538 0.3322116434574127 4456788 0 -1
-1.3892658948898315 1.939389944076538 0.3322116434574127 4456788 0 -1
-1.3892658948898315 1.939389944076538 0.3322116434574127 4456788 0 -1
-1.3877267837524414 1.9372413158416748 0.3506678342819214 4456788 0 -1
-1.3892658948898315 1.939389944076538 0.3322116434574127 4456788 0 -1
-1.396890640258789 1.9115831851959229 0.4429488480091095 4456788 0 -1
-1.406060814857483 1.88615882396698 0.5167736411094666 4456788 0 -1
-1.4189820289611816 1.9034919738769531 0.40603646636009216 4456788 0 -1
-1.4084386825561523 1.8893485069274902 0.4983174800872803 4456788 0 -1
-1.5535093545913696 1.7370431423187256 0.609054684638977 4456788 0 -1
-1.5920087099075317 1.7800908088684082 0.31375545263290405 4523353 0 -1
-1.6402374505996704 1.7591439485549927 -0.12919341027736664 4590430 0 -1
-1.6183663606643677 1.7723801136016846 -0.20301823318004608 4725613 0 -1
-1.694777488708496 1.7051646709442139 -0.1476496160030365 3692940 0 -1
-1.3018368482589722 2.048452854156494 0.2618785500526428 4456788 0 -1
-1.29823637008667 2.0427873134613037 0.3179953694343567 4456788 0 -1
-1.3007152080535889 2.0466878414154053 0.2805841565132141 4456788 0 -1
-1.3090920448303223 2.0190207958221436 0.4115234315395355 4456788 0 -1
-1.4031010866165161 1.958703637123108 0.39281782507896423 4456788 0 -1
-1.3018368482589722 2.048452854156494 0.2618785500526428 4456788 0 -1
-1.2923299074172974 2.0334935188293457 0.39281782507896423 4456788 0 -1
-1.580810546875 1.7675697803497314 0.5798739194869995 4456788 0 -1
-1.5892504453659058 1.7404934167861938 0.6359907388687134 4456788 0 -1
-1.580810546875 1.7675697803497314 0.5798739194869995 4456788 0 -1
-1.585793137550354 1.7367069721221924 0.6546963453292847 4456788 0 -1
-1.580810546875 1.7675697803497314 0.5798739194869995 4456788 0 -1
-1.735825538635254 1.5624252557754517 0.7108132243156433 4523353 0 -1
-1.5989807844161987 1.7511496543884277 0.5798739194869995 4725613 0 -1
-1.3127144575119019 2.065568685531616 0.36014536023139954 4456788 0 -1
-1.3141703605651855 2.067859649658203 0.3411903381347656 4456788 0 -1
-1.3141703605651855 2.067859649658203 0.3411903381347656 4456788 0 -1
-1.3155461549758911 2.0700244903564453 0.3222353160381317 4456788 0 -1
-1.3956950902938843 2.0275139808654785 0.24641524255275726 4456788 0 -1
-1.316841959953308 2.072063446044922 0.3032802939414978 4456788 0 -1
2.1517181396484375 1.199112057685852 -0.22746022045612335 4456788 0 -1
-1.5222748517990112 1.923107385635376 0.3222353160381317 4456788 0 -1
-1.3993504047393799 1.953467845916748 0.5876055955886841 4456788 0 -1
-1.604925274848938 1.794533371925354 0.5686505436897278 4456788 0 -1
-1.5987451076507568 1.7876231670379639 0.6065605878829956 4456788 0 -1
-1.5886763334274292 1.7763649225234985 0.6634256839752197 4456788 0 -1
-1.8573737144470215 1.6334699392318726 -0.037910036742687225 4456788 0 -1
-1.8575372695922852 1.6336138248443604 -0.018955018371343613 4590430 0 -1
-1.3992867469787598 2.073641777038574 0.1536354124546051 4456788 0 -1
-1.3999050855636597 2.0745580196380615 0.13443098962306976 4456788 0 -1
-1.3999050855636597 2.0745580196380615 0.13443098962306976 4456788 0 -1
-1.4004408121109009 2.0753519535064697 0.11522655934095383 4456788 0 -1
-1.4169495105743408 2.0583901405334473 0.19204427301883698 4456788 0 -1
-1.4177442789077759 2.059544801712036 0.17283983528614044 4456788 0 -1
-1.504223108291626 1.9779595136642456 0.32647526264190674 4456788 0 -1
-1.8818128108978271 1.6549630165100098 -0.038408853113651276 4456788 0 -1
-1.8815364837646484 1.6547200679779053 -0.05761327967047691 4456788 0 -1
-1.8819786310195923 1.6551088094711304 -0.019204426556825638 4590430 0 -1
-1.8820338249206543 1.655157446861267 0 4657508 0 -1
-1.4186283349990845 2.102304697036743 0.11672300845384598 4456788 0 -1
-1.4180856943130493 2.1015005111694336 0.13617683947086334 4456788 0 -1
-1.4180856943130493 2.1015005111694336 0.13617683947086334 4456788 0 -1
-1.4186283349990845 2.102304697036743 0.11672300845384598 4456788 0 -1
-1.4186283349990845 2.102304697036743 0.11672300845384598 4456788 0 -1
-1.419087290763855 2.10298490524292 0.09726917743682861 4456788 0 -1
-1.4186283349990845 2.102304697036743 0.11672300845384598 4456788 0 -1
-1.4180856943130493 2.1015005111694336 0.13617683947086334 4456788 0 -1
-1.438907504081726 2.0902884006500244 0.07781533896923065 4456788 0 -1
-1.3794842958450317 2.0442960262298584 0.6030688881874084 4456788 0 -1
-1.3820998668670654 2.0481719970703125 0.5836150646209717 4456788 0 -1
-1.2097094058990479 2.106165647506714 0.7392457127571106 4456788 0 -1
2.0779614448547363 1.3682316541671753 -0.5057997107505798 4456788 0 -1
2.1644887924194336 1.1613224744796753 -0.641976535320282 4456788 0 -1
-1.8432317972183228 1.6974730491638184 -0.4085305333137512 4456788 0 -1
-1.9062519073486328 1.676456093788147 -0.038907669484615326 4456788 0 -1
-1.436815857887268 2.1292572021484375 0.11821945756673813 4456788 0 -1
-1.436815857887268 2.1292572021484375 0.11821945756673813 4456788 0 -1
-1.436815857887268 2.1292572021484375 0.11821945756673813 4456788 0 -1
-1.3915948867797852 2.0622429847717285 0.6502070426940918 4456788 0 -1
-1.3998191356658936 2.0744307041168213 0.5910972952842712 4456788 0 -1
-1.5758429765701294 2.031102418899536 -0.059109728783369064 4456788 0 -1
-1.4972705841064453 2.090162515640259 -0.039406485855579376 4456788 0 -1
-1.4963470697402954 2.0888733863830566 -0.09851621836423874 4456788 0 -1
-1.971008539199829 1.6129149198532104 -0.3546583652496338 4456788 0 -1
-1.8949304819107056 1.7056363821029663 -0.3349551260471344 4456788 0 -1
-1.5543155670166016 2.043828010559082 0.13792270421981812 4456788 0 -1
-1.4175382852554321 2.100689172744751 0.5985795259475708 4456788 0 -1
-1.512791395187378 2.1118292808532715 -0.17957386374473572 4456788 0 -1
-1.5142186880111694 2.1138217449188232 -0.1396685540676117 4456788 0 -1
-1.8193254470825195 1.9512146711349487 -0.08180586993694305 2264205 0 -1
-1.3483695983886719 2.3001561164855957 -0.12270880490541458 2264205 0 -1
-1.6684314012527466 2.1077487468719482 0.26911139488220215 3692940 0 -1
-1.643577218055725 2.1184051036834717 0.3312140107154846 2782862 0 -1
-1.444963812828064 2.184480905532837 0.6624280214309692 2782862 0 -1
-1.9887943267822266 1.790123701095581 -0.3726157546043396 2264205 0 -1
-1.8397258520126343 1.973093867301941 -0.14490613341331482 2264205 0 -1
-1.65529203414917 2.1335041522979736 0.08280350267887115 3257723 0 -1
-1.7380566596984863 2.0666377544403076 0.08280350267887115 11918891 0 -1
-1.632293701171875 2.146364450454712 0.1656070053577423 12640037 0 -1
-1.6871806383132935 2.131434917449951 0.2933039665222168 3692940 0 -1
-1.881036639213562 1.9752895832061768 -0.18855255842208862 2264205 0 -1
-1.7146925926208496 2.123054027557373 0.1676022708415985 3257723 0 -1
-1.7326858043670654 2.1024534702301025 0.23045311868190765 3651704 0 -1
-1.8016715049743652 2.056492328643799 0.020950283855199814 7589974 0 -1
-1.7744373083114624 2.109896183013916 0.23319661617279053 3651704 0 -1
-1.789027214050293 1.9592821598052979 0.7843886017799377 5949540 0 -1
-2.039599895477295 1.9643547534942627 -0.02169850841164589 4456788 0 -1
-2.062861919403076 1.9867584705352783 -0.04389583319425583 4456788 0 -1
-2.0189712047576904 2.0313453674316406 -0.04389583319425583 4471684 0 -1
-2.0642905235290527 2.0323073863983154 -0.02219732478260994 4471684 0 -1
-2.042153835296631 2.0546700954437256 0 4341894 0 -1
-1.9906638860702515 2.3192555904388428 -0.1406661868095398 4456788 0 -1
-1.9913079738616943 2.3200061321258545 -0.11722182482481003 4456788 0 -1
-1.992537021636963 2.3214378356933594 -0.04688873142004013 4523353 0 -1
-1.9927124977111816 2.3216423988342285 0.023444365710020065 4590430 0 -1
-1.998777985572815 2.328709125518799 0.37910038232803345 4456788 0 -1
-1.9897511005401611 2.365915060043335 0.07108131796121597 4456788 0 -1
-2.0130245685577393 2.3453073501586914 -0.09477509558200836 4456788 0 -1
-2.0130245685577393 2.3453073501586914 -0.09477509558200836 4456788 0 -1
-2.0134384632110596 2.345789670944214 -0.07108131796121597 4523353 0 -1
-2.0137343406677246 2.3461341857910156 -0.04738754779100418 4590430 0 -1
-2.013911724090576 2.3463406562805176 -0.02369377389550209 4657508 0 -1
-2.0124921798706055 2.344686985015869 -0.11846886575222015 4724328 0 -1
-2.034632682800293 2.3704822063446045 -0.07182954251766205 4456788 0 -1
-2.0342142581939697 2.369994640350342 -0.09577272832393646 4456788 0 -1
-2.034632682800293 2.3704822063446045 -0.07182954251766205 4523353 0 -1
-2.034632682800293 2.3704822063446045 -0.07182954251766205 4590430 0 -1
-2.035170555114746 2.3711087703704834 0 4657508 0 -1
-2.151559591293335 2.3075337409973145 -0.1209629476070404 4456788 0 -1
-2.150041103363037 2.3059048652648926 -0.16934813559055328 4456788 0 -1
-2.151559591293335 2.3075337409973145 -0.1209629476070404 4523353 0 -1
-2.1521289348602295 2.3081440925598145 -0.09677036106586456 4590430 0 -1
-2.146850824356079 2.351158618927002 -0.19553598761558533 4456788 0 -1
-2.1450600624084473 2.3984804153442383 -0.17283983528614044 4456788 0 -1
-2.829683780670166 1.6350107192993164 -0.5851114988327026 4657508 0 -1
-2.880963087081909 1.6646403074264526 0.41102463006973267 4590430 0 -1
-2.8781280517578125 1.6630022525787354 0.43671366572380066 4657508 0 -1
-2.7776012420654297 1.7733389139175415 0.6165369153022766 4600703 0 -1
-2.54331111907959 1.978944182395935 0.9248054027557373 4600703 0 -1
-2.892799139022827 1.7303341627120972 0.3112613558769226 4456788 0 -1
-2.8803536891937256 1.7228899002075195 0.4409535825252533 4523353 0 -1
-2.8883421421051025 1.7276681661605835 0.36313825845718384 4590430 0 -1
-2.8858535289764404 1.726179599761963 0.38907670974731445 4657508 0 -1
-2.8741538524627686 1.7191814184188843 0.4928304851055145 4724328 0 -1
-2.830064296722412 1.7499797344207764 0.6225227117538452 4600703 0 -1
-2.8672494888305664 1.715051531791687 0.5447073578834534 3757452 0 -1
-2.8883421421051025 1.7276681661605835 0.36313825845718384 3692940 0 -1
-2.8341028690338135 1.7524769306182861 0.5965842604637146 2328718 0 -1
-2.916114568710327 1.744280457496643 0.366629958152771 4456788 0 -1
-2.918452024459839 1.7456785440444946 0.34044212102890015 4456788 0 -1
-2.913602113723755 1.7427774667739868 0.39281782507896423 4456788 0 -1
-2.913602113723755 1.7427774667739868 0.39281782507896423 4523353 0 -1
-2.913602113723755 1.7427774667739868 0.39281782507896423 4590430 0 -1
-2.913602113723755 1.7427774667739868 0.39281782507896423 4657508 0 -1
-2.9109137058258057 1.7411695718765259 0.41900569200515747 4724328 0 -1
-2.887131690979004 1.7269442081451416 0.602320671081543 4600703 0 -1
-2.905008316040039 1.7376371622085571 0.47138139605522156 4341894 0 -1
-2.901789903640747 1.7357120513916016 0.4975692331790924 3757452 0 -1
-2.916114568710327 1.744280457496643 0.366629958152771 3692940 0 -1
-2.8830175399780273 1.7244833707809448 0.6285085082054138 2328718 0 -1
-2.915088653564453 1.8025548458099365 0.396558940410614 4456788 0 -1
-2.915088653564453 1.8025548458099365 0.396558940410614 4456788 0 -1
-2.915088653564453 1.8025548458099365 0.396558940410614 4590430 0 -1
-2.915088653564453 1.8025548458099365 0.396558940410614 4657508 0 -1
-2.943887233734131 1.760892629623413 0.37012168765068054 4724328 0 -1
-2.915088653564453 1.8025548458099365 0.396558940410614 4726897 0 -1
-2.9413506984710693 1.7593753337860107 0.396558940410614 4729209 0 -1
-2.95885968208313 1.7096494436264038 0.4758707284927368 4600703 0 -1
-3.0293924808502197 1.6882236003875732 0.3202400505542755 4657508 0 -1
-2.9074785709381104 1.8562581539154053 0.48036009073257446 4657508 0 -1
-2.2592506408691406 2.686363935470581 -0.5165242552757263 4456788 0 -1
-2.8988654613494873 1.9665876626968384 0.7407422065734863 4456788 0 -1
-2.955080032348633 1.9457695484161377 0.5486978888511658 4456788 0 -1
-2.2465403079986572 2.617368459701538 0.9602213501930237 4456788 0 -1
-2.974404811859131 1.9584938287734985 0.609054684638977 4456788 0 -1
-2.9133851528167725 1.9183155298233032 0.9412662982940674 4456788 0 -1
-2.898632287979126 1.966429591178894 0.885897696018219 4456788 0 -1
-2.9948253631591797 1.9719398021697998 -0.4429488480091095 4456788 0 -1
-2.9198455810546875 1.9225693941116333 1.033547282218933 4456788 0 -1
-2.9304957389831543 1.988045573234558 0.865945041179657 4456788 0 -1
-2.2521402835845947 2.7327632904052734 0.865945041179657 4456788 0 -1
-2.9126627445220947 1.9759477376937866 0.9497461915016174 4456788 0 -1
-2.9911365509033203 2.029184341430664 -0.4748730957508087 4456788 0 -1
-2.429091215133667 2.7160675525665283 0.11173484474420547 4456788 0 -1
-2.2925260066986084 2.6167712211608887 -1.0894147157669067 4590430 0 -1
-3.1625876426696777 1.7624506950378418 0.6482117772102356 4456788 0 -1
-2.710470199584961 2.4397077560424805 0.47911304235458374 4456788 0 -1
-2.4109792709350586 2.5857596397399902 1.0145922899246216 4456788 0 -1
-3.039395332336426 2.061923027038574 0.1972818374633789 4456788 0 -1
-2.7663562297821045 2.3761515617370605 0.47911304235458374 4456788 0 -1
-2.119096279144287 2.9582197666168213 0.5354793071746826 4456788 0 -1
-2.9186277389526367 2.212601661682129 0.3381974399089813 4456788 0 -1
-2.7553703784942627 2.4232144355773926 0.2536480724811554 4456788 0 -1
-2.8650338649749756 2.229275941848755 0.5918455123901367 4523353 0 -1
-2.757969856262207 2.4255006313323975 0.1972818374633789 4523353 0 -1
-2.720165967941284 2.448435068130493 0.36638057231903076 4590430 0 -1
-2.728621482849121 2.4560458660125732 0.22546495497226715 4657508 0 -1
-2.722181558609009 2.450249195098877 0.3381974399089813 4724328 0 -1
-2.025860071182251 2.9429495334625244 0.8736767172813416 4725613 0 -1
-1.9114700555801392 3.0687365531921387 0.6763948798179626 4725613 0 -1
-2.813011884689331 2.358919382095337 0.22546495497226715 2588302 0 -1
-2.461845874786377 2.6403136253356934 0.7045779824256897 2588302 0 -1
-1.8612462282180786 3.1112213134765625 0.6200286149978638 2588302 0 -1
-3.3315651416778564 1.5001100301742554 0.42274680733680725 2139270 0 -1
3.343931198120117 1.5056781768798828 -0.28183120489120483 2139270 0 -1
-3.0662927627563477 2.080170154571533 -0.19902770221233368 4456788 0 -1
-2.869576930999756 2.348231077194214 0.14216263592243195 4456788 0 -1
-2.157761573791504 3.0121960639953613 0.19902770221233368 4456788 0 -1
-3.1514675617218018 1.9487205743789673 -0.19902770221233368 4456788 0 -1
-2.984626531600952 2.2030887603759766 0.0852975845336914 4456788 0 -1
-2.776472568511963 2.441772699356079 0.31275781989097595 4456788 0 -1
-2.8979885578155518 2.3130764961242676 0.14216263592243195 4456788 0 -1
-2.644181966781616 2.5466325283050537 0.5402180552482605 4456788 0 -1
-2.375213146209717 2.711153507232666 0.8814083933830261 4456788 0 -1
-2.24511456489563 2.9521853923797607 0.11373011022806168 4456788 0 -1
-2.778140068054199 2.3862733840942383 0.5970830917358398 4456788 0 -1
-2.0510571002960205 3.039518356323242 0.5686505436897278 4456788 0 -1
-2.5991287231445312 2.558858871459961 0.6823806762695312 4456788 0 -1
-2.6876559257507324 2.5315520763397217 0.3696228563785553 4456788 0 -1
-3.153693437576294 1.9500969648361206 -0.14216263592243195 4456788 0 -1
-2.9271745681762695 2.2776272296905518 0.11373011022806168 4456788 0 -1
-2.644181966781616 2.5466325283050537 0.5402180552482605 4456788 0 -1
-2.0534605979919434 3.0430800914764404 0.5402180552482605 4456788 0 -1
-2.7653682231903076 2.432007074356079 0.4549204409122467 4456788 0 -1
-2.861466646194458 2.3415942192077637 0.31275781989097595 4456788 0 -1
-2.9499433040618896 2.236341953277588 0.2558927536010742 4456788 0 -1
-2.784830093383789 2.392019510269165 0.5402180552482605 4456788 0 -1
-2.796165943145752 2.401756525039673 0.42648792266845703 4523353 0 -1
-2.7653682231903076 2.432007074356079 0.4549204409122467 4590430 0 -1
-2.7679219245910645 2.434252977371216 0.42648792266845703 4657508 0 -1
-2.798577308654785 2.4038279056549072 0.39805540442466736 4724328 0 -1
-2.7703089714050293 2.436352252960205 0.39805540442466736 4725613 0 -1
-2.836483955383301 2.3786025047302246 0.2558927536010742 4147337 0 -1
-2.836483955383301 2.3786025047302246 0.2558927536010742 2977934 0 -1
-2.9566357135772705 2.241415500640869 0.05686505511403084 2588302 0 -1
-2.6780760288238525 2.5225284099578857 0.48335298895835876 2588302 0 -1
3.610507011413574 0.8543282747268677 -0.05686505511403084 2588302 0 -1
-2.9555935859680176 2.2406256198883057 0.11373011022806168 2134668 0 -1
-2.5783581733703613 2.594160795211792 0.6255156397819519 2134668 0 -1
-2.852654218673706 2.3343827724456787 0.42648792266845703 2139270 0 -1
-2.142460823059082 2.9908363819122314 0.48335298895835876 2666112 0 -1
-3.151676893234253 2.012164831161499 -0.17209161818027496 4456788 0 -1
-2.8311636447906494 2.4318177700042725 0.28681936860084534 4456788 0 -1
-2.8437557220458984 2.3847005367279053 0.4875929057598114 4456788 0 -1
-2.7769157886505127 2.4995157718658447 0.22945548593997955 4456788 0 -1
-2.6043524742126465 2.620314359664917 0.602320671081543 4456788 0 -1
-3.4353597164154053 1.468721866607666 0.22945548593997955 4456788 0 -1
-2.684680461883545 2.585636854171753 0.3441832363605499 4456788 0 -1
-2.4527714252471924 2.7425451278686523 0.6883664727210999 4456788 0 -1
-2.6987428665161133 2.54199481010437 0.5162748694419861 4456788 0 -1
-2.8491857051849365 2.389253854751587 0.4302290380001068 4456788 0 -1
-2.222364902496338 2.981189012527466 0.4302290380001068 4456788 0 -1
-2.8354241847991943 2.4354772567749023 0.20077355206012726 4456788 0 -1
-2.860530138015747 2.168558120727539 -1.0612316131591797 4456788 0 -1
-2.6857898235321045 2.529794216156006 0.6310026049613953 4456788 0 -1
-2.0862653255462646 3.0306994915008545 0.6883664727210999 4456788 0 -1
-2.8123741149902344 2.4156785011291504 0.5162748694419861 4456788 0 -1
-2.8153181076049805 2.4182074069976807 0.4875929057598114 4523353 0 -1
-2.8153181076049805 2.4182074069976807 0.4875929057598114 4590430 0 -1
-2.8123741149902344 2.4156785011291504 0.5162748694419861 4657508 0 -1
-2.81809139251709 2.4205892086029053 0.4589109718799591 4724328 0 -1
-2.8465569019317627 2.387049436569214 0.4589109718799591 4725613 0 -1
-2.864064931869507 2.401731252670288 0.20077355206012726 4147337 0 -1
-2.86136531829834 2.3994674682617188 0.25813743472099304 2977934 0 -1
-2.9829213619232178 2.2613425254821777 0 2588302 0 -1
-2.706726312637329 2.5495147705078125 0.4302290380001068 2588302 0 -1
-3.6708567142486572 0.7300756573677063 -0.05736387148499489 2588302 0 -1
-3.011514902114868 2.2229361534118652 -0.028681935742497444 2134668 0 -1
-2.7397713661193848 2.523116111755371 0.3728651702404022 2134668 0 -1
-2.5792253017425537 2.6514194011688232 0.5736387372016907 2134668 0 -1
-2.853928327560425 2.39323091506958 0.3728651702404022 2139270 0 -1
-3.0084187984466553 2.2206509113311768 0.17209161818027496 2666112 0 -1
-2.1975247859954834 3.007215738296509 0.3728651702404022 2666112 0 -1
-3.148977041244507 2.0734407901763916 -0.20251941680908203 4456788 0 -1
-2.4098682403564453 2.8076565265655518 0.7522149682044983 4456788 0 -1
-2.4258902072906494 2.76899790763855 0.8390089869499207 4456788 0 -1
-2.4018988609313965 2.7983715534210205 0.8100776672363281 4456788 0 -1
-2.2661023139953613 2.979783296585083 0.4918328523635864 4456788 0 -1
-2.733323097229004 2.347777843475342 1.1283224821090698 4456788 0 -1
-2.3976821899414062 2.793458938598633 0.8390089869499207 4456788 0 -1
-2.2683346271514893 2.9827182292938232 0.4629015028476715 4456788 0 -1
-2.833686590194702 2.4339847564697266 0.5496955513954163 4456788 0 -1
-2.836829423904419 2.4366843700408936 0.520764172077179 4456788 0 -1
-2.833686590194702 2.4339847564697266 0.5496955513954163 4523353 0 -1
-2.833686590194702 2.4339847564697266 0.5496955513954163 4590430 0 -1
-2.8303701877593994 2.431136131286621 0.5786268711090088 4657508 0 -1
-2.836829423904419 2.4366843700408936 0.520764172077179 4724328 0 -1
-2.7814314365386963 2.276099920272827 1.1572537422180176 4725613 0 -1
-3.582322597503662 1.1756610870361328 0.20251941680908203 2977934 0 -1
-3.64524245262146 0.9836658835411072 0.02893134392797947 2588302 0 -1
-3.121281385421753 2.117474317550659 -0.17358806729316711 2588302 0 -1
-2.9798409938812256 2.3186070919036865 0.02893134392797947 2588302 0 -1
-2.988919734954834 2.265889883041382 0.4339701533317566 2139270 0 -1
-2.3327462673187256 3.0066745281219482 0.14590376615524292 4456788 0 -1
-2.33418607711792 3.0085301399230957 0.05836150422692299 4456788 0 -1
-2.3046703338623047 3.0304975509643555 0.08754225820302963 4456788 0 -1
-2.2752392292022705 2.99179744720459 0.6127958297729492 4456788 0 -1
-2.511676788330078 2.8084099292755127 0.5544342994689941 4456788 0 -1
-2.2970762252807617 3.0205118656158447 0.320988267660141 4456788 0 -1
-2.4380621910095215 2.8405041694641113 0.7003380656242371 4456788 0 -1
-2.285637855529785 3.0054709911346436 0.49607279896736145 4456788 0 -1
-2.426701784133911 2.827268600463867 0.7878803014755249 4456788 0 -1
-2.2752392292022705 2.99179744720459 0.6127958297729492 4456788 0 -1
-2.994922161102295 2.3303415775299072 0.320988267660141 4456788 0 -1
-2.832383155822754 2.490943431854248 0.5252535343170166 4456788 0 -1
-2.659409284591675 2.6182055473327637 0.7586995959281921 4456788 0 -1
-2.88360595703125 2.4181177616119385 0.5836150646209717 4523353 0 -1
-2.88360595703125 2.4181177616119385 0.5836150646209717 4523353 0 -1
-2.8595800399780273 2.397970199584961 0.7586995959281921 4590430 0 -1
-2.8353943824768066 2.4354517459869385 0.7295188307762146 4657508 0 -1
-2.8547699451446533 2.452094316482544 0.5836150646209717 4724328 0 -1
-2.9760873317718506 2.3754122257232666 0.05836150422692299 4725613 0 -1
-2.8589580059051514 2.514314889907837 -0.08754225820302963 4725613 0 -1
-2.9735944271087646 2.313746452331543 0.5544342994689941 4726897 0 -1
-2.8722240924835205 2.4670865535736084 0.4085305333137512 4726897 0 -1
-2.3543436527252197 3.0345113277435303 0.02943016029894352 4456788 0 -1
-2.3510236740112305 3.0302321910858154 0.20601113140583038 4456788 0 -1
-2.3820929527282715 3.0093255043029785 0.14715079963207245 4456788 0 -1
-2.353790760040283 3.0337984561920166 0.08829048275947571 4456788 0 -1
-2.3541364669799805 3.0342440605163574 -0.05886032059788704 4456788 0 -1
-2.354412794113159 3.0346004962921143 0 4456788 0 -1
-2.323890447616577 3.0557708740234375 0.11772064119577408 4456788 0 -1
-2.955293655395508 2.41837477684021 0.41202226281166077 4456788 0 -1
-2.3194475173950195 3.049928665161133 0.2648714482784271 4456788 0 -1
-2.1768088340759277 3.162230968475342 0.11772064119577408 4456788 0 -1
-2.309574604034424 3.0369465351104736 0.44145241379737854 4456788 0 -1
-2.404470205307007 2.9176013469696045 0.6768937110900879 4456788 0 -1
-2.2946856021881104 3.0173683166503906 0.6180333495140076 4456788 0 -1
-2.9723589420318604 2.4323394298553467 0.02943016029894352 4456788 0 -1
-2.814312696456909 2.303007125854492 -1.2360666990280151 4523353 0 -1
-2.682251453399658 2.470144748687744 -1.2066365480422974 4523353 0 -1
-3.001523971557617 2.39571475982666 -0.05886032059788704 4590430 0 -1
-2.8543903827667236 2.56925106048584 -0.05886032059788704 4590430 0 -1
-2.777336597442627 2.6160237789154053 0.44145241379737854 4657508 0 -1
-2.7558538913726807 2.5957887172698975 0.6474635601043701 4724328 0 -1
-3.2972729206085205 1.9051870107650757 -0.5003127455711365 4725613 0 -1
-2.403409719467163 3.036255359649658 0.08903870731592178 4456788 0 -1
-2.3737380504608154 3.059508800506592 0.08903870731592178 4456788 0 -1
-2.374295711517334 3.060227632522583 -0.029679568484425545 4456788 0 -1
-2.374086618423462 3.059957981109619 0.05935913696885109 4456788 0 -1
-2.374295711517334 3.060227632522583 -0.029679568484425545 4456788 0 -1
-2.9968442916870117 2.452376365661621 0.08903870731592178 4456788 0 -1
-2.967172622680664 2.488194704055786 -0.08903870731592178 4456788 0 -1
-3.739515781402588 1.0091055631637573 0.029679568484425545 4523353 0 -1
-2.802229166030884 2.34987735748291 -1.276221513748169 4523353 0 -1
-3.3435041904449463 1.8632720708847046 -0.5935913920402527 4590430 0 -1
-3.1753408908843994 2.217395067214966 -0.05935913696885109 4590430 0 -1
-2.802229166030884 2.34987735748291 -1.276221513748169 4590430 0 -1
-2.424175977706909 3.0624895095825195 -0.02992897666990757 4456788 0 -1
-2.8176698684692383 2.362825393676758 -1.3168749809265137 4456788 0 -1
-2.9204816818237305 2.3310296535491943 1.1373010873794556 4724328 0 -1
-2.2331349849700928 3.24405574798584 -0.030178384855389595 4456788 0 -1
-3.002829074859619 2.5180952548980713 -0.392318993806839 4456788 0 -1
-2.857290267944336 2.396049976348877 -1.2674921751022339 4456788 0 -1
-2.959106683731079 2.5417139530181885 -0.5432109236717224 4523353 0 -1
-3.2832579612731934 2.161858081817627 0.24142707884311676 4657508 0 -1
-3.071237802505493 2.3897225856781006 -0.7911226153373718 4456788 0 -1
-2.9896273612976074 2.56792950630188 -0.4868446886539459 4456788 0 -1
-3.0426900386810303 2.5515215396881104 -0.03042779304087162 4456788 0 -1
-2.9866855144500732 2.5654025077819824 -0.5172724723815918 4523353 0 -1
-3.041242837905884 2.244879961013794 -1.3191196918487549 4523353 0 -1
2.776472568511963 3.3013670444488525 0.3648841083049774 4536450 5 -1
2.776472568511963 3.3013670444488525 0.3648841083049774 4471684 5 -1
2.795445442199707 3.3239266872406006 0.40104830265045166 4664956 5 -1
2.795445442199707 3.3239266872406006 0.40104830265045166 4600703 5 -1
2.795445442199707 3.3239266872406006 0.40104830265045166 4536450 5 -1
2.795445442199707 3.3239266872406006 0.40104830265045166 4471684 5 -1
2.826629877090454 3.2932114601135254 0.43446898460388184 4017546 5 -1
2.865729570388794 3.2710461616516113 0.3342069089412689 3562893 5 -1
2.8639516830444336 3.269016981124878 0.3676275908946991 3432845 5 -1
2.8182239532470703 3.3510115146636963 0.37037110328674316 4664956 5 -1
2.8182239532470703 3.3510115146636963 0.37037110328674316 4600703 5 -1
2.8163068294525146 3.3487319946289062 0.40404120087623596 4536450 5 -1
2.8142216205596924 3.34625244140625 0.43771129846572876 4212104 5 -1
2.806952714920044 3.33760929107666 0.5387215614318848 4147337 5 -1
2.88336181640625 3.2911722660064697 0.40404120087623596 3562893 5 -1
2.88336181640625 3.2911722660064697 0.40404120087623596 3432845 5 -1
2.9542577266693115 3.235403060913086 0.33670100569725037 2782862 5 -1
2.839099645614624 3.3758339881896973 0.37311458587646484 4600703 5 -1
2.8350677490234375 3.371039628982544 0.4409535825252533 4536450 5 -1
2.866520881652832 3.3396871089935303 0.4748730957508087 3562893 5 -1
2.9115917682647705 3.323395013809204 0.2713560461997986 3302798 5 -1
2.972271680831909 3.255131483078003 0.40703409910202026 2782862 5 -1
3.009960889816284 3.228163242340088 0.3391950726509094 2588302 5 -1
3.0116491317749023 3.2299740314483643 0.305275559425354 2523534 5 -1
2.974294900894165 3.257347345352173 0.37311458587646484 2458766 5 -1
3.0166196823120117 3.235304832458496 0.1695975363254547 2328718 5 -1
2.829268217086792 3.4330546855926514 0.3075202405452728 4212104 5 -1
2.859975576400757 3.400656223297119 0.3758580684661865 4017546 5 -1
2.8988959789276123 3.377406358718872 0.2733513116836548 3757452 5 -1
2.9342966079711914 3.349311351776123 0.23918241262435913 3302798 5 -1
3.036655902862549 3.25679349899292 0.23918241262435913 2588302 5 -1
3.0337936878204346 3.2537238597869873 0.3075202405452728 2458766 5 -1
3.036655902862549 3.25679349899292 0.23918241262435913 2328718 5 -1
3.0060698986053467 3.2921462059020996 0.10250674933195114 2994813 5 -1
2.9213461875915527 3.403562307357788 0.2409282624721527 4017546 5 -1
2.956845998764038 3.3750498294830322 0.20650994777679443 3432845 5 -1
2.9557149410247803 3.3737587928771973 0.2409282624721527 3302798 5 -1
3.0199079513549805 3.3073010444641113 0.3441832363605499 2782862 5 -1
3.0574700832366943 3.279116630554199 0.275346577167511 2718350 5 -1
3.0574700832366943 3.279116630554199 0.275346577167511 2588302 5 -1
3.0180346965789795 3.3052494525909424 0.3786015510559082 2523534 5 -1
3.028456687927246 3.3166635036468506 0.06883664429187775 2199437 5 -1
3.0265886783599854 3.31461763381958 -0.17209161818027496 2070155 5 -1
3.0273895263671875 3.3154945373535156 0.1376732885837555 2072968 5 -1
-3.1594693660736084 3.110517740249634 -0.9013610482215881 4456788 0 -1
-3.2232470512390137 3.173307418823242 0.10400319844484329 4456788 0 -1
2.868962287902832 3.481219530105591 0.346677303314209 4600703 5 -1
2.8705713748931885 3.4831721782684326 0.3120095729827881 4471684 5 -1
2.8406670093536377 3.517184019088745 0.1733386516571045 4341894 5 -1
2.8077564239501953 3.5470712184906006 0.0693354606628418 4212104 5 -1
2.9453728199005127 3.4315547943115234 0.1386709213256836 4212104 5 -1
2.9051566123962402 3.454378843307495 0.3120095729827881 4017546 5 -1
2.977133274078369 3.3982062339782715 0.24267412722110748 3432845 5 -1
3.0146756172180176 3.3708336353302 0.1386709213256836 3302798 5 -1
3.0417912006378174 3.3312668800354004 0.346677303314209 2782862 5 -1
3.07808256149292 3.3012235164642334 0.3120095729827881 2718350 5 -1
3.1126677989959717 3.2686338424682617 0.3120095729827881 2588302 5 -1
3.0417912006378174 3.3312668800354004 0.346677303314209 2523534 5 -1
3.013878345489502 3.3699421882629395 -0.1733386516571045 2070155 5 -1
3.0504021644592285 3.3406972885131836 0.0693354606628418 2072968 5 -1
3.047534465789795 3.337556838989258 -0.20800639688968658 2139270 5 -1
-3.2806692123413086 3.1596381664276123 -0.1396685540676117 4456788 0 -1
-2.9648187160491943 3.4542105197906494 -0.20950284600257874 4456788 0 -1
-2.719616413116455 3.648226499557495 -0.24441997706890106 4456788 0 -1
-3.17596697807312 3.264864206314087 -0.1396685540676117 4456788 0 -1
-2.966562509536743 3.456242322921753 0.1396685540676117 4456788 0 -1
-2.719616413116455 3.648226499557495 0.24441997706890106 4456788 0 -1
-2.967172622680664 3.4569530487060547 0.10475142300128937 4456788 0 -1
-2.7564289569854736 3.6245317459106445 0.17458570003509521 4456788 0 -1
2.892672538757324 3.5099897384643555 0.2793371081352234 4600703 5 -1
2.9308862686157227 3.4849729537963867 0.17458570003509521 4536450 5 -1
2.9308862686157227 3.4849729537963867 0.17458570003509521 4471684 5 -1
2.896760940551758 3.514950752258301 0.1396685540676117 4341894 5 -1
2.93166184425354 3.4858949184417725 0.1396685540676117 4212104 5 -1
2.93166184425354 3.4858949184417725 0.1396685540676117 4147337 5 -1
2.9288177490234375 3.482512950897217 0.24441997706890106 3757452 5 -1
2.9648187160491943 3.4542105197906494 0.20950284600257874 3238030 5 -1
2.9288177490234375 3.482512950897217 0.24441997706890106 3107982 5 -1
3.0704524517059326 3.3626556396484375 0.17458570003509521 3107982 5 -1
3.0636746883392334 3.3552329540252686 0.34917140007019043 2782862 5 -1
3.100227117538452 3.3249733448028564 0.3142542541027069 2718350 5 -1
2.9901530742645264 3.413067579269409 -0.41900569200515747 2070155 5 -1
3.066929817199707 3.358797788619995 0.2793371081352234 2070922 5 -1
2.9288177490234375 3.482512950897217 0.24441997706890106 2072968 5 -1
2.9972269535064697 3.421142101287842 0.2793371081352234 3257723 5 -1
-3.0186357498168945 3.4455788135528564 -0.2813323736190796 4456788 0 -1
-2.9890687465667725 3.4824635982513428 -0.03516654670238495 4456788 0 -1
2.9835352897644043 3.4760167598724365 -0.2813323736190796 4456788 5 -1
-3.1590373516082764 3.317326784133911 -0.2813323736190796 4456788 0 -1
-2.9890687465667725 3.4824635982513428 0.03516654670238495 4456788 0 -1
2.986962080001831 3.480009078979492 -0.17583273351192474 4456788 5 -1
2.8767917156219482 3.5619122982025146 0.31649893522262573 4726897 5 -1
2.918480634689331 3.5413055419921875 0.0703330934047699 4729209 5 -1
2.9146218299865723 3.536623239517212 0.24616584181785583 4600703 5 -1
2.9518213272094727 3.5098655223846436 0.17583273351192474 4471684 5 -1
2.953209400177002 3.5115160942077637 0.10549964755773544 4341894 5 -1
2.9526021480560303 3.510794162750244 0.1406661868095398 4212104 5 -1
2.9526021480560303 3.510794162750244 0.1406661868095398 4147337 5 -1
3.022902250289917 3.450448751449585 0.1406661868095398 3238030 5 -1
3.0586812496185303 3.4200382232666016 0.10549964755773544 3107982 5 -1
3.021125316619873 3.448420524597168 0.2109992951154709 2977934 5 -1
2.9117157459259033 3.4621779918670654 -0.7736640572547913 2070922 5 -1
2.772932767868042 3.646233320236206 -0.2813323736190796 2006409 5 -1
2.8796560764312744 3.3549907207489014 1.2308292388916016 2006409 0 -1
2.911874532699585 3.533289670944214 0.31649893522262573 9360965 5 -1
-2.8212738037109375 3.6363372802734375 0.4249914586544037 4456788 0 -1
3.008941888809204 3.505617141723633 0.1416638195514679 4456788 5 -1
2.826531410217285 3.643113374710083 -0.31874361634254456 4456788 5 -1
2.9661941528320312 3.5269556045532227 -0.35415956377983093 4456788 5 -1
3.010267972946167 3.507161855697632 0.035415954887866974 4456788 5 -1
2.856539726257324 3.6086997985839844 0.4249914586544037 4725613 5 -1
2.899927854537964 3.5905585289001465 0.24791169166564941 4726897 5 -1
2.9364161491394043 3.5630686283111572 0.21249572932720184 4600703 5 -1
2.974591016769409 3.536939859390259 0.07083190977573395 4341894 5 -1
2.974591016769409 3.536939859390259 0.07083190977573395 4212104 5 -1
3.0435361862182617 3.474000930786133 0.17707978188991547 3238030 5 -1
3.0810978412628174 3.4451029300689697 0.035415954887866974 3107982 5 -1
3.1519274711608887 3.3804216384887695 -0.035415954887866974 2458766 5 -1
2.938143253326416 3.56516432762146 -0.1416638195514679 2271109 5 -1
3.1505391597747803 3.3789327144622803 0.1416638195514679 2271109 5 -1
3.010267972946167 3.507161855697632 0.035415954887866974 6343264 5 -1
3.1133086681365967 3.409590482711792 0.21249572932720184 9360965 5 -1
-2.7019572257995605 3.5529050827026367 1.3196184635162354 4456788 0 -1
-2.5518696308135986 3.562363624572754 1.569275975227356 4456788 0 -1
-2.688814878463745 3.535623788833618 1.3909492492675781 4456788 0 -1
2.9203500747680664 3.6158440113067627 -0.2496575564146042 4456788 5 -1
3.0984201431274414 3.4644718170166016 0.2496575564146042 4456788 5 -1
2.9141528606414795 3.608171224594116 0.392318993806839 4456788 5 -1
2.8867735862731934 3.6468944549560547 -0.178326815366745 4456788 5 -1
2.9476847648620605 3.576742172241211 -0.427984356880188 4523353 5 -1
2.945502281188965 3.574093818664551 -0.4636497497558594 4657508 5 -1
2.958051919937134 3.5893216133117676 0.178326815366745 4600703 5 -1
2.9601383209228516 3.591853380203247 0.035665363073349 4212104 5 -1
3.064969539642334 3.4984657764434814 0.178326815366745 3238030 5 -1
3.066410779953003 3.5001111030578613 0.106996089220047 2264205 5 -1
2.8766562938690186 3.634113311767578 -0.427984356880188 2070155 5 -1
3.173844575881958 3.4039275646209717 0.071330726146698 2070155 5 -1
3.13818359375 3.4368324279785156 -0.071330726146698 2072968 5 -1
3.101428985595703 3.4678361415863037 0.142661452293396 2139270 5 -1
3.1362478733062744 3.4347126483917236 -0.178326815366745 2271109 5 -1
3.1027956008911133 3.4693641662597656 0.035665363073349 9360965 5 -1
3.1020667552948 3.4685492515563965 0.106996089220047 12640037 5 -1
3.0657804012298584 3.4993913173675537 0.142661452293396 13164576 5 -1
2.9428491592407227 3.6437015533447266 -0.17957386374473572 4456788 5 -1
2.932535409927368 3.6309316158294678 -0.4309772551059723 4456788 5 -1
2.9280171394348145 3.6253371238708496 -0.5028068423271179 4456788 5 -1
2.932535409927368 3.6309316158294678 -0.4309772551059723 4456788 5 -1
2.970318555831909 3.604206085205078 -0.39506250619888306 4456788 5 -1
2.973829507827759 3.608466148376465 -0.3232329487800598 4523353 5 -1
2.973829507827759 3.608466148376465 -0.3232329487800598 4590430 5 -1
2.9682979583740234 3.6017544269561768 -0.4309772551059723 4657508 5 -1
2.99943208694458 3.5664772987365723 -0.5028068423271179 4724328 5 -1
2.906020402908325 3.6712093353271484 0.21548862755298615 4726897 5 -1
2.944924831390381 3.6462717056274414 -0.035914771258831024 4536450 5 -1
3.043780565261841 3.546206474304199 0.35914772748947144 4017546 5 -1
3.08286190032959 3.5188889503479004 0.2873181700706482 3432845 5 -1
3.011167526245117 3.5804312229156494 0.2873181700706482 3238030 5 -1
3.012498140335083 3.5820133686065674 0.25140342116355896 3107982 5 -1
3.0682013034820557 3.50215482711792 0.5387215614318848 2782862 5 -1
3.1960394382476807 3.4277312755584717 0.07182954251766205 2070155 5 -1
2.906020402908325 3.6712093353271484 -0.21548862755298615 2072968 5 -1
3.0523972511291504 3.5562453269958496 -0.07182954251766205 2072968 5 -1
3.1960394382476807 3.4277312755584717 0.07182954251766205 2139270 5 -1
3.124493360519409 3.4936256408691406 -0.035914771258831024 12640037 5 -1
2.9549102783203125 3.658635139465332 -0.39780598878860474 4456788 5 -1
2.9371213912963867 3.6366097927093506 -0.6509552597999573 4456788 5 -1
2.9401962757110596 3.6404168605804443 -0.6147910952568054 4456788 5 -1
2.9105446338653564 3.603703737258911 -0.9041045308113098 4456788 5 -1
2.9789836406707764 3.614720344543457 -0.5786268711090088 4456788 5 -1
2.990945816040039 3.62923526763916 -0.39780598878860474 4456788 5 -1
2.959886074066162 3.6647958755493164 -0.2893134355545044 4523353 5 -1
2.9959821701049805 3.6353464126586914 -0.2893134355545044 4590430 5 -1
2.994481086730957 3.6335248947143555 -0.32547762989997864 4657508 5 -1
2.9013028144836426 3.6652495861053467 -0.6509552597999573 4726897 5 -1
2.9611940383911133 3.666415214538574 0.25314927101135254 4728182 5 -1
3.069530487060547 3.576206684112549 0.25314927101135254 4017546 5 -1
3.122549057006836 3.4914515018463135 0.5786268711090088 3107982 5 -1
3.1816070079803467 3.4843883514404297 -0.10849253833293915 2070155 5 -1
3.1387932300567627 3.509614944458008 -0.32547762989997864 2468738 5 -1
3.1306352615356445 3.500493049621582 -0.47013434767723083 2666112 5 -1
3.164083480834961 3.4651973247528076 -0.5062985420227051 4045940 5 -1
3.1052842140197754 3.472146987915039 0.7594478130340576 5424489 5 -1
3.0209078788757324 3.6655914783477783 0.1456543505191803 4456788 5 -1
3.004887580871582 3.6461522579193115 -0.5097902417182922 4456788 5 -1
2.904522657394409 3.7436366081237793 0.36413589119911194 4456788 5 -1
3.014968156814575 3.5849504470825195 -0.8010989427566528 4456788 5 -1
2.8025290966033936 3.835137128829956 0.1456543505191803 4456788 5 -1
2.9858267307281494 3.6969141960144043 -0.036413587629795074 4456788 5 -1
3.011573076248169 3.654264450073242 -0.4005494713783264 4456788 5 -1
2.9732651710510254 3.681361198425293 -0.4369630515575409 4523353 5 -1
3.019132137298584 3.6634366512298584 -0.21848152577877045 4590430 5 -1
2.8745615482330322 3.7798688411712646 0.18206794559955597 4657508 5 -1
3.122361898422241 3.5639755725860596 -0.36413589119911194 3887499 5 -1
3.165656328201294 3.539651393890381 -0.18206794559955597 3238030 5 -1
3.1586685180664062 3.5318379402160645 -0.36413589119911194 2666112 5 -1
3.1646323204040527 3.538506507873535 -0.21848152577877045 2994813 5 -1
3.1859047412872314 3.4890952110290527 -0.5097902417182922 10016830 5 -1
2.8950159549713135 3.80676531791687 0.1466519832611084 4456788 5 -1
2.8819713592529297 3.789612293243408 0.4766189455986023 4456788 5 -1
2.8555972576141357 3.8306379318237305 0.2566409707069397 4456788 5 -1
3.0386483669281006 3.6871178150177 -0.2566409707069397 4456788 5 -1
2.9308862686157227 3.777616500854492 0.1833149790763855 4456788 5 -1
2.892207384109497 3.803072214126587 0.2566409707069397 4456788 5 -1
2.8933141231536865 3.804527521133423 0.2199779748916626 4456788 5 -1
2.8942503929138184 3.805758476257324 0.1833149790763855 4657508 5 -1
2.967522382736206 3.7489054203033447 0.1833149790763855 4725613 5 -1
2.9329535961151123 3.7802810668945312 -0.0366629958152771 4726897 5 -1
3.132122278213501 3.5751163959503174 -0.5499449372291565 3692940 5 -1
3.0739002227783203 3.6550235748291016 0.2933039665222168 3238030 5 -1
3.2262489795684814 3.5332789421081543 -0.0366629958152771 2006409 5 -1
3.1836822032928467 3.559807062149048 -0.2933039665222168 2666112 5 -1
3.185089111328125 3.56138014793396 -0.2566409707069397 2994813 5 -1
3.1836822032928467 3.559807062149048 -0.2933039665222168 5424489 5 -1
3.210297107696533 3.5158090591430664 -0.4766189455986023 10016830 5 -1
2.909137725830078 3.825334310531616 0.3322116434574127 4456788 5 -1
2.909137725830078 3.825334310531616 0.3322116434574127 4456788 5 -1
2.9075069427490234 3.8231899738311768 0.36912405490875244 4456788 5 -1
2.912996530532837 3.8304085731506348 0.22147442400455475 4456788 5 -1
2.9118824005126953 3.8289434909820557 0.2583868205547333 4456788 5 -1
2.909137725830078 3.825334310531616 0.3322116434574127 4456788 5 -1
2.95221209526062 3.805103302001953 0.11073721200227737 4725613 5 -1
2.9529056549072266 3.805997371673584 -0.036912404000759125 4726897 5 -1
3.2079834938049316 3.586979389190674 -0.22147442400455475 2134668 5 -1
3.2053399085998535 3.5840234756469727 -0.295299232006073 2070155 5 -1
3.206756353378296 3.5856072902679443 -0.2583868205547333 2666112 5 -1
3.197774887084961 3.5755646228790283 -0.4429488480091095 5424489 5 -1
3.025395154953003 3.745906114578247 -0.1476496160030365 10672695 5 -1
3.211284875869751 3.5906708240509033 0.036912404000759125 11197490 5 -1
3.5808069705963135 3.223102331161499 -0.557427167892456 4456788 0 -1
3.864715099334717 2.9298274517059326 -0.03716181218624115 4456788 0 -1
2.9287939071655273 3.8511812686920166 0.33445632457733154 4456788 5 -1
2.9253363609313965 3.84663462638855 0.40877994894981384 4456788 5 -1
2.9253363609313965 3.84663462638855 0.40877994894981384 4456788 5 -1
2.894448757171631 3.8827552795410156 0.26013270020484924 4456788 5 -1
2.9315571784973145 3.8548145294189453 0.26013270020484924 4456788 5 -1
2.968665599822998 3.826310157775879 0.26013270020484924 4456788 5 -1
2.9721593856811523 3.830813407897949 0.11148543655872345 4725613 5 -1
3.0093114376068115 3.8016979694366455 -0.11148543655872345 4726897 5 -1
3.104445457458496 3.543524980545044 1.1520161628723145 4212104 0 -1
3.1572701930999756 3.678429365158081 -0.1486472487449646 4147337 5 -1
3.2253806591033936 3.606431722640991 -0.33445632457733154 2134668 5 -1
3.2253806591033936 3.606431722640991 -0.33445632457733154 2070155 5 -1
3.19582200050354 3.6478257179260254 -0.03716181218624115 2139270 5 -1
3.3065273761749268 3.5462288856506348 -0.11148543655872345 4045940 5 -1
3.0829813480377197 3.7409119606018066 -0.1486472487449646 5424489 5 -1
3.3696913719177246 3.4640109539031982 0.40877994894981384 5424489 5 -1
