VERSION .7
FIELDS x y z rgb label object
SIZE 4 4 4 4 4 4
TYPE F F F I I I
COUNT 1 1 1 1 1 1
WIDTH 686
HEIGHT 1
POINTS 686
VIEWPOINT 0 0 0 1 0 0 0
DATA ascii
-3.002794027328491 2.457245111465454 0.4489346444606781 4456788 0 -1
-2.9730632305145264 2.4931344985961914 0.4489346444606781 4456788 0 -1
-2.9730632305145264 2.4931344985961914 0.4489346444606781 4456788 0 -1
-2.9970712661743164 2.452562093734741 0.5087926387786865 4456788 0 -1
-2.293489933013916 3.2016704082489014 0.030178384855389595 4456788 0 -1
-2.263312339782715 3.223073959350586 0.030178384855389595 4456788 0 -1
-2.293489933013916 3.2016704082489014 0.030178384855389595 4456788 0 -1
-2.263312339782715 3.223073959350586 -0.030178384855389595 4456788 0 -1
-2.967860460281372 2.5492329597473145 0.45267578959465027 4456788 0 -1
-3.002829074859619 2.5180952548980713 0.392318993806839 4456788 0 -1
-2.9225471019744873 2.5702381134033203 0.6035677194595337 4456788 0 -1
-2.9292166233062744 2.576103925704956 0.5432109236717224 4456788 0 -1
-2.985685110092163 2.503718852996826 0.5733892917633057 4456788 0 -1
-2.985685110092163 2.503718852996826 0.5733892917633057 4456788 0 -1
-3.0250236988067627 2.475435972213745 0.4828541576862335 4456788 0 -1
-3.0256974697113037 2.4150094985961914 0.7242812514305115 4456788 0 -1
-2.8686230182647705 2.582062005996704 0.784637987613678 4456788 0 -1
-2.995072841644287 2.5115911960601807 0.4828541576862335 4456788 0 -1
-2.9978389739990234 2.5139105319976807 0.45267578959465027 4456788 0 -1
-3.030428409576416 2.479858875274658 0.42249739170074463 4456788 0 -1
-3.0973126888275146 2.4100112915039062 0.3319622278213501 4456788 0 -1
-2.9622044563293457 2.544374704360962 0.5130325555801392 4456788 0 -1
-3.137077569961548 2.3782079219818115 0.12071353942155838 4456788 0 -1
-3.0004241466522217 2.516078472137451 0.42249739170074463 4456788 0 -1
-3.041834592819214 2.427889585494995 0.6035677194595337 4456788 0 -1
-3.0422849655151367 2.4895613193511963 0.24142707884311676 3432845 0 -1
-2.3124444484710693 3.228130340576172 -0.03042779304087162 4456788 0 -1
-2.3124444484710693 3.228130340576172 0.03042779304087162 4456788 0 -1
-2.3125123977661133 3.2282252311706543 0 4456788 0 -1
-2.311901330947876 3.227372169494629 0.09128338098526001 4456788 0 -1
-2.816627025604248 2.5352602005004883 1.1866838932037354 4456788 0 -1
-3.231213331222534 2.256411552429199 0.4868446886539459 4456788 0 -1
-2.8303940296173096 2.547652006149292 1.1258283853530884 4456788 0 -1
-3.164397716522217 2.398919105529785 -0.03042779304087162 4456788 0 -1
-3.0313620567321777 2.4195306301116943 0.8519781827926636 4456788 0 -1
-2.9776313304901123 2.6186821460723877 -0.2129945456981659 4456788 0 -1
-2.331193447113037 3.2543039321899414 -0.06135440245270729 4456788 0 -1
-2.331467390060425 3.254686117172241 0 4456788 0 -1
-2.3313989639282227 3.2545905113220215 -0.030677201226353645 4456788 0 -1
-2.331193447113037 3.2543039321899414 0.06135440245270729 4456788 0 -1
-3.0313315391540527 2.6037511825561523 0.24541760981082916 4456788 0 -1
-2.1794650554656982 3.2298097610473633 0.9203160405158997 4456788 0 -1
3.609267473220825 1.7052274942398071 -0.30677202343940735 4456788 0 -1
-2.1753406524658203 3.2236974239349365 0.9509932398796082 4456788 0 -1
-3.1522293090820312 2.452741861343384 -0.27609482407569885 4456788 0 -1
-2.999208450317383 2.6376583576202393 -0.27609482407569885 4456788 0 -1
-3.1895859241485596 2.4180142879486084 -0.09203160554170609 4456788 0 -1
-3.2402119636535645 2.3272032737731934 0.33744922280311584 4456788 0 -1
-3.0006866455078125 2.3950464725494385 1.135056495666504 4456788 0 -1
-2.3504223823547363 3.281147003173828 0 4456788 0 -1
-2.3501462936401367 3.280761480331421 -0.06185321882367134 4456788 0 -1
-2.3501462936401367 3.280761480331421 -0.06185321882367134 4456788 0 -1
-2.1971843242645264 3.256068468093872 0.9277982711791992 4456788 0 -1
-2.193026304244995 3.249906539916992 0.9587249159812927 4456788 0 -1
-3.050839424133301 2.62050724029541 0.3401927053928375 4456788 0 -1
-2.1887238025665283 3.2435302734375 0.9896515011787415 4456788 0 -1
-3.0852982997894287 2.587251901626587 0.2783394753932953 4456788 0 -1
-2.2050697803497314 3.267754077911377 0.865945041179657 4456788 0 -1
-3.069330930709839 2.573862075805664 0.4948257505893707 4456788 0 -1
-3.0440666675567627 2.614689826965332 0.4329725205898285 4456788 0 -1
-3.215517520904541 2.4376728534698486 -0.09277983009815216 4456788 0 -1
-2.2149035930633545 3.2823269367218018 0.9352805018424988 4456788 0 -1
-3.094083547592163 2.594618797302246 0.49881628155708313 4456788 0 -1
-2.942093849182129 2.771211624145508 0.4676402509212494 4456788 0 -1
-3.065971612930298 2.63350510597229 0.4676402509212494 4456788 0 -1
2.6573398113250732 3.564685821533203 0.3416891396045685 4456788 5 -1
2.692918062210083 3.5410189628601074 0.3075202405452728 4456788 5 -1
2.692918062210083 3.5410189628601074 0.3075202405452728 4456788 5 -1
2.706427812576294 3.28399920463562 1.332587718963623 4456788 0 -1
2.6750760078430176 3.5884780883789062 0.3786015510559082 4456788 5 -1
2.67673659324646 3.590705394744873 0.3441832363605499 4456788 5 -1
2.67673659324646 3.590705394744873 0.3441832363605499 4456788 5 -1
2.7125742435455322 3.566865921020508 0.30976492166519165 4456788 5 -1
2.7889645099639893 3.4531686305999756 0.6883664727210999 4456788 5 -1
2.658106803894043 3.6375019550323486 0.41601279377937317 4456788 5 -1
2.6961331367492676 3.616724967956543 0.346677303314209 4456788 5 -1
2.6961331367492676 3.616724967956543 0.346677303314209 4456788 5 -1
2.697645425796509 3.618753671646118 0.3120095729827881 4456788 5 -1
2.69446063041687 3.6144814491271973 0.38134506344795227 4456788 5 -1
2.6961331367492676 3.616724967956543 0.346677303314209 4456788 5 -1
2.6961331367492676 3.616724967956543 0.346677303314209 4456788 5 -1
2.804044008255005 3.5423812866210938 0.24267412722110748 4456788 5 -1
2.768203020095825 3.567934036254883 0.2773418426513672 4456788 5 -1
2.763549566268921 3.561936140060425 0.38134506344795227 4456788 5 -1
2.8397481441497803 3.5160465240478516 0.20800639688968658 4456788 5 -1
2.680715322494507 3.668440580368042 0.34917140007019043 4456788 5 -1
2.6790523529052734 3.6661648750305176 0.38408854603767395 4456788 5 -1
2.7155299186706543 3.642744541168213 0.34917140007019043 4456788 5 -1
2.6752476692199707 3.6609582901000977 0.4539228081703186 4456788 5 -1
2.7155299186706543 3.642744541168213 0.34917140007019043 4456788 5 -1
2.677229881286621 3.6636710166931152 0.41900569200515747 4456788 5 -1
2.677229881286621 3.6636710166931152 0.41900569200515747 4456788 5 -1
2.7920589447021484 3.598681926727295 0.1396685540676117 4456788 5 -1
2.7893500328063965 3.5951907634735107 0.24441997706890106 4456788 5 -1
2.8252978324890137 3.5692312717437744 0.20950284600257874 4456788 5 -1
2.78515887260437 3.5897884368896484 0.34917140007019043 4456788 5 -1
-2.7119991779327393 3.6380083560943604 0.41900569200515747 4456788 0 -1
2.8912229537963867 3.5082309246063232 0.3142542541027069 4456788 5 -1
2.8959949016571045 3.514021158218384 0.17458570003509521 4456788 5 -1
2.93166184425354 3.4858949184417725 0.1396685540676117 4456788 5 -1
2.929938316345215 3.4838457107543945 0.20950284600257874 4456788 5 -1
2.93166184425354 3.4858949184417725 0.1396685540676117 4456788 5 -1
3.0020804405212402 3.426682233810425 -0.10475142300128937 4456788 5 -1
2.9329535961151123 3.487431049346924 -0.034917138516902924 4456788 5 -1
2.967956781387329 3.457866907119751 0 4600703 5 -1
2.933039665222168 3.4875333309173584 0 3562893 5 -1
3.2047290802001953 3.2243707180023193 0.3142542541027069 2070155 0 -1
2.6572351455688477 3.709451913833618 0.49233168363571167 4456788 5 -1
2.7013776302337646 3.696716070175171 0.31649893522262573 4456788 5 -1
2.663147211074829 3.717705011367798 0.38683202862739563 4456788 5 -1
2.733229875564575 3.6664884090423584 0.38683202862739563 4456788 5 -1
2.7970895767211914 3.605165958404541 0.49233168363571167 4456788 5 -1
2.8383541107177734 3.585725784301758 0.38683202862739563 4456788 5 -1
2.812002182006836 3.624386787414551 0.1406661868095398 4456788 5 -1
2.9166805744171143 3.539121389389038 0.17583273351192474 4456788 5 -1
2.917452096939087 3.54005765914917 0.1406661868095398 4456788 5 -1
2.953209400177002 3.5115160942077637 0.10549964755773544 4456788 5 -1
2.950866460800171 3.508730173110962 0.2109992951154709 4456788 5 -1
2.9518213272094727 3.5098655223846436 0.17583273351192474 4456788 5 -1
3.022902250289917 3.450448751449585 -0.1406661868095398 4456788 5 -1
3.0550856590270996 3.416017770767212 0.24616584181785583 4456788 5 -1
3.0594897270202637 3.4209420680999756 0 4456788 5 -1
3.050494909286499 3.4108846187591553 -0.3516654670238495 4456788 0 -1
2.9820404052734375 3.4742748737335205 0.31649893522262573 4456788 5 -1
2.8751790523529053 3.559915542602539 0.3516654670238495 4729209 5 -1
3.0537359714508057 3.414508819580078 0.2813323736190796 4729209 5 -1
2.8833181858062744 3.569993019104004 0.0703330934047699 4664956 5 -1
2.869314670562744 3.552654504776001 0.4571651220321655 4147337 5 -1
2.869314670562744 3.552654504776001 0.4571651220321655 3757452 5 -1
2.880607843399048 3.5666370391845703 0.2109992951154709 3432845 5 -1
3.0550856590270996 3.416017770767212 0.24616584181785583 3432845 5 -1
2.683699369430542 3.7463955879211426 0.35415956377983093 4456788 5 -1
2.6782257556915283 3.7387545108795166 0.46040743589401245 4456788 5 -1
2.7190113067626953 3.7208468914031982 0.35415956377983093 4456788 5 -1
2.721900224685669 3.7248001098632812 0.2833276391029358 4456788 5 -1
2.7911996841430664 3.670253276824951 0.31874361634254456 4456788 5 -1
2.861862897872925 3.615424633026123 0.31874361634254456 4456788 5 -1
2.8279483318328857 3.64493989944458 0.2833276391029358 4456788 5 -1
2.891805648803711 3.5805017948150635 0.4249914586544037 4456788 5 -1
2.937366247177124 3.5642213821411133 0.17707978188991547 4456788 5 -1
2.974591016769409 3.536939859390259 0.07083190977573395 4456788 5 -1
2.937366247177124 3.5642213821411133 0.17707978188991547 4456788 5 -1
2.937366247177124 3.5642213821411133 0.17707978188991547 4456788 5 -1
2.9387476444244385 3.5658977031707764 0.10624786466360092 4456788 5 -1
2.9727561473846436 3.5347580909729004 0.17707978188991547 4456788 5 -1
3.065863609313965 3.4280691146850586 -0.46040743589401245 4456788 0 -1
3.0579447746276855 3.4192144870758057 -0.5666552782058716 4456788 0 -1
3.0349340438842773 3.4641823768615723 -0.3895755112171173 4523353 5 -1
3.073852777481079 3.437002182006836 -0.31874361634254456 4590430 5 -1
2.930882215499878 3.556353807449341 -0.35415956377983093 4657508 5 -1
3.032961368560791 3.391279697418213 -0.814566969871521 4657508 0 -1
2.8974571228027344 3.5157954692840576 0.7791510224342346 4729209 5 -1
3.079740524291992 3.4435856342315674 0.1416638195514679 4729209 5 -1
2.889664649963379 3.577850818634033 0.46040743589401245 4147337 5 -1
2.9041082859039307 3.5957345962524414 0 4017546 5 -1
2.879364490509033 3.5650978088378906 0.602071225643158 3757452 5 -1
2.702598810195923 3.7727787494659424 0.35665363073349 4456788 5 -1
2.7381591796875 3.7470500469207764 0.35665363073349 4456788 5 -1
2.7778937816619873 3.726402759552002 0.2496575564146042 4456788 5 -1
2.8786144256591797 3.636587142944336 0.392318993806839 4456788 5 -1
2.84307599067688 3.664438009262085 0.392318993806839 4456788 5 -1
2.9175972938537598 3.612435817718506 0.320988267660141 4456788 5 -1
2.9559640884399414 3.5867881774902344 0.2496575564146042 4456788 5 -1
2.9955387115478516 3.5618479251861572 0.071330726146698 4456788 5 -1
2.9559640884399414 3.5867881774902344 0.2496575564146042 4456788 5 -1
2.958051919937134 3.5893216133117676 0.178326815366745 4456788 5 -1
2.958834409713745 3.590271234512329 0.142661452293396 4456788 5 -1
2.9203500747680664 3.6158440113067627 0.2496575564146042 4456788 5 -1
2.9936909675598145 3.5596508979797363 0.178326815366745 4456788 5 -1
3.0918452739715576 3.457120180130005 -0.392318993806839 4456788 5 -1
3.0662343502044678 3.428483724594116 -0.71330726146698 4456788 0 -1
3.0440831184387207 3.4746253490448 -0.570645809173584 4456788 5 -1
3.056306838989258 3.4885778427124023 -0.392318993806839 4523353 5 -1
3.0823233127593994 3.4464733600616455 -0.5349804759025574 4724328 5 -1
3.0954997539520264 3.4612064361572266 -0.320988267660141 4725613 5 -1
2.9051783084869385 3.5970592498779297 -0.5349804759025574 3238030 5 -1
3.1727261543273926 3.4027280807495117 0.142661452293396 3238030 0 -1
2.770113468170166 3.715965747833252 -0.427984356880188 2912910 5 -1
2.924474000930786 3.620950222015381 -0.035665363073349 2458766 5 -1
2.7303860187530518 3.736412525177002 -0.4993151128292084 2134668 5 -1
2.7179596424102783 3.794222354888916 0.4309772551059723 4456788 5 -1
2.793116331100464 3.7468230724334717 0.35914772748947144 4456788 5 -1
2.9005439281463623 3.6642906665802 0.35914772748947144 4456788 5 -1
2.9021708965301514 3.6663460731506348 0.3232329487800598 4456788 5 -1
2.973829507827759 3.608466148376465 0.3232329487800598 4456788 5 -1
2.9661002159118652 3.5990874767303467 0.4668920338153839 4456788 5 -1
2.906020402908325 3.6712093353271484 0.21548862755298615 4456788 5 -1
3.0523972511291504 3.5562453269958496 0.07182954251766205 4456788 5 -1
3.0146260261535645 3.584543466567993 0.17957386374473572 4456788 5 -1
2.979525566101074 3.615377902984619 0.1436590850353241 4456788 5 -1
3.0883076190948486 3.5251049995422363 0.07182954251766205 4456788 5 -1
3.0883076190948486 3.5251049995422363 -0.07182954251766205 4456788 5 -1
3.048421859741211 3.4795777797698975 0.7542102336883545 4456788 5 -1
3.124493360519409 3.4936256408691406 -0.035914771258831024 4456788 5 -1
3.124493360519409 3.4936256408691406 -0.035914771258831024 4456788 5 -1
3.115399122238159 3.483456611633301 0.35914772748947144 4456788 5 -1
3.1171464920043945 3.485410690307617 -0.3232329487800598 4456788 5 -1
3.0838685035705566 3.4482011795043945 -0.7542102336883545 4456788 0 -1
3.065370559692383 3.4989235401153564 -0.5746363401412964 4456788 5 -1
3.081317186355591 3.5171258449554443 -0.3232329487800598 4523353 5 -1
3.0947229862213135 3.4603381156921387 -0.6464658975601196 4724328 0 -1
2.906020402908325 3.6712093353271484 -0.21548862755298615 2458766 5 -1
2.69433856010437 3.8368775844573975 0.5424627065658569 4456788 5 -1
2.770792245864868 3.7917068004608154 0.47013434767723083 4456788 5 -1
2.7764551639556885 3.7994561195373535 0.3616417944431305 4456788 5 -1
2.880878210067749 3.7131612300872803 0.4339701533317566 4456788 5 -1
2.851597547531128 3.7496726512908936 0.2893134355545044 4456788 5 -1
2.820474863052368 3.7835230827331543 0.0723283588886261 4456788 5 -1
2.998453140258789 3.6383447647094727 0.2169850766658783 4456788 5 -1
2.96467924118042 3.6707305908203125 0.10849253833293915 4456788 5 -1
2.9292125701904297 3.7005083560943604 0.03616417944431305 4456788 5 -1
2.9223248958587646 3.6918067932128906 0.32547762989997864 4456788 5 -1
2.959886074066162 3.6647958755493164 0.2893134355545044 4456788 5 -1
3.0377912521362305 3.612088203430176 0 4456788 5 -1
3.000833749771118 3.641233444213867 -0.10849253833293915 4456788 5 -1
2.9651145935058594 3.671269416809082 0.0723283588886261 4456788 5 -1
3.1801114082336426 3.482750415802002 0.18082089722156525 4456788 5 -1
3.1748714447021484 3.4770119190216064 0.32547762989997864 4456788 5 -1
3.0926246643066406 3.4579918384552 -0.8679403066635132 4456788 0 -1
3.092172622680664 3.5295164585113525 -0.5062985420227051 4456788 5 -1
3.1306352615356445 3.500493049621582 -0.47013434767723083 4523353 5 -1
3.1462836265563965 3.5179901123046875 0 4729209 5 -1
3.1820740699768066 3.4848999977111816 -0.0723283588886261 4341894 5 -1
2.9285244941711426 3.699639081954956 -0.10849253833293915 4212104 5 -1
3.102715253829956 3.5415501594543457 -0.32547762989997864 4212104 5 -1
2.831909656524658 3.7988622188568115 0.36413589119911194 4456788 5 -1
2.821437120437622 3.78481388092041 0.5462038516998291 4456788 5 -1
2.818833827972412 3.7813217639923096 0.5826174020767212 4456788 5 -1
2.7876667976379395 3.8147988319396973 0.5097902417182922 4456788 5 -1
2.7899010181427 3.817856550216675 0.47337666153907776 4456788 5 -1
2.8664369583129883 3.769185781478882 0.4005494713783264 4456788 5 -1
2.8282277584075928 3.7939231395721436 0.4369630515575409 4456788 5 -1
2.9802989959716797 3.690070152282715 0.2913087010383606 4456788 5 -1
2.9299538135528564 3.701444625854492 0.5462038516998291 4456788 5 -1
3.0222392082214355 3.6672067642211914 0.036413587629795074 4456788 5 -1
3.021529197692871 3.6663453578948975 -0.10924076288938522 4456788 5 -1
3.0222392082214355 3.6672067642211914 0.036413587629795074 4456788 5 -1
3.020108938217163 3.6646220684051514 0.18206794559955597 4456788 5 -1
3.082043170928955 3.590784788131714 -0.4369630515575409 4456788 5 -1
3.022610664367676 3.5940377712249756 0.7282717823982239 4456788 5 -1
3.152225971221924 3.52463436126709 0.47337666153907776 4456788 5 -1
3.1929931640625 3.4968581199645996 0.4005494713783264 4456788 5 -1
3.1418776512145996 3.369643211364746 -1.1652348041534424 4456788 0 -1
3.1859047412872314 3.4890952110290527 -0.5097902417182922 4523353 5 -1
3.2312815189361572 3.4655282497406006 0.36413589119911194 4729209 5 -1
2.76344895362854 3.857724666595459 -0.2548951208591461 4212104 5 -1
2.9473352432250977 3.723402738571167 -0.18206794559955597 4212104 5 -1
3.127060651779175 3.5693390369415283 -0.2548951208591461 4212104 5 -1
2.9452548027038574 3.7207746505737305 -0.2548951208591461 2199437 5 -1
3.1300973892211914 3.572805166244507 -0.1456543505191803 2199437 5 -1
2.772529363632202 3.8704006671905518 0.4766189455986023 4456788 5 -1
2.8090100288391113 3.844006061553955 0.4766189455986023 4456788 5 -1
2.8475992679595947 3.819908857345581 0.4399559497833252 4456788 5 -1
2.798997640609741 3.8303043842315674 0.6232709288597107 4456788 5 -1
2.8475992679595947 3.819908857345581 0.4399559497833252 4456788 5 -1
2.954932689666748 3.7330005168914795 0.4766189455986023 4456788 5 -1
2.9890174865722656 3.7008650302886963 0.5132819414138794 4456788 5 -1
3.0429394245147705 3.692324638366699 0.0366629958152771 4456788 5 -1
3.0007121562957764 3.7153446674346924 -0.2933039665222168 4456788 5 -1
3.030137538909912 3.676790952682495 -0.4399559497833252 4456788 5 -1
3.039560079574585 3.6141915321350098 0.7699229121208191 4456788 5 -1
3.2583096027374268 3.4945156574249268 0.2566409707069397 4456788 5 -1
3.1257410049438477 3.4950203895568848 0.9532378911972046 4456788 0 -1
3.2879281044006348 3.4526758193969727 0.4032929539680481 4657508 5 -1
2.8017544746398926 3.8340773582458496 -0.5866079330444336 4600703 5 -1
3.0031869411468506 3.7184088230133057 -0.2199779748916626 4600703 5 -1
3.1526474952697754 3.5985445976257324 0.0733259916305542 2264205 5 -1
2.8258540630340576 3.867056369781494 0.5167736411094666 4456788 5 -1
2.868922233581543 3.848512649536133 0.40603646636009216 4456788 5 -1
2.862553358078003 3.8399691581726074 0.5167736411094666 4456788 5 -1
2.868922233581543 3.848512649536133 0.40603646636009216 4456788 5 -1
2.8381638526916504 3.883901834487915 0.2583868205547333 4456788 5 -1
3.0139946937561035 3.731790781021118 0.4429488480091095 4456788 5 -1
3.094810962677002 3.679887533187866 -0.295299232006073 4456788 5 -1
3.0800936222076416 3.6623878479003906 -0.5536860823631287 4456788 5 -1
3.0528273582458496 3.7043230533599854 -0.40603646636009216 4456788 5 -1
3.054722309112549 3.706622362136841 -0.36912405490875244 4456788 5 -1
3.0157761573791504 3.6593644618988037 0.8489853143692017 4456788 5 -1
2.977238655090332 3.7611801624298096 -0.4429488480091095 4456788 5 -1
3.0622901916503906 3.7158050537109375 -0.1476496160030365 3887499 5 -1
3.0614802837371826 3.714822292327881 -0.18456202745437622 2718350 5 -1
3.1740939617156982 3.6230244636535645 0.07382480800151825 2264205 5 -1
2.8530471324920654 3.904268741607666 0.3716181218624115 4456788 5 -1
3.042882204055786 3.7675578594207764 0.26013270020484924 4456788 5 -1
2.8794119358062744 3.862583875656128 0.557427167892456 4456788 5 -1
3.0242810249328613 3.7445268630981445 0.5945889949798584 4456788 5 -1
3.0181455612182617 3.7369301319122314 0.6689126491546631 4456788 5 -1
3.0917587280273438 3.6762583255767822 -0.6689126491546631 4456788 5 -1
3.07536244392395 3.7316670417785645 -0.3716181218624115 4456788 5 -1
3.07536244392395 3.7316670417785645 -0.3716181218624115 4456788 5 -1
3.07536244392395 3.7316670417785645 -0.3716181218624115 4456788 5 -1
3.08361554145813 3.7416813373565674 -0.11148543655872345 4456788 5 -1
3.06663179397583 3.7210731506347656 -0.5202654004096985 4456788 5 -1
3.0242810249328613 3.7445268630981445 -0.5945889949798584 4456788 5 -1
3.0213050842285156 3.74084210395813 -0.6317508220672607 4456788 5 -1
3.06663179397583 3.7210731506347656 -0.5202654004096985 4523353 5 -1
2.907691478729248 3.900519609451294 0.4115234315395355 4456788 5 -1
3.1015918254852295 3.687950372695923 -0.7856356501579285 4456788 5 -1
3.124408483505249 3.715080499649048 -0.5237571001052856 4456788 5 -1
3.0633041858673096 3.7928433418273926 -0.2618785500526428 4456788 5 -1
2.8048582077026367 3.7625739574432373 -1.3468040227890015 4456788 0 -1
2.93174409866333 3.5573995113372803 -1.6086825132369995 4456788 0 -1
3.0350353717803955 3.7578423023223877 -0.7108132243156433 4456788 5 -1
2.9980227947235107 3.7874369621276855 -0.7108132243156433 4456788 5 -1
3.0314831733703613 3.753444194793701 -0.7482244372367859 4456788 5 -1
3.081707239151001 3.739365816116333 -0.5985795259475708 4523353 5 -1
3.083726167678833 3.818129062652588 -0.2636243999004364 4456788 5 -1
3.191742181777954 3.7185916900634766 -0.376606285572052 4456788 5 -1
3.018009662628174 3.8126864433288574 -0.7155519723892212 4456788 5 -1
3.101503372192383 3.7633867263793945 0.8340208530426025 4456788 5 -1
3.1842896938323975 3.709908962249756 0.7582007646560669 4456788 5 -1
3.13887095451355 3.7322771549224854 0.8340208530426025 4456788 5 -1
2.999206781387329 3.7889325618743896 -1.06148099899292 4456788 0 -1
3.1417903900146484 3.6603944301605225 1.0993911027908325 4456788 0 -1
3.0901379585266113 3.6002159118652344 -1.4026713371276855 4456788 0 -1
3.0038180351257324 3.8716182708740234 -0.6823806762695312 4456788 5 -1
3.120608329772949 3.710561990737915 -0.985660970211029 4456788 0 -1
3.1595213413238525 3.756831645965576 0.8395078182220459 4456788 5 -1
3.1595213413238525 3.756831645965576 0.8395078182220459 4456788 5 -1
3.1595213413238525 3.756831645965576 0.8395078182220459 4456788 5 -1
3.0508437156677246 3.7774155139923096 1.106623888015747 4456788 0 -1
3.256956100463867 3.71760630607605 -0.610551118850708 4456788 5 -1
3.360006332397461 3.6035847663879395 0.725029468536377 4456788 5 -1
3.3560738563537598 3.599367141723633 0.763188898563385 4456788 5 -1
3.14231276512146 3.8129050731658936 0.8449947834014893 4456788 5 -1
3.27824330329895 3.7419042587280273 0.6145416498184204 4456788 5 -1
3.381967067718506 3.6271374225616455 0.7297682166099548 4456788 5 -1
3.381967067718506 3.6271374225616455 0.7297682166099548 4456788 5 -1
-3.363079309463501 3.9988722801208496 -0.4015471041202545 4456788 0 -1
-3.485142946243286 3.8968827724456787 -0.36139240860939026 4456788 0 -1
-3.635943651199341 3.818129539489746 -0.08080823719501495 4456788 0 -1
-3.3858659267425537 4.025966644287109 -0.3636370599269867 4456788 0 -1
-3.7161967754364014 3.7389729022979736 -0.12121235579252243 4456788 0 -1
-3.5100982189178467 3.924786329269409 -0.28282883763313293 4456788 0 -1
-3.7170698642730713 3.739851474761963 -0.04040411859750748 4456788 0 -1
-3.5100982189178467 3.924786329269409 -0.28282883763313293 4456788 0 -1
-3.511441469192505 3.92628812789917 -0.24242471158504486 4456788 0 -1
-3.65871000289917 3.842036724090576 -0.0406535267829895 4456788 0 -1
-3.409980535507202 4.054640293121338 -0.2845746874809265 4456788 0 -1
-3.6967549324035645 3.80022931098938 -0.2032676339149475 4456788 0 -1
-3.4936366081237793 3.9877617359161377 -0.2032676339149475 4456788 0 -1
-3.6990365982055664 3.802574872970581 -0.081307053565979 4456788 0 -1
-3.699362277984619 3.8029098510742188 -0.0406535267829895 4456788 0 -1
-3.5351951122283936 3.952848196029663 -0.162614107131958 4456788 0 -1
-3.6990365982055664 3.802574872970581 -0.081307053565979 4456788 0 -1
-3.432213544845581 4.081076145172119 -0.24541760981082916 4456788 0 -1
-3.718231439590454 3.8223068714141846 -0.24541760981082916 4456788 0 -1
-3.5167229175567627 4.014113426208496 -0.12270880490541458 4456788 0 -1
-3.722057819366455 3.8262405395507812 -0.04090293496847153 4456788 0 -1
-3.5175492763519287 4.015056610107422 -0.04090293496847153 4456788 0 -1
-3.7217299938201904 3.8259034156799316 -0.08180586993694305 4456788 0 -1
-3.7217299938201904 3.8259034156799316 -0.08180586993694305 4456788 0 -1
-3.7590909004211426 3.782130241394043 -0.24541760981082916 4456788 0 -1
-4.580994129180908 2.7401318550109863 0.04090293496847153 4456788 0 -1
-3.7431039810180664 3.8478755950927734 -0.1646093726158142 4456788 0 -1
-3.5389976501464844 4.039538383483887 0.04115234315395355 4456788 0 -1
-3.7855710983276367 3.808772563934326 -0.0823046863079071 4456788 0 -1
-3.8493454456329346 3.789705276489258 -0.12420525401830673 4456788 0 -1
-3.973517894744873 3.6593008041381836 -0.12420525401830673 4456788 0 -1
-3.9741013050079346 3.6598381996154785 -0.08280350267887115 4456788 0 -1
-3.9974546432495117 3.681344747543335 -0.12495347857475281 4456788 0 -1
-3.9974546432495117 3.681344747543335 -0.12495347857475281 4456788 0 -1
-4.772513389587402 2.560617208480835 0.7542102336883545 4456788 0 -1
-3.596672296524048 4.10537052154541 -0.335204541683197 4456788 0 -1
-3.3310928344726562 4.208208084106445 -1.0475142002105713 4456788 0 -1
-3.60249662399292 4.112018585205078 -0.12570171058177948 4456788 0 -1
4.178861618041992 3.167980670928955 -1.5503209829330444 4456788 0 -1
-4.169784069061279 3.581620693206787 -0.21074987947940826 4456788 0 -1
-3.293475866317749 4.24495792388916 -1.180199384689331 4456788 0 -1
-4.484086513519287 2.5909361839294434 -1.8545989990234375 4456788 0 -1
-3.309924840927124 4.181466102600098 -1.348799228668213 4456788 0 -1
-2.0038628578186035 5.066401958465576 0.7586995959281921 4456788 0 -1
-3.35522723197937 4.324548721313477 0.5479496717453003 4456788 0 -1
-2.038435220718384 5.031979084014893 0.8851494789123535 4456788 0 -1
-4.627778053283691 2.954570770263672 0.3371998071670532 4456788 0 -1
-4.237946510314941 3.5538330078125 -0.1695975363254547 4456788 0 -1
-3.5613765716552734 4.149240493774414 -0.847987711429596 4456788 0 -1
-4.523598670959473 2.6137664318084717 -1.8231735229492188 4456788 0 -1
-3.41453218460083 4.313618183135986 0.5935913920402527 4456788 0 -1
-2.0111303329467773 5.084776401519775 0.847987711429596 4456788 0 -1
-4.748173236846924 2.84013032913208 0.08479876816272736 4456788 0 -1
-3.3819785118103027 4.3590288162231445 0.423993855714798 4456788 0 -1
-2.055434465408325 5.073943138122559 0.8055883049964905 4456788 0 -1
-4.536243438720703 2.62107253074646 -1.7807741165161133 4456788 0 -1
-3.347749948501587 4.314911842346191 0.8903870582580566 4456788 0 -1
-4.644174575805664 2.965038776397705 0.5087926387786865 4456788 0 -1
-4.349027156829834 3.4712464809417725 -0.1279463768005371 4456788 0 -1
-3.3892922401428223 4.368455410003662 0.6397318840026855 4456788 0 -1
-2.2150747776031494 4.984356880187988 1.1088685989379883 4456788 0 -1
-4.601199150085449 3.1214494705200195 -0.2558927536010742 4456788 0 -1
-4.392696857452393 3.4179465770721436 -0.0426487922668457 4456788 0 -1
-3.5719661712646484 4.247249126434326 0.42648792266845703 4456788 0 -1
-3.5719661712646484 4.247249126434326 0.42648792266845703 4456788 0 -1
-2.2363028526306152 5.032124996185303 0.8103270530700684 4456788 0 -1
-2.2363028526306152 5.032124996185303 0.8103270530700684 4456788 0 -1
-4.350049018859863 3.472062110900879 -0.0426487922668457 4456788 0 -1
-3.301715135574341 4.341548919677734 1.1088685989379883 4456788 0 -1
-4.629024982452393 3.0479769706726074 0.5117855072021484 4456788 0 -1
-4.415270805358887 3.435511350631714 -0.21449099481105804 4456788 0 -1
-4.373560905456543 3.490828275680542 -0.1715928018093109 4456788 0 -1
-4.375102519989014 3.4920589923858643 -0.08579640090465546 4456788 0 -1
-4.46023416519165 3.3812882900238037 -0.1286945939064026 4456788 0 -1
-1.9921983480453491 5.036910533905029 1.4156405925750732 4456788 0 -1
-3.2719295024871826 4.302382946014404 1.4585387706756592 4456788 0 -1
4.990126609802246 2.4660298824310303 -0.600574791431427 4456788 0 -1
-3.430243730545044 4.421237945556641 0.1715928018093109 4456788 0 -1
4.75868034362793 2.8464150428771973 -0.7721676230430603 4456788 0 -1
-4.44407320022583 3.4579224586486816 -0.04314760863780975 4456788 0 -1
-4.48524284362793 3.400247573852539 -0.172590434551239 4456788 0 -1
-1.9995660781860352 5.055538177490234 1.467018723487854 4456788 0 -1
-3.451707363128662 4.448902130126953 -0.04314760863780975 4456788 0 -1
-1.9907301664352417 5.033198356628418 1.5533138513565063 4456788 0 -1
4.714420795440674 2.915178060531616 -0.9923949837684631 4456788 0 -1
-3.4501869678497314 4.4469428062438965 0.172590434551239 4456788 0 -1
4.743611812591553 2.9332282543182373 -0.7766569256782532 4456788 0 -1
4.7532548904418945 2.9391911029815674 -0.690361738204956 4456788 0 -1
-4.51116943359375 3.4199020862579346 -0.17358806729316711 4456788 0 -1
-4.512759685516357 3.421107769012451 -0.08679403364658356 4456788 0 -1
-4.555482864379883 3.3626091480255127 -0.13019104301929474 4456788 0 -1
-2.215785503387451 4.98595666885376 1.5188956260681152 4456788 0 -1
4.749929428100586 3.032557249069214 -0.5641612410545349 4456788 0 -1
-3.5100982189178467 4.434347629547119 0.30377912521362305 4456788 0 -1
-2.048556327819824 5.056963920593262 1.5188956260681152 4456788 0 -1
4.754297256469727 2.939835786819458 -0.9113373756408691 4456788 0 -1
-3.511441469192505 4.436044692993164 0.2603820860385895 4456788 0 -1
4.823800086975098 2.885366678237915 -0.6943522691726685 4456788 0 -1
4.968454837799072 2.5613343715667725 -0.9113373756408691 4456788 0 -1
5.333914279937744 1.8917689323425293 -0.2169850766658783 4456788 0 -1
-4.64208459854126 3.149186134338379 0.7811462879180908 4456788 0 -1
-3.814899444580078 4.177948951721191 0.2603820860385895 4456788 0 -1
-3.504823923110962 4.427684783935547 0.4339701533317566 4456788 0 -1
4.8461761474609375 2.8987510204315186 -0.4339701533317566 4456788 0 -1
-4.58233642578125 3.3824310302734375 -0.08729285001754761 4456788 0 -1
-4.625298500061035 3.322007894515991 -0.1309392750263214 4456788 0 -1
-4.669619083404541 3.2608749866485596 -0.08729285001754761 4456788 0 -1
-3.642002582550049 4.330526351928711 0.6546963453292847 4456788 0 -1
4.899360656738281 2.8308842182159424 -0.6546963453292847 4456788 0 -1
5.024791717529297 2.59037709236145 -0.6983428001403809 4456788 0 -1
5.2369561195373535 2.238959550857544 -0.08729285001754761 4456788 0 -1
5.4119977951049805 1.776131272315979 -0.043646425008773804 4456788 0 -1
-4.6507720947265625 3.340303659439087 -0.17558333277702332 4456788 0 -1
-4.6507720947265625 3.340303659439087 -0.17558333277702332 4456788 0 -1
-4.7200727462768555 3.296107769012451 -0.22072620689868927 4456788 0 -1
-5.124166488647461 2.641606569290161 -0.5771304368972778 4456788 0 -1
-3.6316945552825928 4.496598720550537 0.3995518386363983 4456788 0 -1
-3.543116807937622 4.5667195320129395 0.3995518386363983 7589974 0 -1
-3.6477859020233154 4.51652193069458 0.49108463525772095 4456788 0 -1
-3.5259485244750977 4.636402130126953 0.1339321732521057 4456788 0 -1
-3.417748212814331 4.5847344398498535 -1.1161013841629028 4456788 0 -1
-3.7461354732513428 4.454345703125 -0.2678643465042114 4456788 0 -1
-3.7390756607055664 4.445950984954834 -0.44644057750701904 4456788 0 -1
-3.6802914142608643 4.556768894195557 -0.1346803903579712 4456788 0 -1
-3.6802914142608643 4.556768894195557 -0.1346803903579712 4456788 0 -1
-3.7639594078063965 4.475539207458496 0.35914772748947144 4456788 0 -1
-3.7709403038024902 4.483839988708496 -0.04489346593618393 4456788 0 -1
-4.038513660430908 4.240870952606201 0.17957386374473572 4456788 0 -1
-3.8087682723999023 4.4374680519104 -0.35914772748947144 4456788 0 -1
-3.489229679107666 4.680623531341553 0.4938281178474426 4456788 0 -1
-4.040293216705322 4.242739677429199 0.04489346593618393 4456788 0 -1
-3.8104515075683594 4.439428806304932 -0.3142542541027069 4456788 0 -1
-5.161384105682373 2.7692596912384033 -0.1346803903579712 5424489 0 -1
-3.9501609802246094 4.326082706451416 0.08978693187236786 5424489 0 -1
-3.9056167602539062 4.367032051086426 -0.04489346593618393 8180304 0 -1
-3.744107723236084 4.543127536773682 0.22571437060832977 4456788 0 -1
-3.5086143016815186 4.706626892089844 -0.4965716004371643 4456788 0 -1
-3.745868444442749 4.545263767242432 -0.13542862236499786 4456788 0 -1
-3.489130973815918 4.587989330291748 -1.2188576459884644 4456788 0 -1
-3.7016069889068604 4.583160877227783 0.045142874121665955 4456788 0 -1
-3.512761354446411 4.7121901512146 0.4062858521938324 4456788 0 -1
-4.107519149780273 4.222491264343262 -0.09028574824333191 4456788 0 -1
-3.834327220916748 4.467245578765869 -0.22571437060832977 4456788 0 -1
-4.147165775299072 4.17258358001709 -0.3160001039505005 4456788 0 -1
-3.836130380630493 4.469346523284912 -0.13542862236499786 4456788 0 -1
-4.098221778869629 4.21293306350708 -0.4062858521938324 4456788 0 -1
-3.5194897651672363 4.721215724945068 0.18057149648666382 4456788 0 -1
-5.010270595550537 3.0981175899505615 -0.09028574824333191 4456788 0 -1
-3.767448902130127 4.5714497566223145 0.04539228230714798 4456788 0 -1
-3.53550124168396 4.74269437789917 -0.31774598360061646 4456788 0 -1
-3.7647933959960938 4.568227291107178 0.2269614040851593 4456788 0 -1
-3.765789270401001 4.569436073303223 -0.18156912922859192 4456788 0 -1
-3.58430552482605 4.713138103485107 0.18156912922859192 4456788 0 -1
-3.5255990028381348 4.7294111251831055 0.5447073578834534 4456788 0 -1
-4.197122097015381 4.132093906402588 -0.6354919672012329 4456788 0 -1
-3.948664665222168 4.415165424346924 0.09078456461429596 4456788 0 -1
-3.583357572555542 4.711891174316406 0.2269614040851593 4456788 0 -1
-3.4472806453704834 4.812341213226318 -0.2269614040851593 4456788 0 -1
-3.2167911529541016 4.961277008056641 -0.36313825845718384 4456788 0 -1
-3.2167911529541016 4.961277008056641 -0.36313825845718384 4456788 0 -1
-5.081547260284424 3.039538621902466 -0.18156912922859192 4456788 0 -1
-3.787259340286255 4.595487594604492 -0.13692507147789001 4456788 0 -1
-3.5139973163604736 4.808750152587891 -0.09128338098526001 4456788 0 -1
-4.145583152770996 4.26162052154541 -0.36513352394104004 4456788 0 -1
-3.787259340286255 4.595487594604492 -0.13692507147789001 4456788 0 -1
-3.6460790634155273 4.699427604675293 0.31949183344841003 4456788 0 -1
-3.7421791553497314 4.633395195007324 -0.09128338098526001 4456788 0 -1
-4.1781511306762695 4.203758716583252 -0.5933419466018677 4456788 0 -1
-3.7882602214813232 4.596702575683594 0 4456788 0 -1
-3.831087112426758 4.555357456207275 0.22820845246315002 4456788 0 -1
-3.603999614715576 4.739034175872803 0.18256676197052002 4456788 0 -1
-4.191138744354248 4.21682596206665 -0.36513352394104004 4456788 0 -1
-3.422724723815918 4.874136924743652 0.09128338098526001 4456788 0 -1
-3.2344658374786377 4.988536357879639 -0.36513352394104004 4456788 0 -1
-3.2358951568603516 4.99074125289917 -0.31949183344841003 4456788 0 -1
-5.111268997192383 3.057316780090332 -0.09128338098526001 4456788 0 -1
-3.439305543899536 4.897748947143555 0.22945548593997955 4456788 0 -1
-3.2574069499969482 5.023918628692627 -0.1376732885837555 4456788 0 -1
-3.252140522003174 5.015796184539795 -0.36712878942489624 4456788 0 -1
-5.138444900512695 3.0735721588134766 0.1376732885837555 4456788 0 -1
-5.296891212463379 2.730649471282959 0.5965842604637146 4657508 0 -1
-5.155433654785156 3.0837340354919434 0.4152645468711853 4456788 0 -1
-5.321413040161133 2.743291139602661 0.6459670662879944 4657508 0 -1
-3.7648727893829346 4.476625442504883 1.4303556680679321 4657508 0 -1
-5.226648807525635 3.019993543624878 0.4638991355895996 4456788 0 -1
-4.4513397216796875 4.099337577819824 -0.18555966019630432 4456788 0 -1
-5.381374835968018 2.6593778133392334 0.7886285185813904 4657508 0 -1
-4.109743595123291 4.315670013427734 1.0669680833816528 4657508 0 -1
-3.7455644607543945 4.453666687011719 1.6700369119644165 4657508 0 -1
-5.104809284210205 3.259127616882324 0.6063112020492554 4456788 0 -1
-4.747105598449707 3.693711280822754 0.9327864646911621 4456788 0 -1
-3.6496670246124268 4.518851280212402 1.8189336061477661 4456788 0 -1
-5.2646708488464355 3.0419628620147705 -0.27983593940734863 4456788 0 -1
-5.124900817871094 3.2719550132751465 -0.27983593940734863 4456788 0 -1
-5.135910511016846 3.2789840698242188 -0.5626647472381592 4456788 0 -1
-5.141016006469727 3.282243490219116 -0.8013483881950378 4456788 0 -1
-2.37271785736084 5.5888848304748535 0.9899008870124817 4456788 0 -1
5.288871765136719 2.613664150238037 -1.744111180305481 4456788 0 -1
-3.865095615386963 5.082359313964844 0.5896008610725403 4456788 0 -1
-3.916685104370117 5.048211574554443 0.5404674410820007 11918891 0 -1
-3.337141275405884 5.357555866241455 1.130068302154541 11918891 0 -1
-3.7984557151794434 5.198019027709961 0.2962968647480011 4456788 0 -1
-3.842689275741577 5.154771327972412 0.44444531202316284 4456788 0 -1
-3.842689275741577 5.154771327972412 0.44444531202316284 4456788 0 -1
-3.930976152420044 5.066631317138672 0.641976535320282 4456788 0 -1
-3.8818390369415283 5.104375839233398 0.641976535320282 4456788 0 -1
-3.8818390369415283 5.104375839233398 0.641976535320282 4456788 0 -1
-3.9464476108551025 5.086572647094727 0.2962968647480011 11918891 0 -1
-3.870858669281006 5.192559242248535 0.09926444292068481 4456788 0 -1
-3.8188750743865967 5.225962162017822 0.24816110730171204 4456788 0 -1
-3.9094178676605225 5.140640735626221 0.4963222146034241 4456788 0 -1
-3.894960641860962 5.1216301918029785 0.7444832921028137 4456788 0 -1
-3.8144938945770264 5.219966411590576 0.39705777168273926 4456788 0 -1
-3.8489737510681152 5.163201808929443 0.6948511004447937 4456788 0 -1
-3.887537717819214 5.1118693351745605 0.8437477350234985 4456788 0 -1
-5.707035064697266 3.0620200634002686 0.09926444292068481 4456788 0 -1
-5.407370567321777 3.5604777336120605 -0.19852888584136963 4456788 0 -1
-5.192838668823242 3.8330705165863037 0.5459544062614441 4456788 0 -1
-4.909982204437256 4.217411518096924 0.24816110730171204 4456788 0 -1
-5.707705497741699 3.062379837036133 0 4456788 0 -1
-5.458101749420166 3.484684467315674 -0.14889666438102722 4456788 0 -1
-5.198976516723633 3.8376011848449707 0.44668999314308167 4456788 0 -1
-4.9083943367004395 4.216047286987305 0.29779332876205444 4456788 0 -1
-3.628401279449463 5.377028465270996 -0.5486978888511658 4456788 0 -1
-3.890310049057007 5.218652248382568 -0.09976325929164886 4456788 0 -1
-3.678105354309082 5.343151569366455 -0.5486978888511658 4456788 0 -1
-3.632689952850342 5.383383750915527 -0.4489346444606781 4456788 0 -1
-3.628401279449463 5.377028465270996 -0.5486978888511658 4456788 0 -1
-3.8368241786956787 5.250524044036865 0.2992897629737854 4456788 0 -1
-3.9332380294799805 5.171962261199951 0.39905303716659546 4456788 0 -1
-3.737166404724121 5.32191801071167 0.2992897629737854 4456788 0 -1
-3.8769218921661377 5.200692653656006 0.5486978888511658 4456788 0 -1
-3.5683648586273193 5.288058757781982 1.2969223260879517 4456788 0 -1
-3.8834500312805176 5.2094502449035645 0.39905303716659546 4456788 0 -1
-5.786098957061768 2.9828455448150635 0.04988162964582443 4456788 0 -1
-4.963353633880615 4.162140846252441 0.6484611630439758 4456788 0 -1
-5.735713481903076 3.077407121658325 -0.09976325929164886 4456788 0 -1
-5.484401226043701 3.5014753341674805 -0.19952651858329773 4456788 0 -1
-5.230031490325928 3.8605244159698486 0.34917140007019043 4456788 0 -1
-4.945662021636963 4.147305011749268 0.847987711429596 4456788 0 -1
-5.735713481903076 3.077407121658325 -0.09976325929164886 4456788 0 -1
-5.4313483238220215 3.576266050338745 -0.2992897629737854 4456788 0 -1
-5.232032775878906 3.862001657485962 0.2992897629737854 4456788 0 -1
-4.936976432800293 4.240597724914551 0.1496448814868927 4456788 0 -1
-3.6756033897399902 5.339517116546631 0.5985795259475708 13164576 0 -1
-3.693981409072876 5.366214275360107 -0.6015724539756775 4456788 0 -1
-3.6526834964752197 5.413012981414795 -0.40104830265045166 4456788 0 -1
-3.693981409072876 5.366214275360107 -0.6015724539756775 4456788 0 -1
-3.69649600982666 5.369867324829102 -0.5514414310455322 4456788 0 -1
-3.648806571960449 5.4072675704956055 -0.5013103485107422 4456788 0 -1
-3.6987903118133545 5.373200416564941 -0.5013103485107422 4456788 0 -1
-3.6440627574920654 5.400237560272217 -0.6015724539756775 4456788 0 -1
-3.9045920372009277 5.237811088562012 0.350917249917984 4456788 0 -1
-3.706973075866699 5.385087490081787 -0.2506551742553711 4456788 0 -1
-5.710742473602295 3.1824893951416016 -0.2506551742553711 4456788 0 -1
-4.853565692901611 4.36871862411499 0.40104830265045166 4456788 0 -1
-3.7171921730041504 5.399932861328125 -0.5038044452667236 4456788 0 -1
-3.7171921730041504 5.399932861328125 -0.5038044452667236 4456788 0 -1
-3.7171921730041504 5.399932861328125 -0.5038044452667236 4456788 0 -1
-3.670856237411499 5.439943313598633 -0.40304356813430786 4456788 0 -1
-3.714886426925659 5.396583080291748 -0.5541849136352539 4456788 0 -1
-3.6669600009918213 5.434169292449951 -0.5038044452667236 4456788 0 -1
-3.6669600009918213 5.434169292449951 -0.5038044452667236 4456788 0 -1
-3.724210739135742 5.410128593444824 -0.3022826611995697 4456788 0 -1
-3.727167844772339 5.414423942565918 -0.15114133059978485 4456788 0 -1
-3.73768949508667 5.429708957672119 -0.45566868782043457 4456788 0 -1
-3.687180280685425 5.464134216308594 -0.45566868782043457 4456788 0 -1
-3.687180280685425 5.464134216308594 -0.45566868782043457 4456788 0 -1
-3.6920711994171143 5.4713826179504395 -0.30377912521362305 4456788 0 -1
-3.7307374477386475 5.419609546661377 -0.6075582504272461 4456788 0 -1
-3.6828272342681885 5.457683563232422 -0.5569283962249756 4456788 0 -1
-3.7355942726135254 5.426665306091309 -0.5062985420227051 4456788 0 -1
-4.139442443847656 5.125268459320068 -0.5062985420227051 4456788 0 -1
-3.6384940147399902 5.500636577606201 -0.40503883361816406 4456788 0 -1
-3.693265676498413 5.4731526374816895 -0.25314927101135254 10672695 0 -1
-3.710258722305298 5.498334884643555 -0.305275559425354 4456788 0 -1
-3.9061851501464844 5.345441818237305 -0.5087926387786865 4456788 0 -1
-3.7072012424468994 5.493803977966309 -0.40703409910202026 4456788 0 -1
-3.7088394165039062 5.496232032775879 -0.35615482926368713 4456788 0 -1
-3.7132046222686768 5.5027008056640625 -0.152637779712677 4456788 0 -1
-4.0076446533203125 5.269802570343018 0.5087926387786865 4456788 0 -1
-3.632094383239746 5.49096155166626 0.8649474382400513 4456788 0 -1
-2.670501232147217 6.29030704498291 -1.7860116958618164 4456788 0 -1
-2.7514545917510986 6.0537638664245605 -2.3813488483428955 4456788 0 -1
-5.512453079223633 4.399853706359863 0.3788509666919708 4456788 0 -1
-2.815321683883667 6.058135509490967 -2.3923227787017822 4456788 0 -1
-2.6007559299468994 6.270371913909912 -2.0660970211029053 4456788 0 -1
-2.3282580375671387 6.501452445983887 -1.631129264831543 4456788 0 -1
-1.586817741394043 6.4891486167907715 -2.3923227787017822 4456788 0 -1
-1.586817741394043 6.4891486167907715 -2.3923227787017822 4456788 0 -1
-2.6250596046447754 6.328967571258545 -1.9663337469100952 4456788 0 -1
-5.547677516937256 4.427968502044678 0.6554446220397949 4456788 0 -1
-2.738330125808716 6.602060794830322 -0.4389583170413971 4456788 4 -1
-2.740588665008545 6.607505798339844 -0.3292187452316284 4456788 4 -1
-2.740588665008545 6.607505798339844 -0.3292187452316284 4456788 4 -1
-2.7395403385162354 6.604978561401367 -0.38408854603767395 4456788 4 -1
-2.7354238033294678 6.595053672790527 -0.5486978888511658 4456788 4 -1
-2.468850612640381 6.720943450927734 0.10973957926034927 4456788 4 -1
-5.594089508056641 4.465013027191162 0.21947915852069855 4456788 0 -1
-3.036412477493286 6.3917341232299805 -1.0973957777023315 13164576 0 -1
-2.751992702484131 6.635001182556152 -0.38583439588546753 4456788 4 -1
-5.553785800933838 4.544771671295166 0.49607279896736145 4456788 0 -1
-6.16881799697876 3.689892053604126 -0.2755959928035736 4456788 0 -1
-5.559025287628174 4.5490593910217285 0.38583439588546753 4456788 0 -1
-5.113882064819336 5.03464937210083 -0.49607279896736145 4456788 0 -1
-2.6550021171569824 6.401158809661865 -1.9291719198226929 2328718 0 -1
-1.575581431388855 6.913223743438721 1.2126224040985107 2328718 0 -1
-1.575581431388855 6.913223743438721 1.2126224040985107 2328718 0 -1
-2.7585790157318115 6.650880336761475 -0.609054684638977 4456788 4 -1
-2.7663979530334473 6.669731616973877 -0.27684304118156433 4456788 4 -1
-2.7644453048706055 6.6650238037109375 -0.3875802457332611 4456788 0 -1
-2.680830717086792 6.314637660980225 -2.270112991333008 4456788 0 -1
-4.484330654144287 5.665106773376465 0.11073721200227737 4456788 0 -1
-3.781831741333008 5.950748443603516 -1.724158525466919 4456788 0 -1
-2.4922080039978027 6.784529209136963 -0.6674162149429321 4456788 4 -1
-2.766822338104248 6.369007587432861 -2.1134846210479736 4456788 0 -1
-2.476144790649414 6.740799903869629 -1.0567423105239868 4456788 4 -1
-2.766822338104248 6.369007587432861 -2.1134846210479736 4456788 0 -1
-2.303914785385132 6.433475494384766 -2.447192668914795 4456788 0 -1
-4.504927158355713 5.691126346588135 0.05561801418662071 4456788 0 -1
-2.6256918907165527 6.801660537719727 -0.05586742237210274 4456788 4 -1
-2.513960361480713 6.843745231628418 -0.05586742237210274 4456788 4 -1
-2.892807722091675 6.224873065948486 -2.4581665992736816 4456788 0 -1
-2.357306480407715 6.58256721496582 -2.067094564437866 4456788 0 -1
-4.525128364562988 5.716647148132324 -0.05586742237210274 4456788 0 -1
-2.637413740158081 6.832025051116943 -0.05611683055758476 4456788 4 -1
-2.637413740158081 6.832025051116943 -0.05611683055758476 4456788 4 -1
-2.7338573932647705 6.748663902282715 0.7856356501579285 4456788 4 -1
-2.636794090270996 6.83042049407959 -0.16835050284862518 4456788 4 -1
-2.421644449234009 6.592433929443359 -2.0763227939605713 4456788 0 -1
-5.672991752624512 4.4141411781311035 -1.4029208421707153 4456788 0 -1
-4.487237453460693 5.783596038818359 -0.22446732223033905 4456788 0 -1
-2.748208999633789 6.784091472625732 0.7327611446380615 4456788 4 -1
-2.5921618938446045 6.882266521453857 0.16909871995449066 4456788 4 -1
-2.6492133140563965 6.86259126663208 0 4456788 4 -1
-2.5921618938446045 6.882266521453857 0.16909871995449066 4456788 4 -1
-5.223406791687012 5.142477512359619 -0.6200286149978638 4456788 0 -1
-4.903862953186035 5.483211994171143 0 4456788 0 -1
-4.542957782745361 5.739171028137207 0.7327611446380615 4456788 0 -1
-3.0146870613098145 6.63292932510376 1.0145922899246216 4456788 0 -1
-4.496042251586914 5.7949442863464355 0.5636624097824097 4456788 0 -1
-4.509299278259277 5.812031269073486 0 4456788 0 -1
-2.5150842666625977 6.515139579772949 -2.3110158443450928 4664956 0 -1
-2.6589818000793457 6.8878960609436035 0.28307825326919556 4456788 4 -1
-2.6559314727783203 6.879993915557861 0.4529251754283905 4456788 4 -1
-2.7174713611602783 6.870631217956543 0.05661564692854881 4456788 4 -1
-2.734466075897217 6.750165939331055 1.2455443143844604 4456788 0 -1
-2.514504909515381 6.8452277183532715 1.1889286041259766 4456788 0 -1
-2.6030962467193604 6.91129732131958 0.22646258771419525 4456788 4 -1
-2.604243278503418 6.914342880249023 -0.05661564692854881 4456788 4 -1
-2.6036317348480225 6.912718772888184 0.16984695196151733 4456788 4 -1
-2.602407693862915 6.9094696044921875 0.28307825326919556 4456788 4 -1
-5.252720355987549 5.171336650848389 -0.509540855884552 4456788 0 -1
-4.867659091949463 5.5561203956604 0.16984695196151733 4456788 0 -1
-2.9686594009399414 6.68007230758667 1.0756973028182983 4456788 0 -1
-4.6902618408203125 5.691197395324707 0.4529251754283905 4456788 0 -1
-4.529252052307129 5.837748050689697 0 4456788 0 -1
-2.653964042663574 6.551443099975586 -2.1513946056365967 4017546 0 -1
