VERSION .7
FIELDS x y z rgb label object
SIZE 4 4 4 4 4 4
TYPE F F F I I I
COUNT 1 1 1 1 1 1
WIDTH 435
HEIGHT 1
POINTS 435
VIEWPOINT 0 0 0 1 0 0 0
DATA ascii
-0.03835703432559967 0.31050610542297363 0.08978693187236786 4456788 0 -1
0.031165091320872307 0.31131020188331604 -0.08978693187236786 4456788 0 -1
0.582977831363678 0.2754325866699219 -0.08978693187236786 4456788 0 -1
-0.6333292722702026 0.14986014366149902 -0.014964488334953785 4456788 0 -1
-0.5287297368049622 0.3797472417354584 0.004988162778317928 4147337 0 -1
0.49289944767951965 0.4233741760253906 -0.039905302226543427 4147337 0 -1
0.5236955881118774 0.3865635395050049 -0.009976325556635857 4147337 0 -1
0.6334967017173767 0.14989975094795227 0 4147337 0 -1
-0.6154558658599854 0.201982781291008 0.06484611332416534 3887499 0 -1
-0.5934794545173645 0.2537307143211365 0.08479876816272736 3887499 0 -1
-0.20794326066970825 0.5958763957023621 -0.1596212089061737 3887499 0 -1
0.2931314706802368 0.5544202327728271 0.17458570003509521 3887499 0 -1
0.5598275065422058 0.3909371495246887 -0.03142542764544487 4456788 0 -1
0.658362865447998 0.17765872180461884 -0.047138139605522156 4456788 0 -1
0.5339812636375427 0.4262057840824127 -0.020950283855199814 4456788 0 -1
0.616562008857727 0.2912997007369995 -0.047138139605522156 4456788 0 -1
-0.6651520133018494 0.15739013254642487 0.0052375709637999535 4456788 0 -1
0.5227721333503723 0.4383832812309265 -0.04190056771039963 4147337 0 -1
0.6492871642112732 0.21308568120002747 -0.015712713822722435 4147337 0 -1
0.6283424496650696 0.26863569021224976 -0.015712713822722435 3887499 0 -1
0.6586928963661194 0.17774778604507446 0.04190056771039963 3887499 0 -1
-1.5561614036560059 2.129538059234619 -0.40902936458587646 3692940 0 -1
-2.0735301971435547 1.6134086847305298 -0.47038376331329346 2977934 0 -1
-1.5477269887924194 2.1605987548828125 -0.24541760981082916 2977934 0 -1
-1.2227215766906738 2.3618252277374268 0.2249661386013031 2977934 0 -1
-2.1493847370147705 1.5437432527542114 -0.3476749360561371 2134668 0 -1
-2.1771492958068848 1.4769760370254517 -0.4499322772026062 2271109 0 -1
0.22416561841964722 2.650097370147705 0.2249661386013031 2271109 0 -1
1.2215412855148315 2.2625961303710938 0.7158013582229614 2271109 0 -1
-1.5598618984222412 2.1775388717651367 -0.3519148826599121 4456788 0 -1
-1.5769846439361572 2.158033847808838 -0.3933166265487671 3692940 0 -1
-2.0839743614196777 1.6633578538894653 -0.43471840023994446 2977934 0 -1
-1.9024667739868164 1.9141268730163574 -0.12420525401830673 2977934 0 -1
-1.9024667739868164 1.9141268730163574 -0.12420525401830673 2977934 0 -1
-1.6024878025054932 2.14965558052063 -0.3312140107154846 2977934 0 -1
-1.2390955686569214 2.393453598022461 0.1863078773021698 2977934 0 -1
-2.1591873168945312 1.593794345855713 -0.31051313877105713 2134668 0 -1
-2.177217721939087 1.5203883647918701 -0.49682101607322693 2271109 0 -1
-1.508988618850708 2.2362120151519775 -0.14490613341331482 2271109 0 -1
-1.575257420539856 2.199030637741089 -0.39805540442466736 4456788 0 -1
-1.9978985786437988 1.8399090766906738 -0.3142542541027069 4456788 0 -1
-1.58792245388031 2.173001766204834 -0.4818565249443054 4456788 0 -1
-1.5959844589233398 2.1840341091156006 -0.39805540442466736 3692940 0 -1
-1.7774252891540527 2.1134488582611084 0.1695975363254547 4456788 0 -1
-1.5117900371551514 2.285508155822754 0.3815944492816925 4456788 0 -1
-1.8231199979782104 2.0809743404388428 -0.02119969204068184 4456788 0 -1
-1.8223170042037964 2.0800578594207764 0.08479876816272736 4456788 0 -1
-1.8443732261657715 2.062270164489746 0 4147337 0 -1
-1.8861349821090698 2.06563138961792 -0.10724549740552902 4456788 0 -1
-1.8446226119995117 2.105518341064453 0 4456788 0 -1
-1.8426721096038818 2.1032919883728027 0.1286945939064026 4456788 0 -1
-1.8660169839859009 2.08647084236145 0.021449100226163864 4147337 0 -1
-1.9586790800094604 2.474421977996826 -0.09677036106586456 4456788 0 -1
-1.8958611488342285 2.3004517555236816 1.0402814149856567 4212104 0 -1
-1.8114961385726929 2.5796639919281006 -0.4888399541378021 4456788 0 -1
-1.7964028120040894 2.5581705570220947 0.6354919672012329 4456788 7 -1
-1.7964028120040894 2.5581705570220947 0.6354919672012329 4456788 7 -1
-1.9154061079025269 2.3241677284240723 1.0510059595108032 4212104 0 -1
-1.8117908239364624 2.5800838470458984 0.6666679382324219 4456788 7 -1
-1.7846157550811768 2.5924956798553467 0.6913593411445618 4456788 7 -1
-1.8055567741394043 2.5712060928344727 0.7160508036613464 4456788 7 -1
-1.83594810962677 2.5629501342773438 0.6666679382324219 4456788 7 -1
-1.8328485488891602 2.5586233139038086 0.6913593411445618 4456788 7 -1
-1.835919737815857 2.6144447326660156 0.6235203742980957 4456788 7 -1
-1.8270021677017212 2.60174560546875 0.6983428001403809 4456788 7 -1
-1.9032953977584839 2.553173780441284 0.6734020113945007 4456788 7 -1
-1.799477458000183 2.6140851974487305 0.723283588886261 4456788 7 -1
-1.857504963874817 2.593043088912964 0.6484611630439758 4456788 7 -1
-1.8483927249908447 2.632206678390503 0.6801360249519348 4456788 7 -1
-1.87608003616333 2.618973731994629 0.6549457907676697 4456788 7 -1
-1.928450107574463 2.5869174003601074 0.6297555565834045 4456788 7 -1
-1.900765299797058 2.6011133193969727 0.6549457907676697 4456788 7 -1
-1.9863781929016113 2.5602409839630127 0.5541849136352539 2458766 7 -1
-1.9004381895065308 2.652977228164673 0.610551118850708 4456788 7 -1
-1.8915828466415405 2.640615224838257 0.6868700385093689 4456788 7 -1
-1.9195847511291504 2.6268668174743652 0.6614304184913635 4456788 7 -1
-2.0033159255981445 2.5820720195770264 0.5851114988327026 2912910 7 -1
-2.0111303329467773 2.592144012451172 0.5087926387786865 2782862 7 -1
-1.8452074527740479 2.789564847946167 -0.23120135068893433 4456788 0 -1
-1.9497482776641846 2.6681442260742188 -0.5651588439941406 4456788 0 -1
-1.8482528924942017 2.7941689491271973 -0.12844519317150116 4456788 0 -1
-1.7443400621414185 2.857421636581421 -0.17982326447963715 4456788 0 -1
-1.5658808946609497 2.961660861968994 0.12844519317150116 4456788 0 -1
-1.9414238929748535 2.656752824783325 -0.642225980758667 4456788 0 -1
-1.8185595273971558 2.8047754764556885 -0.2568903863430023 4456788 0 -1
-1.731691837310791 2.8946609497070312 0.285322904586792 4456788 0 -1
-1.8631219863891602 2.816648006439209 -0.23344601690769196 4456788 0 -1
-1.8899457454681396 2.800762891769409 -0.20750758051872253 4456788 0 -1
-1.7604973316192627 2.8838891983032227 -0.20750758051872253 4456788 0 -1
-1.8854851722717285 2.7941527366638184 -0.3112613558769226 4456788 0 -1
-1.9071621894836426 2.8262765407562256 -0.23569069802761078 4456788 0 -1
-1.90361487865448 2.821019411087036 -0.3142542541027069 4456788 0 -1
-2.0752487182617188 2.7288224697113037 0.6137934327125549 3692940 7 -1
-2.0974974632263184 2.758078098297119 0.5925937294960022 3692940 7 -1
-2.9482877254486084 2.472358226776123 0.4451935291290283 4456788 0 -1
-2.955383777618408 2.478308916091919 0.35615482926368713 4212104 0 -1
-2.9780123233795166 2.497284412384033 0.38907670974731445 4456788 0 -1
-3.0077922344207764 2.4613354206085205 0.38907670974731445 4212104 0 -1
-3.030428409576416 2.479858875274658 0.42249739170074463 4212104 0 -1
-2.893151044845581 2.6643669605255127 0.5477002859115601 4212104 0 -1
4.8922014236450195 1.7351075410842896 1.0976452827453613 3432845 0 -1
-5.054717540740967 1.0053037405014038 1.2602593898773193 3432845 0 -1
-3.1842262744903564 3.942563772201538 1.6770203113555908 4456788 0 -1
-3.5534329414367676 3.973240375518799 -0.2863205373287201 3238030 0 -1
-1.8501193523406982 6.645954608917236 -0.1586235761642456 8180304 4 -1
-1.85055410861969 6.647516250610352 0.052874527871608734 11918891 4 -1
-1.797522783279419 6.661422252655029 -0.10574905574321747 12640037 4 -1
-1.7522661685943604 6.704587936401367 -0.21249572932720184 4899181 4 -1
-1.8057365417480469 6.691861152648926 0.15937180817127228 6343264 4 -1
-1.8062137365341187 6.693630218505859 0 7589974 4 -1
-1.7528839111328125 6.70695161819458 0.10624786466360092 8705099 4 -1
-1.8062137365341187 6.693630218505859 0 10016830 4 -1
-1.8061606884002686 6.69343376159668 0.05312393233180046 10672695 4 -1
-1.8048876523971558 6.688715934753418 -0.2656196653842926 12640037 4 -1
-1.8144805431365967 6.724266052246094 -0.10674668103456497 2468738 4 -1
-1.8146936893463135 6.725055694580078 0 4505456 4 -1
-1.7612686157226562 6.739033222198486 -0.053373340517282486 4899181 4 -1
-1.8146936893463135 6.725055694580078 0 7589974 4 -1
-1.9213838577270508 6.695141792297363 -0.053373340517282486 8705099 4 -1
-1.7074956893920898 6.751170635223389 0.16012002527713776 8705099 4 -1
-1.8229594230651855 6.755687713623047 0.10724549740552902 2139270 4 -1
-1.8231735229492188 6.756481170654297 0 2271109 4 -1
-1.8231199979782104 6.756282806396484 0.05362274870276451 2468738 4 -1
-1.715877652168274 6.784311771392822 0.05362274870276451 5424489 4 -1
-1.8231735229492188 6.756481170654297 0 8180304 4 -1
-1.8223170042037964 6.753306865692139 -0.21449099481105804 8705099 4 -1
-1.768251657485962 6.765751838684082 0.26811376214027405 9360965 4 -1
-1.822691798210144 6.754695892333984 -0.16086825728416443 11918891 4 -1
-1.1817030906677246 6.909702301025391 0.5387215614318848 4456788 0 -1
-1.7777290344238281 6.8020148277282715 0.053872156888246536 2139270 4 -1
-1.723706603050232 6.8152666091918945 0.10774431377649307 2271109 4 -1
-1.8307929039001465 6.784717559814453 0.21548862755298615 4505456 4 -1
-1.7230991125106812 6.812864780426025 0.21548862755298615 5424489 4 -1
-1.7239090204238892 6.816066741943359 0 5949540 4 -1
-1.7239090204238892 6.816066741943359 0 6343264 4 -1
-1.777572512626648 6.801415920257568 0.10774431377649307 6933851 4 -1
-1.7777290344238281 6.8020148277282715 0.053872156888246536 8180304 4 -1
-1.777572512626648 6.801415920257568 0.10774431377649307 8705099 4 -1
-1.777572512626648 6.801415920257568 0.10774431377649307 10672695 4 -1
-1.7314324378967285 6.845813274383545 -0.16236470639705658 2070155 4 -1
-1.677768588066101 6.861083984375 0 2271109 4 -1
-1.6775715351104736 6.860278129577637 0.10824313014745712 3651704 4 -1
-1.8906925916671753 6.791700839996338 0.4329725205898285 4045940 4 -1
-1.6765367984771729 6.856046676635742 0.2706078290939331 4045940 4 -1
-1.8392688035964966 6.816128253936768 0.21648626029491425 4505456 4 -1
-1.6765367984771729 6.856046676635742 0.2706078290939331 4505456 4 -1
-1.7858020067214966 6.832903861999512 0.10824313014745712 6343264 4 -1
-1.7300589084625244 6.840382099151611 0.32472941279411316 8180304 4 -1
-1.7851725816726685 6.830495834350586 0.21648626029491425 10672695 4 -1
-2.010249137878418 6.799650192260742 0.27185487747192383 2912910 4 -1
-1.8442121744155884 6.834447860717773 0.48933878540992737 2994813 4 -1
-1.9564355611801147 6.817280292510986 0.21748389303684235 3257723 4 -1
-1.8472559452056885 6.845727920532227 0.27185487747192383 3651704 4 -1
-1.8477447032928467 6.847538948059082 0.21748389303684235 4045940 4 -1
-1.7357290983200073 6.862801551818848 0.48933878540992737 8180304 4 -1
-1.683717966079712 6.885413646697998 0.3262258470058441 8705099 4 -1
-1.685054898262024 6.890880584716797 0.16311292350292206 10672695 4 -1
-1.634710431098938 6.920932292938232 -0.4915834367275238 3562893 4 -1
-2.0200047492980957 6.832648277282715 0.21848152577877045 2912910 4 -1
-1.908961534500122 6.857326030731201 0.382342666387558 2994813 4 -1
-1.9648901224136353 6.84674072265625 0.27310192584991455 3257723 4 -1
-1.855129361152649 6.874906063079834 0.32772231101989746 3651704 4 -1
-1.8005666732788086 6.889397144317627 0.32772231101989746 5424489 4 -1
-1.7377662658691406 6.870856285095215 0.764685332775116 8705099 4 -1
-1.7377662658691406 6.870856285095215 0.764685332775116 9360965 4 -1
-1.7990829944610596 6.8837199211120605 0.4369630515575409 10016830 4 -1
-1.7478009462356567 6.910531520843506 0.05462038144469261 10672695 4 -1
-1.2924875020980835 6.908410549163818 1.3717447519302368 4456788 0 -1
-1.6985149383544922 6.945924758911133 -0.38408854603767395 4147337 4 -1
-1.6977647542953491 6.942856311798096 -0.4389583170413971 3692940 4 -1
-2.0299439430236816 6.866267681121826 0.10973957926034927 2912910 4 -1
-1.9706099033355713 6.866671562194824 0.4938281178474426 2139270 4 -1
-1.9715977907180786 6.870113849639893 0.4389583170413971 2271109 4 -1
-1.6911481618881226 6.915798187255859 0.7681770920753479 8705099 4 -1
-1.8042597770690918 6.903527736663818 0.6035677194595337 9360965 4 -1
-1.2824779748916626 6.854909420013428 1.7638143301010132 4456788 0 -1
-1.526894211769104 6.9510722160339355 1.047264814376831 4456788 0 -1
-1.4706391096115112 6.954677581787109 1.1023839712142944 4456788 0 -1
-1.7068884372711182 6.980166912078857 -0.33071520924568176 4147337 4 -1
-1.7054818868637085 6.974414825439453 -0.4409535825252533 3692940 4 -1
-1.984058141708374 6.913532733917236 -0.11023839563131332 2912910 4 -1
-1.6523619890213013 6.995664119720459 -0.2755959928035736 2912910 4 -1
-1.8410183191299438 6.613262176513672 2.149648666381836 5424489 0 -1
-1.8112280368804932 6.930190086364746 0.6614304184913635 10672695 4 -1
-1.7358171939849854 6.641650676727295 2.149648666381836 11197490 0 -1
-1.5338032245635986 6.982524871826172 1.0520035028457642 4456788 0 -1
-1.9930357933044434 6.944815635681152 -0.11073721200227737 3692940 4 -1
-1.7139559984207153 7.009069442749023 -0.3875802457332611 3692940 4 -1
3.2110021114349365 6.472412109375 0.11073721200227737 6343264 5 -1
-1.7699220180511475 6.997994422912598 0.3322116434574127 10672695 4 -1
-1.8854529857635498 6.9872822761535645 0.5561801791191101 4456788 4 -1
-1.4234344959259033 7.001701831817627 1.2792143821716309 4456788 0 -1
3.225750207901001 6.502140045166016 0.05561801418662071 5424489 5 -1
3.225750207901001 6.502140045166016 0.05561801418662071 5949540 5 -1
3.225466012954712 6.501567363739014 0.11123602837324142 6343264 5 -1
3.2399301528930664 6.530722141265869 0.11173484474420547 3651704 5 -1
3.2399301528930664 6.530722141265869 0.11173484474420547 4045940 5 -1
3.296081304550171 6.5032830238342285 0.05586742237210274 4505456 5 -1
3.1836016178131104 6.557175636291504 0.1676022708415985 4899181 5 -1
3.2403106689453125 6.531489372253418 0 5424489 5 -1
3.2394542694091797 6.529763221740723 0.1676022708415985 6343264 5 -1
3.295790910720825 6.502710342407227 -0.11173484474420547 6933851 5 -1
3.295306921005249 6.501755714416504 0.1676022708415985 10016830 5 -1
3.254394054412842 6.559877395629883 0.11223366111516953 3651704 5 -1
3.254394054412842 6.559877395629883 0.11223366111516953 4045940 5 -1
3.309337615966797 6.529438495635986 0.22446732223033905 4505456 5 -1
3.2539162635803223 6.5589141845703125 0.16835050284862518 4899181 5 -1
3.254680633544922 6.560454845428467 0.05611683055758476 5424489 5 -1
3.253247022628784 6.557565212249756 0.22446732223033905 6343264 5 -1
3.2692418098449707 6.589806079864502 0 4045940 5 -1
3.3252177238464355 6.560770034790039 0.11273247748613358 4899181 5 -1
3.3255105018615723 6.561347961425781 -0.05636623874306679 5424489 5 -1
3.3255105018615723 6.561347961425781 -0.05636623874306679 5949540 5 -1
3.3240456581115723 6.55845832824707 0.22546495497226715 6343264 5 -1
3.0468945503234863 6.275603771209717 2.4344727993011475 4045940 0 -1
3.171203374862671 6.256895065307617 2.321241617202759 4899181 0 -1
3.335514783859253 6.581087112426758 -0.3963095247745514 5424489 5 -1
3.3367912769317627 6.5836052894592285 -0.33969390392303467 5949540 5 -1
3.178454637527466 6.690736770629883 -0.4549204409122467 2782862 5 -1
3.229774236679077 6.652276039123535 -0.6255156397819519 2328718 5 -1
3.231778860092163 6.656404972076416 -0.5686505436897278 2264205 5 -1
3.1768620014190674 6.687384605407715 -0.5117855072021484 2139270 5 -1
3.0389297008514404 6.397033214569092 2.2177371978759766 4045940 0 -1
3.1230759620666504 6.720374584197998 0.39805540442466736 10672695 5 -1
3.3514907360076904 6.612607955932617 0.3411903381347656 10672695 5 -1
3.233949661254883 6.660876274108887 -0.8567169904708862 3887499 5 -1
3.236738443374634 6.666620254516602 -0.7996025085449219 3757452 5 -1
3.189006805419922 6.712949752807617 -0.5711446404457092 3692940 5 -1
3.250838041305542 6.6956610679626465 -0.39980125427246094 3562893 5 -1
3.252082109451294 6.698223114013672 -0.3426867723464966 2782862 5 -1
3.245953321456909 6.6855998039245605 -0.5711446404457092 2588302 5 -1
3.245953321456909 6.6855998039245605 -0.5711446404457092 2264205 5 -1
3.2494022846221924 6.6927032470703125 -0.4569157063961029 2072968 5 -1
3.245953321456909 6.6855998039245605 -0.5711446404457092 2139270 5 -1
3.2439398765563965 6.681452751159668 -0.6282591223716736 2271109 5 -1
3.031581163406372 6.67009973526001 1.3707470893859863 4899181 0 -1
3.0833661556243896 6.784037113189697 0.1713433861732483 7589974 5 -1
3.1409265995025635 6.758786678314209 0.11422892659902573 8705099 5 -1
3.139819622039795 6.756404399871826 0.22845785319805145 10672695 5 -1
3.166404962539673 6.665371894836426 -1.2620052099227905 4147337 0 -1
3.2534782886505127 6.701098918914795 -0.7457303404808044 3887499 5 -1
3.2009458541870117 6.738081455230713 -0.6310026049613953 3757452 5 -1
3.2009458541870117 6.738081455230713 -0.6310026049613953 3692940 5 -1
3.2619564533233643 6.718560695648193 -0.5162748694419861 3562893 5 -1
3.2673401832580566 6.729649543762207 -0.28681936860084534 2782862 5 -1
3.2601277828216553 6.714794635772705 -0.5736387372016907 2588302 5 -1
3.2650339603424072 6.724899768829346 -0.4015471041202545 2523534 5 -1
3.208980083465576 6.754993915557861 -0.3441832363605499 2264205 5 -1
3.2601277828216553 6.714794635772705 -0.5736387372016907 2271109 5 -1
3.097285270690918 6.814662456512451 -0.11472774296998978 2468738 5 -1
3.097285270690918 6.814662456512451 -0.11472774296998978 4045940 5 -1
3.1546425819396973 6.78830099105835 -0.11472774296998978 4505456 5 -1
3.1526966094970703 6.784113883972168 0.28681936860084534 5424489 5 -1
3.0968306064605713 6.813661575317383 0.17209161818027496 6933851 5 -1
3.0968306064605713 6.813661575317383 0.17209161818027496 7589974 5 -1
3.096193790435791 6.812260627746582 0.22945548593997955 8705099 5 -1
3.0975582599639893 6.815262317657471 0.05736387148499489 11918891 5 -1
3.207726001739502 6.752354145050049 -0.8065859079360962 3692940 5 -1
3.2761387825012207 6.747772216796875 -0.5185195207595825 3432845 5 -1
3.281545877456665 6.758908748626709 -0.28806641697883606 2782862 5 -1
3.272271156311035 6.739805698394775 -0.6337460875511169 2588302 5 -1
3.2229323387145996 6.784363746643066 -0.3456796705722809 2070155 5 -1
3.165379762649536 6.811406135559082 -0.3456796705722809 2072968 5 -1
3.1107518672943115 6.8442912101745605 -0.11522655934095383 2468738 5 -1
3.0534143447875977 6.870787143707275 0.05761327967047691 4045940 5 -1
3.2239749431610107 6.786558628082275 -0.28806641697883606 4505456 5 -1
3.051262140274048 6.8659443855285645 0.28806641697883606 4899181 5 -1
3.1107518672943115 6.8442912101745605 0.11522655934095383 5424489 5 -1
3.1066386699676514 6.835241317749023 0.4032929539680481 5949540 5 -1
3.1096556186676025 6.841879367828369 0.23045311868190765 7589974 5 -1
3.110295057296753 6.843286514282227 0.17283983528614044 8705099 5 -1
3.1107518672943115 6.8442912101745605 0.11522655934095383 9360965 5 -1
3.1096556186676025 6.841879367828369 0.23045311868190765 11918891 5 -1
3.1066386699676514 6.835241317749023 0.4032929539680481 12640037 5 -1
3.1613574028015137 6.802750110626221 -0.8679403066635132 3692940 5 -1
3.1711232662200928 6.823764801025391 -0.6364895701408386 2264205 5 -1
3.1764631271362305 6.835255146026611 -0.4629015028476715 2072968 5 -1
3.124218225479126 6.87391996383667 0.11572537571191788 3651704 5 -1
3.124218225479126 6.87391996383667 -0.11572537571191788 4045940 5 -1
3.0623080730438232 6.8907999992370605 0.40503883361816406 4505456 5 -1
3.123117208480835 6.871497631072998 0.23145075142383575 4899181 5 -1
3.124218225479126 6.87391996383667 0.11572537571191788 5424489 5 -1
3.121281385421753 6.867458343505859 0.34717613458633423 5949540 5 -1
3.122291088104248 6.869680404663086 0.2893134355545044 7589974 5 -1
3.124218225479126 6.87391996383667 0.11572537571191788 9360965 5 -1
3.121281385421753 6.867458343505859 0.34717613458633423 11918891 5 -1
3.2770979404449463 6.749747276306152 -1.1041297912597656 3562893 0 -1
3.1365790367126465 6.901116371154785 0.23244838416576385 3651704 5 -1
3.1379611492156982 6.9041571617126465 -0.058112096041440964 4045940 5 -1
3.1335361003875732 6.894421100616455 0.40678468346595764 4505456 5 -1
3.1365790367126465 6.901116371154785 0.23244838416576385 4899181 5 -1
3.137223958969116 6.902535438537598 0.1743362843990326 5424489 5 -1
3.137223958969116 6.902535438537598 0.1743362843990326 7589974 5 -1
3.1953208446502686 6.875833988189697 -0.1743362843990326 9360965 5 -1
3.529719114303589 6.67600679397583 -0.9921455979347229 4456788 0 -1
3.1403067111968994 6.909317970275879 0.641976535320282 4505456 5 -1
3.149207592010498 6.928901672363281 0.29180753231048584 4899181 5 -1
3.548295021057129 6.7111406326293945 -0.9377745985984802 4456788 0 -1
3.560119867324829 6.733505725860596 -0.703330934047699 4456788 0 -1
2.726529359817505 6.730574131011963 -2.403047561645508 5424489 0 -1
1.704492211341858 7.478848934173584 0.41202226281166077 4456788 0 -1
3.543691873550415 6.702434539794922 -1.2360666990280151 4456788 0 -1
-5.202986717224121 5.348621368408203 -1.8246699571609497 4456788 0 -1
0.4096446633338928 7.626360893249512 0.8240445256233215 4456788 0 -1
2.1918559074401855 7.201526165008545 1.5303683280944824 4456788 0 -1
3.6088972091674805 6.547214508056641 1.7658096551895142 4456788 0 -1
3.4275052547454834 6.762587070465088 1.2360666990280151 4456788 0 -1
3.1195969581604004 7.019711971282959 0 4505456 5 -1
3.1192307472229004 7.018887519836426 0.11772064119577408 4899181 5 -1
3.055137872695923 6.72192907333374 -2.118971586227417 5949540 0 -1
3.282214403152466 6.909154415130615 0.7063238620758057 6343264 5 -1
3.4038619995117188 6.861159324645996 0.5886031985282898 7589974 5 -1
3.3941986560821533 6.841681480407715 0.8240445256233215 13164576 5 -1
3.4279961585998535 6.763556003570557 1.4186334609985352 4456788 0 -1
2.9493958950042725 6.636725425720215 -2.600828170776367 5424489 0 -1
3.4772210121154785 6.860678195953369 0.5910972952842712 12640037 5 -1
3.408581018447876 6.87067174911499 0.8275362253189087 13164576 5 -1
-5.826484680175781 5.004637718200684 -1.0091053247451782 6343264 0 -1
3.2551543712615967 7.004586696624756 0.5935913920402527 10672695 5 -1
3.4873528480529785 6.880668640136719 0.7123096585273743 10672695 5 -1
3.4847705364227295 6.875574111938477 0.7716687917709351 11918891 5 -1
3.551077365875244 6.85930871963501 0.5935913920402527 12640037 5 -1
3.432708263397217 6.919304847717285 0.5935913920402527 13164576 5 -1
-5.763826370239258 4.950817584991455 -1.669039249420166 5949540 0 -1
-5.785808086395264 5.088337421417236 -1.0729538202285767 6343264 0 -1
4.131112098693848 6.122009754180908 2.4439504146575928 6343264 0 -1
3.2052254676818848 7.052152633666992 0.7153025269508362 12640037 5 -1
3.450793981552124 6.955760478973389 0.4768683612346649 13164576 5 -1
3.475602388381958 6.5736517906188965 2.394318103790283 7589974 0 -1
3.2186365127563477 7.081659317016602 0.7182954549789429 11918891 5 -1
3.213677406311035 7.070748329162598 0.8380113840103149 12640037 5 -1
1.9029425382614136 7.523937225341797 1.1420398950576782 6933851 0 -1
4.034878253936768 6.34891939163208 2.2239723205566406 6933851 0 -1
3.7638559341430664 6.553065299987793 2.103757619857788 7589974 0 -1
-5.8137617111206055 5.112921237945557 -1.2622545957565308 8705099 0 -1
3.2320473194122314 7.111166477203369 0.7212883234024048 11918891 5 -1
2.2990994453430176 7.341993808746338 1.6899895668029785 7589974 0 -1
3.7794735431671143 6.580256462097168 2.1124870777130127 7589974 0 -1
3.5843310356140137 6.92354154586792 1.3333358764648438 6933851 0 -1
-6.347632884979248 5.582435131072998 -0.84624183177948 2271109 0 -1
-1.8103138208389282 7.943165302276611 2.408534526824951 2271109 0 -1
-6.116277694702148 5.63261604309082 -1.895003080368042 2006409 0 -1
-6.303570747375488 5.543684482574463 -1.5029335021972656 2271109 0 -1
-2.057846784591675 7.873811721801758 2.548452377319336 2271109 0 -1
-6.3636651039123535 5.466047286987305 -1.7054529190063477 2271109 0 -1
6.376541614532471 8.218718528747559 -2.5437135696411133 2006409 0 -1
9.306855201721191 4.397099018096924 2.9539899826049805 2271109 0 -1
6.339510440826416 8.336060523986816 -2.386835813522339 2006409 0 -1
9.356179237365723 4.420402526855469 2.880664110183716 2006409 0 -1
6.350659370422363 8.350720405578613 -2.3045313358306885 2271109 0 -1
9.26816463470459 4.378818988800049 3.2098827362060547 2271109 0 -1
9.29114055633545 4.389674186706543 3.127578020095825 2666112 0 -1
9.442782402038574 4.251819610595703 2.971947431564331 2070922 0 -1
9.38453197479248 4.433797836303711 2.8893933296203613 2006409 0 -1
9.412883758544922 4.447192668914795 2.898122549057007 2006409 0 -1
6.117303371429443 9.065401077270508 0.08380113542079926 4147337 6 -1
6.199645519256592 9.006171226501465 -0.25140342116355896 3107982 6 -1
6.135689735412598 9.09264850616455 0 3107982 6 -1
6.153896331787109 9.119629859924316 0 3302798 6 -1
6.274372100830078 9.114725112915039 -0.1695975363254547 3651704 6 -1
6.274372100830078 9.114725112915039 -0.1695975363254547 5424489 6 -1
6.274372100830078 9.114725112915039 -0.1695975363254547 5949540 6 -1
6.293380260467529 9.142338752746582 0.08504817634820938 2139270 6 -1
6.203958511352539 9.193818092346191 -0.4252408742904663 3257723 6 -1
6.207787990570068 9.199492454528809 -0.17009635269641876 5424489 6 -1
6.208334445953369 9.200303077697754 -0.08504817634820938 5949540 6 -1
6.205600261688232 9.196250915527344 -0.3401927053928375 6933851 6 -1
6.138540744781494 9.280180931091309 0.3411903381347656 2006409 6 -1
6.126805305480957 9.262438774108887 0.7676782608032227 2072968 6 -1
6.225992679595947 9.226470947265625 0.1705951690673828 2139270 6 -1
6.140705108642578 9.283452033996582 -0.1705951690673828 2994813 6 -1
6.222152233123779 9.220779418945312 -0.42648792266845703 3257723 6 -1
6.222152233123779 9.220779418945312 -0.42648792266845703 3651704 6 -1
6.226541042327881 9.227283477783203 -0.0852975845336914 5949540 6 -1
6.222152233123779 9.220779418945312 -0.42648792266845703 7589974 6 -1
6.069377422332764 9.360837936401367 0.42773497104644775 2523534 6 -1
6.14471960067749 9.289522171020508 0.7699229121208191 2264205 6 -1
5.8154497146606445 8.791735649108887 -3.678520679473877 2072968 0 -1
6.159202575683594 9.311416625976562 -0.08554699271917343 2994813 6 -1
6.235940933227539 9.24121379852295 -0.5988289713859558 3651704 6 -1
6.147800445556641 9.29417896270752 -0.6843759417533875 7589974 6 -1
6.222708225250244 9.221603393554688 -0.9410169124603271 8180304 6 -1
6.2088942527771 9.201131820678711 -1.1976579427719116 9360965 6 -1
6.2265706062316895 9.227327346801758 -0.8554699420928955 10672695 6 -1
6.176615238189697 9.33774185180664 -0.1715928018093109 3238030 6 -1
6.151171684265137 9.299276351928711 -1.0295567512512207 2977934 6 -1
6.170808792114258 9.328963279724121 0.5147783756256104 2523534 6 -1
6.176615238189697 9.33774185180664 0.1715928018093109 2458766 6 -1
6.151171684265137 9.299276351928711 1.0295567512512207 2328718 0 -1
6.162634372711182 9.316604614257812 0.7721676230430603 2264205 6 -1
6.16572380065918 9.32127571105957 0.6863712072372437 2006409 6 -1
6.260194778442383 9.277155876159668 0.3431856036186218 2072968 6 -1
6.155359268188477 9.3056058883667 -0.9437603950500488 8180304 6 -1
6.155359268188477 9.3056058883667 -0.9437603950500488 8705099 6 -1
6.231986999511719 9.235353469848633 -1.1153532266616821 9360965 6 -1
6.231986999511719 9.235353469848633 -1.1153532266616821 10016830 6 -1
6.5300679206848145 9.115856170654297 -0.602320671081543 4147337 6 -1
6.25643253326416 8.909482955932617 2.7534658908843994 3562893 0 -1
6.444146156311035 9.176796913146973 -0.602320671081543 3238030 6 -1
6.1951165199279785 9.365711212158203 0.08604580909013748 2458766 6 -1
6.188747406005859 9.35608196258545 0.5162748694419861 2328718 6 -1
6.186379909515381 9.352503776550293 0.602320671081543 2264205 6 -1
6.014536380767822 9.463930130004883 -0.602320671081543 2072968 6 -1
6.366641998291016 9.24876594543457 -0.17209161818027496 2072968 6 -1
6.037087917327881 9.31103801727295 -1.7209161520004272 2271109 0 -1
6.169053077697754 9.326309204101562 -1.0325497388839722 8180304 6 -1
6.245097637176514 9.254782676696777 -1.204641342163086 8705099 6 -1
6.465297698974609 9.206917762756348 -0.517771303653717 4147337 6 -1
6.4673895835876465 9.2098970413208 -0.43147608637809753 3562893 6 -1
6.514972686767578 9.094783782958984 -1.2944282293319702 3432845 6 -1
6.379093647003174 9.266854286193848 -0.517771303653717 3238030 6 -1
6.213255405426025 9.393133163452148 0 2264205 6 -1
6.363122463226318 9.24365234375 -0.9492473602294922 2134668 6 -1
6.122462272644043 9.442710876464844 -0.43147608637809753 2139270 6 -1
6.122462272644043 9.442710876464844 -0.43147608637809753 2139270 6 -1
6.1160054206848145 9.246111869812012 -1.9847899675369263 2271109 0 -1
6.565021991729736 9.164651870727539 -0.6923570036888123 4147337 6 -1
6.521350383758545 9.103686332702637 -1.4712586402893066 3432845 0 -1
6.196180820465088 9.001137733459473 -2.8559725284576416 3302798 0 -1
6.3890557289123535 9.281325340270996 -0.7789016366004944 3238030 6 -1
6.328652381896973 9.193578720092773 -1.730892539024353 2977934 0 -1
6.367346286773682 9.249788284301758 -1.2116247415542603 2264205 6 -1
6.114107131958008 9.429824829101562 -1.1250801086425781 2139270 6 -1
6.395549774169922 9.290759086608887 -1.041528344154358 3238030 6 -1
6.35432767868042 9.230876922607422 -1.649086594581604 2977934 0 -1
6.374307155609131 9.259900093078613 -1.388704538345337 2264205 0 -1
6.299402713775635 9.335259437561035 -1.2151165008544922 2006409 6 -1
5.877880573272705 9.436541557312012 2.1698508262634277 5949540 0 -1
6.049844264984131 9.519488334655762 -1.041528344154358 11918891 6 -1
6.049844264984131 9.519488334655762 -1.041528344154358 12640037 6 -1
6.071359157562256 9.55334186553955 -0.957477867603302 11197490 6 -1
6.071359157562256 9.55334186553955 -0.957477867603302 11918891 6 -1
6.319916725158691 9.180888175964355 -2.3569068908691406 4147337 0 -1
4.778502464294434 10.28259563446045 -1.4006761312484741 4147337 0 -1
6.728077411651611 9.207077026367188 -0.7003380656242371 4147337 0 -1
