VERSION .7
FIELDS x y z rgb label object
SIZE 4 4 4 4 4 4
TYPE F F F I I I
COUNT 1 1 1 1 1 1
WIDTH 686
HEIGHT 1
POINTS 686
VIEWPOINT 0 0 0 1 0 0 0
DATA ascii
-0.43284738063812256 5.117143630981445 0.27584540843963623 4456788 0 -1
-0.19394847750663757 5.0586090087890625 0.9063491821289062 4456788 0 -1
-0.19446489214897156 5.072077751159668 0.8275362253189087 4456788 0 -1
-0.669418454170227 5.095259189605713 0.19703243672847748 4456788 0 -1
-0.19446489214897156 5.072077751159668 0.8275362253189087 4456788 0 -1
-0.8313714861869812 4.861228942871094 1.4580399990081787 4456788 0 -1
-0.0784790962934494 5.120433330535889 -0.4728778302669525 4456788 0 -1
0.541473925113678 5.018453121185303 -0.9851621389389038 4456788 0 -1
-1.0978938341140747 4.998079776763916 0.5122843384742737 3692940 0 -1
-1.022641897201538 5.0302510261535645 0.315251886844635 2264205 0 -1
-0.8196273446083069 5.027294158935547 -0.7093167304992676 2134668 0 -1
-1.0978938341140747 4.998079776763916 0.5122843384742737 2070155 0 -1
-0.3936481773853302 5.122279167175293 0.23643891513347626 2070155 0 -1
-0.27503442764282227 5.120319843292236 0.39406487345695496 2070922 0 -1
-0.9622211456298828 4.930039405822754 1.103381633758545 5424489 0 -1
-0.7134707570075989 5.123500347137451 0.1586235761642456 4456788 0 -1
-0.6741304397583008 5.131124019622803 -0.0396558940410614 4456788 0 -1
-0.4353944957256317 5.147256374359131 0.3172471523284912 4456788 0 -1
-0.23759286105632782 5.162456035614014 0.2775912582874298 4456788 0 -1
-0.31454411149024963 5.121624946594238 0.6741502285003662 4456788 0 -1
-0.43404528498649597 5.131305694580078 0.5155266523361206 4456788 0 -1
-0.23748791217803955 5.160175800323486 0.3172471523284912 4456788 0 -1
-0.5937197804450989 5.131404399871826 0.3172471523284912 4456788 0 -1
-0.5543833374977112 5.138099193572998 0.2775912582874298 4456788 0 -1
-0.27575162053108215 5.133671760559082 0.5948384404182434 4456788 0 -1
-0.31421518325805664 5.116269111633301 0.7138060927391052 4456788 0 -1
-0.2752261161804199 5.1238884925842285 0.6741502285003662 4456788 0 -1
-0.31421518325805664 5.116269111633301 0.7138060927391052 4456788 0 -1
-0.6151251792907715 4.9795331954956055 -1.2689886093139648 4456788 0 -1
-0.31311309337615967 5.098323822021484 -0.8327738046646118 4456788 0 -1
-0.39637264609336853 5.157730579376221 0.1586235761642456 4728182 0 -1
-1.0200679302215576 5.017590522766113 0.753462016582489 4147337 0 -1
-1.3482608795166016 4.996506690979004 0.0396558940410614 2070155 0 -1
-0.3964541554450989 5.158791542053223 0.1189676821231842 2070155 0 -1
-0.11828117817640305 5.14414644241333 0.5551825165748596 2070155 0 -1
-1.0626320838928223 5.025205612182617 0.6344943046569824 8180304 0 -1
-0.9906694889068604 5.0757975578308105 -0.198279470205307 8705099 0 -1
-1.0675612688064575 5.048515796661377 0.396558940410614 13164576 0 -1
-0.39640843868255615 5.158196926116943 0.5985795259475708 4456788 0 -1
-0.3146737813949585 5.123736381530762 0.8779166340827942 4456788 0 -1
-0.3553212285041809 5.140166282653809 0.7582007646560669 4456788 0 -1
-0.3171267509460449 5.163677215576172 0.5985795259475708 4456788 0 -1
-0.6778920888900757 5.159756183624268 -0.19952651858329773 4456788 0 -1
-0.3190080523490906 5.194309711456299 -0.19952651858329773 4456788 0 -1
-0.5161888003349304 5.15624475479126 -0.5187689065933228 4456788 0 -1
-0.2393193244934082 5.1999688148498535 -0.1596212089061737 4456788 0 -1
-0.6837250590324402 4.909893989562988 -1.5962121486663818 4456788 0 -1
-0.46689143776893616 5.056204795837402 -1.1572537422180176 4456788 0 -1
-0.27416402101516724 5.1041154861450195 -0.9976325631141663 4456788 0 -1
-0.8379867672920227 5.139904499053955 0.039905302226543427 4456788 0 -1
-0.6369647979736328 5.156328201293945 0.35914772748947144 4456788 0 -1
-0.4752512276172638 5.146737098693848 0.6384848356246948 4456788 0 -1
-0.31547144055366516 5.13672399520874 0.7981060743331909 4456788 0 -1
-0.6164365410804749 4.990148544311523 -1.3567802906036377 4456788 0 -1
-0.3146737813949585 5.123736381530762 -0.8779166340827942 4456788 0 -1
-0.3146737813949585 5.123736381530762 -0.8779166340827942 4456788 0 -1
-0.3146737813949585 5.123736381530762 -0.8779166340827942 4456788 0 -1
-1.1495845317840576 5.044064521789551 -0.5985795259475708 4456788 0 -1
-0.07969571650028229 5.199812412261963 -0.2793371081352234 4456788 0 -1
0.19943277537822723 5.201651573181152 0.1596212089061737 4456788 0 -1
-0.3192049264907837 5.197515487670898 0.07981060445308685 4456788 0 -1
-0.31765463948249817 5.172272682189941 0.5187689065933228 4724328 0 -1
-0.7573990225791931 5.146984577178955 0.23943181335926056 13164576 0 -1
-0.6021615266799927 5.204364776611328 0.12046413123607635 4456788 0 -1
-0.31881436705589294 5.191156387329102 0.6424753665924072 4456788 0 -1
-0.3988859951496124 5.190435409545898 0.602320671081543 4456788 0 -1
-0.397709459066391 5.175126075744629 0.7227848172187805 4456788 0 -1
-0.44158509373664856 5.220441818237305 0.12046413123607635 4456788 0 -1
-0.6415505409240723 5.193450450897217 -0.28108298778533936 4456788 0 -1
-0.27946099638938904 5.202729225158691 0.5621659755706787 4456788 0 -1
-0.27868807315826416 5.188339710235596 0.6826300621032715 4456788 0 -1
-0.6417960524559021 5.195437431335449 -0.2409282624721527 4456788 0 -1
-0.4007919728755951 5.215236663818359 0.3212376832962036 4456788 0 -1
-0.3210867643356323 5.228157043457031 -0.1606188416481018 4456788 0 -1
-0.48014187812805176 5.199700355529785 -0.44170182943344116 4456788 0 -1
-0.5098553895950317 5.092979907989502 -1.1243319511413574 4456788 0 -1
-0.15993840992450714 5.215817928314209 -0.4818565249443054 4456788 0 -1
-0.8831701874732971 5.164108753204346 -0.12046413123607635 4456788 0 -1
-0.6409458518028259 5.1885552406311035 0.36139240860939026 4456788 0 -1
0.1204323023557663 5.237700462341309 -0.12046413123607635 4456788 0 -1
-0.3166404962539673 5.155759811401367 0.8834036588668823 4456788 0 -1
-0.5098553895950317 5.092979907989502 -1.1243319511413574 4456788 0 -1
-0.3174431324005127 5.16882848739624 -0.803094208240509 4456788 0 -1
-1.001979947090149 5.133747577667236 -0.3212376832962036 4456788 0 -1
-0.08019381761550903 5.232311248779297 -0.28108298778533936 4456788 0 -1
0.2006792277097702 5.234161853790283 0.1606188416481018 4456788 0 -1
-0.3212282657623291 5.2304606437683105 -0.04015471041202545 4456788 0 -1
-0.319108784198761 5.195950508117676 -0.602320671081543 4456788 0 -1
-0.4815027713775635 5.214437961578369 0.20077355206012726 4600703 0 -1
-0.6008867025375366 5.193346977233887 0.36139240860939026 4505456 0 -1
-0.6866885423660278 5.226709842681885 0.12121235579252243 4456788 0 -1
-0.6868700385093689 5.228091239929199 0 4456788 0 -1
-0.4836951494216919 5.238180637359619 -0.3636370599269867 4456788 0 -1
-0.5240030884742737 5.234302043914795 -0.3636370599269867 4456788 0 -1
-0.4847925007343292 5.250064373016357 0.08080823719501495 4456788 0 -1
-0.6441654562950134 5.214618682861328 -0.44444531202316284 4456788 0 -1
-0.44313865900039673 5.238807678222656 -0.40404120087623596 4456788 0 -1
-0.40385136008262634 5.255046367645264 -0.1616164743900299 4456788 0 -1
-0.44188064336776733 5.223935604095459 0.5656576752662659 4456788 0 -1
-0.4414999186992645 5.2194342613220215 0.6060617566108704 4456788 0 -1
-0.48279547691345215 5.228437423706055 -0.4848494231700897 4456788 0 -1
-0.5534197688102722 5.129168510437012 -1.0909112691879272 4456788 0 -1
-0.3952998220920563 5.143771171569824 -1.0909112691879272 4456788 0 -1
-0.477260559797287 5.168497085571289 0.929294764995575 4456788 0 -1
-0.2798154652118683 5.209328651428223 -0.7676782608032227 4456788 0 -1
-0.7262272238731384 5.215106010437012 -0.28282883763313293 4456788 0 -1
-0.5613905191421509 5.203042507171631 -0.6464658975601196 4456788 0 -1
-4.367838382720947 2.5237669944763184 -1.5353565216064453 4456788 0 -1
-0.5667383074760437 5.252606391906738 -0.487842321395874 4456788 0 -1
-0.6881822347640991 5.238079071044922 0.487842321395874 4456788 0 -1
-0.5282475352287292 5.276700496673584 -0.162614107131958 4456788 0 -1
-0.6909273266792297 5.258973598480225 0.1219605803489685 4456788 0 -1
-0.48368576169013977 5.238079071044922 -0.6911099553108215 4456788 0 -1
-0.601856529712677 5.201728820800781 -0.8537240624427795 4456788 0 -1
-0.28427377343177795 5.29232931137085 -0.243921160697937 4456788 0 -1
-0.6363838911056519 5.151625633239746 -1.0976452827453613 4456788 0 -1
-3.3599483966827393 4.076985836029053 -0.487842321395874 4456788 0 -1
-4.593713760375977 2.6542794704437256 0.0406535267829895 4456788 0 -1
-3.526458740234375 3.9430794715881348 0.406535267829895 4523353 0 -1
-3.526458740234375 3.9430794715881348 0.406535267829895 4523353 0 -1
-0.8996267914772034 5.260334491729736 0.12270880490541458 4456788 0 -1
-0.6951661705970764 5.2912373542785645 0.12270880490541458 4456788 0 -1
-0.8589364290237427 5.268402099609375 -0.04090293496847153 4456788 0 -1
-0.8998381495475769 5.261570453643799 0.04090293496847153 4456788 0 -1
-0.5709575414657593 5.291711330413818 -0.40902936458587646 4456788 0 -1
-0.8589364290237427 5.268402099609375 0.04090293496847153 4456788 0 -1
-0.8997588753700256 5.261106967926025 -0.08180586993694305 4456788 0 -1
-0.8997588753700256 5.261106967926025 -0.08180586993694305 4456788 0 -1
-0.8994417786598206 5.259252548217773 -0.1636117398738861 4456788 0 -1
-0.7770645022392273 5.280623435974121 0.08180586993694305 4456788 0 -1
-3.5585553646087646 3.9789681434631348 0 4456788 0 -1
-3.388559103012085 4.1117024421691895 -0.3272234797477722 4456788 0 -1
-4.6220316886901855 2.6706416606903076 0 4456788 0 -1
-0.8455171585083008 5.186092853546143 -0.9407675266265869 7589974 0 -1
-0.9051123261451721 5.292409420013428 0.12345702946186066 4456788 0 -1
-0.9053249955177307 5.2936530113220215 0.04115234315395355 4456788 0 -1
-0.9051123261451721 5.292409420013428 -0.12345702946186066 4456788 0 -1
-0.9053249955177307 5.2936530113220215 0.04115234315395355 4456788 0 -1
-0.9157452583312988 5.114806175231934 1.3580273389816284 4456788 0 -1
-0.8229502439498901 5.306604385375977 0.0823046863079071 4456788 0 -1
-0.9460592269897461 5.284121990203857 -0.1646093726158142 4456788 0 -1
-3.5785717964172363 4.001349449157715 -0.1646093726158142 4456788 0 -1
-4.650214672088623 2.6869261264801025 0 4456788 0 -1
-3.579307794570923 4.002172470092773 0.12345702946186066 4456788 0 -1
-3.5764682292938232 3.998997211456299 -0.2469140589237213 4523353 0 -1
-1.0268738269805908 5.261293888092041 -0.3292187452316284 6343264 0 -1
-0.8268430829048157 5.331706523895264 -0.28981226682662964 4456788 0 -1
-0.6617276072502136 5.356786727905273 -0.24841050803661346 4456788 0 -1
-0.8280107378959656 5.339235782623291 0.04140175133943558 4456788 0 -1
-0.6624085903167725 5.36229944229126 -0.04140175133943558 4456788 0 -1
-0.8693346977233887 5.332180976867676 0.08280350267887115 4456788 0 -1
-0.9912764430046082 5.298422813415527 -0.3726157546043396 4456788 0 -1
-0.6183954477310181 5.344671249389648 0.49682101607322693 4456788 0 -1
-0.5290435552597046 5.284651756286621 0.9936420321464539 4456788 0 -1
-0.9794221520423889 5.235060691833496 0.9108385443687439 4456788 0 -1
-0.9936420321464539 5.311066627502441 0 4456788 0 -1
-0.9936128854751587 5.310910701751709 0.04140175133943558 4456788 0 -1
-0.9936128854751587 5.310910701751709 0.04140175133943558 4456788 0 -1
-0.9912764430046082 5.298422813415527 -0.3726157546043396 4456788 0 -1
-0.9907207489013672 5.29545259475708 -0.41401752829551697 4456788 0 -1
-1.0290710926055908 5.272551536560059 -0.5796245336532593 4456788 0 -1
-2.881398916244507 4.533908843994141 0.5796245336532593 4456788 0 -1
-3.8493454456329346 3.789705276489258 0.12420525401830673 4456788 0 -1
-4.677161693572998 2.702496290206909 0.12420525401830673 4456788 0 -1
-3.5635757446289062 3.984581470489502 0.7866332530975342 4456788 0 -1
-3.8366615772247314 3.7772178649902344 0.45541927218437195 4523353 0 -1
-3.5967674255371094 4.021694660186768 -0.28981226682662964 4523353 0 -1
-0.8326318264007568 5.3690338134765625 -0.1666046380996704 4456788 0 -1
-0.665713906288147 5.389056205749512 -0.24990695714950562 4456788 0 -1
-0.6631040573120117 5.367929458618164 0.5414651036262512 4456788 0 -1
-0.6200543642044067 5.3590087890625 0.6664185523986816 4456788 0 -1
-0.9938594698905945 5.312229156494141 -0.5831162333488464 4456788 0 -1
-1.123755693435669 5.314260005950928 -0.208255797624588 4456788 0 -1
-0.9477699995040894 5.29367733001709 -0.7913720607757568 4456788 0 -1
-0.8305741548538208 5.355765342712402 0.416511595249176 4456788 0 -1
-0.9985708594322205 5.337411403656006 0.24990695714950562 4456788 0 -1
-1.0382176637649536 5.31941556930542 -0.416511595249176 4456788 0 -1
-1.0382176637649536 5.31941556930542 -0.416511595249176 4456788 0 -1
-1.0368678569793701 5.312499523162842 -0.49981391429901123 4456788 0 -1
-1.033423900604248 5.294854164123535 -0.6664185523986816 4456788 0 -1
-3.371267080307007 4.258960723876953 -0.208255797624588 4456788 0 -1
-3.3305273056030273 4.292713165283203 -0.1666046380996704 4456788 0 -1
-2.890739679336548 4.5486063957214355 0.7080697417259216 4456788 0 -1
-3.9955756664276123 3.679614305496216 0.208255797624588 4456788 0 -1
-3.873102903366089 3.8130948543548584 -0.0833023190498352 4456788 0 -1
-3.9842827320098877 3.6692144870758057 0.45816275477409363 4456788 0 -1
-0.7915168404579163 5.378835678100586 0.5866079330444336 4456788 0 -1
-0.709774911403656 5.402431488037109 0.4609062373638153 4456788 0 -1
-0.7075890898704529 5.385793685913086 0.6285085082054138 4456788 0 -1
-0.6653517484664917 5.386124610900879 0.670409083366394 4456788 0 -1
-0.6653517484664917 5.386124610900879 0.670409083366394 4456788 0 -1
-0.6231534481048584 5.385793685913086 0.7123096585273743 4456788 0 -1
-1.0385891199111938 5.32131814956665 -0.7123096585273743 4456788 0 -1
-1.0351406335830688 5.30364990234375 -0.8380113840103149 4456788 0 -1
-1.0338640213012695 5.2971086502075195 -0.8799118995666504 4456788 0 -1
-1.0375030040740967 5.31575345993042 -0.7542102336883545 4456788 0 -1
-1.036353588104248 5.309864521026611 -0.7961108088493347 4456788 0 -1
-3.351651668548584 4.319940567016602 -0.08380113542079926 4456788 0 -1
-3.184349775314331 4.445294380187988 -0.04190056771039963 4456788 0 -1
-3.348500967025757 4.315879821777344 -0.25140342116355896 4456788 0 -1
-4.5650129318237305 2.914498805999756 -0.7542102336883545 4456788 0 -1
-0.7536715269088745 5.412186145782471 0.632249653339386 4456788 0 -1
-0.7529761791229248 5.407192707061768 0.6743996143341064 4456788 0 -1
-0.7111441493034363 5.412853240966797 0.6743996143341064 4456788 0 -1
-0.7104443907737732 5.407526969909668 0.7165495753288269 4456788 0 -1
-0.6686535477638245 5.412853240966797 0.7165495753288269 4456788 0 -1
-0.6686535477638245 5.412853240966797 0.7165495753288269 4456788 0 -1
-0.6255133748054504 5.406190395355225 0.8008495569229126 4456788 0 -1
-1.0876322984695435 5.349931240081787 -0.6743996143341064 4456788 0 -1
-1.091256856918335 5.367759704589844 -0.5057997107505798 4456788 0 -1
-1.1323891878128052 5.355087757110596 -0.5479496717453003 4456788 0 -1
-1.0865620374679565 5.344666481018066 -0.7165495753288269 4456788 0 -1
-4.152093410491943 3.5664255619049072 -0.5479496717453003 4456788 0 -1
-3.5789597034454346 4.16972541809082 0.2528998553752899 4456788 0 -1
-4.629823207855225 2.955876350402832 -0.29504984617233276 4456788 0 -1
-0.7581311464309692 5.444211006164551 0.6359907388687134 4456788 0 -1
-0.7566863298416138 5.433835506439209 0.7207895517349243 4456788 0 -1
-0.7146481871604919 5.439524173736572 0.7207895517349243 4456788 0 -1
-0.7139008641242981 5.433835506439209 0.763188898563385 4456788 0 -1
-0.7131099104881287 5.427815914154053 0.8055883049964905 4456788 0 -1
-3.5564215183258057 4.228765964508057 0.29679569602012634 4456788 0 -1
-4.659000873565674 2.9745044708251953 0.25439631938934326 4456788 0 -1
-3.500807046890259 4.162637710571289 1.017585277557373 4523353 0 -1
-0.8042141795158386 5.465121746063232 0.6823806762695312 4456788 0 -1
-0.760341465473175 5.460083484649658 0.7676782608032227 4456788 0 -1
-0.716465175151825 5.4533538818359375 0.8529758453369141 4456788 0 -1
-0.6342811584472656 5.481968879699707 0.725029468536377 4456788 0 -1
-3.4865617752075195 4.1456990242004395 -1.279463768005371 4456788 0 -1
-3.4999630451202393 4.077689170837402 -1.450058937072754 4456788 0 -1
-1.0994206666946411 5.407917022705078 -0.725029468536377 4456788 0 -1
-4.642026424407959 3.0565378665924072 0.2985415458679199 4456788 0 -1
-3.4652016162872314 4.204700469970703 -1.2869460582733154 4456788 0 -1
-3.7503366470336914 3.9382543563842773 -1.3298442363739014 4456788 0 -1
-0.329104483127594 5.358706951141357 1.5872334241867065 4456788 0 -1
-3.5133581161499023 4.177561283111572 -1.24404776096344 4456788 0 -1
-0.28656575083732605 5.334998607635498 1.6730297803878784 4456788 0 -1
-3.742978572845459 3.930527687072754 -1.3727424144744873 4456788 0 -1
-3.5048739910125732 4.08341121673584 -1.5443352460861206 4456788 0 -1
-4.582503795623779 3.8427698612213135 0.3212376832962036 4590430 0 -1
-4.60740852355957 3.863654375076294 -0.3229835331439972 4456788 0 -1
-3.4134953022003174 4.958754539489746 -0.13842152059078217 4456788 0 -1
-4.017432689666748 4.585641384124756 -1.6450960636138916 4456788 0 -1
-4.117900371551514 4.604394912719727 -1.4590376615524292 4456788 0 -1
-4.092085361480713 4.6708526611328125 -1.3131338357925415 4456788 0 -1
-4.110107421875 4.595681190490723 -1.5076721906661987 4456788 0 -1
-4.172164440155029 4.474618911743164 -1.8087078332901 4456788 0 -1
-4.0106353759765625 4.768848896026611 -1.368751883506775 4456788 0 -1
-1.6835718154907227 5.866475582122803 1.8575918674468994 4456788 0 -1
-4.161995887756348 4.558076858520508 -1.6131718158721924 4456788 0 -1
-3.9082703590393066 4.8390421867370605 -1.4176359176635742 4456788 0 -1
-4.135456085205078 4.917267322540283 -1.0475142002105713 4456788 0 -1
-4.483333110809326 4.808345317840576 0.10076089203357697 4456788 0 -1
-4.525712966918945 4.7524824142456055 0.40304356813430786 4456788 0 -1
-4.533041954040527 4.760178565979004 -0.15114133059978485 4456788 0 -1
-4.553341388702393 4.781495094299316 0.25314927101135254 4456788 0 -1
-4.007233619689941 5.164919376373291 0.9619672298431396 4456788 0 -1
-4.5501275062561035 4.778120040893555 0.35440897941589355 4456788 0 -1
-4.04610538482666 5.215021133422852 0.30377912521362305 4456788 0 -1
-4.002543926239014 5.15887451171875 1.0125970840454102 4456788 0 -1
-4.086424827575684 5.16242790222168 -0.5569283962249756 4456788 0 -1
-4.556552886962891 4.784867763519287 -0.05062985420227051 4456788 0 -1
-4.011678218841553 5.170648097991943 0.9113373756408691 4523353 0 -1
-4.035974979400635 5.201964378356934 0.5569283962249756 4590430 0 -1
-4.545838832855225 4.773616313934326 0.45566868782043457 4724328 0 -1
-3.965679168701172 5.214620590209961 0.8607075214385986 4724328 0 -1
-4.035660266876221 5.201558589935303 0.8649474382400513 4456788 0 -1
-4.022260665893555 5.184288024902344 1.017585277557373 4456788 0 -1
-3.953843355178833 5.096104621887207 1.5772570371627808 4456788 0 -1
-4.5791335105896 4.808579444885254 0 4456788 0 -1
-4.022260665893555 5.184288024902344 1.017585277557373 4523353 0 -1
-4.03963565826416 5.206682205200195 0.8140681982040405 4590430 0 -1
-4.031440258026123 5.19611930847168 0.915826678276062 4657508 0 -1
-4.041977882385254 5.209701061248779 1.0225733518600464 4456788 0 -1
-4.04498291015625 5.110073566436768 1.4316027164459229 4456788 0 -1
-4.03699254989624 5.203275680541992 1.073702096939087 4523353 0 -1
-4.041977882385254 5.209701061248779 1.0225733518600464 4590430 0 -1
-4.027853012084961 5.191495418548584 1.3358299732208252 4456788 0 -1
-3.922652006149292 5.475951194763184 0.15488246083259583 4456788 0 -1
-4.541084289550781 4.973241806030273 0.20650994777679443 4456788 0 -1
-4.536678791046143 4.968417167663574 0.36139240860939026 4456788 0 -1
-4.461824893951416 4.988951206207275 0.7744122743606567 4590430 0 -1
-4.3037590980529785 5.222212791442871 0.20750758051872253 4456788 0 -1
-6.24650764465332 2.3730204105377197 -1.0894147157669067 4456788 0 -1
-5.957254886627197 3.1962716579437256 -0.36313825845718384 4456788 0 -1
-4.166225910186768 5.263241291046143 0.8819071650505066 4456788 0 -1
-3.904963493347168 5.451258182525635 0.9337840676307678 4456788 0 -1
-4.512097358703613 5.045162677764893 0.1556306779384613 4456788 0 -1
-4.3056559562683105 5.224514007568359 -0.051876895129680634 4456788 0 -1
-4.51116943359375 5.044125080108643 0.20750758051872253 4456788 0 -1
-4.500020980834961 5.0316596031188965 0.5187689065933228 4590430 0 -1
-4.504802227020264 5.03700590133667 0.41501516103744507 4724328 0 -1
-4.302620887756348 5.220831394195557 0.2593844532966614 4724328 0 -1
-3.9090514183044434 5.45696496963501 0.8819071650505066 4724328 0 -1
-4.326355934143066 5.249631881713867 0.05212630331516266 4456788 0 -1
-3.2309768199920654 5.984567165374756 -0.15637890994548798 4456788 0 -1
-4.266318321228027 5.282361030578613 0.41701042652130127 4456788 0 -1
-4.5344557762146 5.070162773132324 0.10425260663032532 4456788 0 -1
-4.274356842041016 5.292313575744629 0 4456788 0 -1
-4.532857418060303 5.068376064300537 0.20850521326065063 4456788 0 -1
-4.567682266235352 5.002371311187744 0.6255156397819519 4523353 0 -1
-4.311087608337402 5.231104850769043 0.5733892917633057 4523353 0 -1
-4.5284600257873535 5.0634589195251465 0.3648841083049774 4590430 0 -1
-4.584959506988525 5.021292686462402 0.20850521326065063 4724328 0 -1
-4.661301136016846 4.999215126037598 0.052375711500644684 4456788 0 -1
-4.241934299468994 5.358884811401367 -0.10475142300128937 4456788 0 -1
-4.556686878204346 5.095020294189453 0 4456788 0 -1
-4.487237453460693 5.783596038818359 -0.22446732223033905 4456788 0 -1
-4.505988597869873 5.807764053344727 -0.28183120489120483 4456788 0 -1
-4.505988597869873 5.807764053344727 0.28183120489120483 4523353 0 -1
-4.527123928070068 5.835005760192871 0.22646258771419525 4456788 0 -1
-4.469352722167969 5.876919269561768 -0.28307825326919556 4456788 0 -1
-4.528055191040039 5.83620548248291 0.16984695196151733 4523353 0 -1
-4.427380084991455 5.706445693969727 -1.7059516906738281 4147337 0 -1
-4.4432692527771 5.726925373077393 -1.5922216176986694 3692940 0 -1
-4.454922676086426 5.741945266723633 -1.656319499015808 3692940 0 -1
-4.465967655181885 5.990867614746094 -0.4589109718799591 4456788 0 -1
-4.691151142120361 5.354647636413574 -2.419757843017578 4456788 0 -1
-4.736695289611816 5.406633377075195 -2.314507484436035 4456788 0 -1
-4.926530838012695 5.395370006561279 -2.033923387527466 4456788 0 -1
-4.892284393310547 5.3578643798828125 -2.2082595825195312 4456788 0 -1
-5.0154948234558105 5.266805648803711 -2.1501476764678955 4456788 0 -1
-4.676746368408203 5.4487199783325195 -2.4407081604003906 4456788 0 -1
-5.940585136413574 4.503537654876709 -1.3946902751922607 4728182 0 -1
-5.881813049316406 4.458982467651367 -1.7433629035949707 4341894 0 -1
-1.485554814338684 7.025214195251465 -2.4407081604003906 4341894 0 -1
-1.1854262351989746 7.270970821380615 -1.8014750480651855 4341894 0 -1
7.004861354827881 1.8902565240859985 -2.2082595825195312 4341894 0 -1
-5.903480052947998 4.3576273918151855 -1.9176992177963257 4147337 0 -1
-0.9293566942214966 7.523285865783691 0.23244838416576385 4147337 0 -1
-4.981053829193115 5.342147350311279 -2.1593756675720215 4456788 0 -1
-4.6968183517456055 5.472105026245117 -2.451183319091797 4456788 0 -1
-4.789741516113281 5.467182636260986 -2.2760987281799316 4456788 0 -1
-4.913280963897705 5.380859375 -2.2177371978759766 4456788 0 -1
-5.002340316772461 5.36497688293457 -2.1686038970947266 4456788 0 -1
-4.866143226623535 5.441036701202393 -2.285825729370117 4456788 0 -1
-5.690586566925049 4.542033672332764 -2.3444366455078125 4212104 0 -1
-4.4573540687561035 5.979312896728516 -1.6997164487838745 4212104 0 -1
-4.1783246994018555 6.069815635681152 -2.051382064819336 4212104 0 -1
-4.848420143127441 5.421219348907471 -2.4721333980560303 4456788 0 -1
-5.180047035217285 5.325039863586426 -2.1962881088256836 4726897 0 -1
-4.915698051452637 5.496445655822754 -2.3743655681610107 4726897 0 -1
-4.495713233947754 6.9337663650512695 -0.25339868664741516 4456788 0 -1
-5.008289813995361 6.455179691314697 1.4627788066864014 4456788 0 -1
-4.707773208618164 6.704112529754639 1.335580587387085 4456788 0 -1
-4.513412952423096 6.961064338684082 -0.25439631938934326 4456788 0 -1
-6.356410503387451 5.201574802398682 -1.4046666622161865 4456788 0 -1
-5.201282978057861 6.311274528503418 -1.5962121486663818 4456788 0 -1
-4.971845626831055 6.5376667976379395 -1.4046666622161865 4456788 0 -1
-4.399203777313232 7.062625408172607 0.4469393789768219 4456788 0 -1
-5.0250396728515625 6.476768970489502 -1.6665451526641846 4456788 0 -1
-4.719653129577637 6.856198787689209 -0.8332725763320923 4456788 0 -1
-4.984475612640381 6.554274559020996 -1.4742515087127686 4456788 0 -1
-4.175792694091797 6.703953742980957 2.756209373474121 4456788 0 -1
-4.673990249633789 6.926515579223633 -0.8365148901939392 4456788 0 -1
-4.436704158782959 7.122829437255859 -0.32173651456832886 4456788 0 -1
-5.6031599044799805 6.1363911628723145 -1.4211275577545166 4456788 0 -1
-4.812646389007568 6.853456974029541 -0.968950629234314 4456788 0 -1
-5.546679973602295 6.201972961425781 1.3565309047698975 4456788 0 -1
-4.518449783325195 7.109824180603027 -0.3229835331439972 4456788 0 -1
-4.8518805503845215 6.909328460693359 -0.5836150646209717 4456788 0 -1
-5.545396327972412 6.200537204742432 -1.5563068389892578 4456788 0 -1
-4.528421401977539 7.125514507293701 -0.5836150646209717 4456788 0 -1
-4.652306079864502 7.033307075500488 -0.71330726146698 4523353 0 -1
-5.182812690734863 6.547507286071777 -1.5622925758361816 4456788 0 -1
-4.554545879364014 7.166621685028076 -0.2603820860385895 4456788 0 -1
-4.4244160652160645 7.247682094573975 0.2603820860385895 4456788 0 -1
-4.5501275062561035 7.159668922424316 -0.45566868782043457 4456788 0 -1
-4.615128993988037 7.1179423332214355 -0.45566868782043457 4523353 0 -1
-6.569798469543457 5.243791103363037 -1.4375885725021362 4456788 0 -1
-5.297331809997559 6.427820682525635 -1.8296581506729126 4456788 0 -1
-4.630765438079834 7.1420578956604 -0.5227594375610352 4456788 0 -1
-5.314908027648926 6.449148178100586 -1.6989682912826538 4456788 0 -1
-4.937557220458984 6.892740249633789 -0.9148290753364563 4456788 0 -1
-4.500321388244629 7.2249627113342285 -0.5227594375610352 4456788 0 -1
-4.557868480682373 7.171849727630615 -0.7187942862510681 4523353 0 -1
-4.97212553024292 6.804133892059326 -1.3068987131118774 4590430 0 -1
-4.677685737609863 7.071675777435303 -0.9148290753364563 4590430 0 -1
-3.5425384044647217 7.622992515563965 -1.4375885725021362 4590430 0 -1
-4.8259711265563965 7.010646343231201 -0.9183207750320435 4456788 0 -1
-4.4556989669799805 7.298926830291748 -0.3935660421848297 4456788 0 -1
-4.4343695640563965 7.412402629852295 -0.5970830917358398 4456788 0 -1
-4.773699760437012 7.074277400970459 -1.4595364332199097 4523353 0 -1
-4.589987754821777 7.368916034698486 -0.3995518386363983 4456788 0 -1
-4.455239772796631 7.447288513183594 -0.46614381670951843 4456788 0 -1
-2.770233392715454 8.60336685180664 -1.4016737937927246 4456788 0 -1
-2.7122466564178467 8.423280715942383 2.3127617835998535 4456788 0 -1
-3.149247884750366 8.573186874389648 -0.914330244064331 4456788 0 -1
-2.7422659397125244 8.757210731506348 -0.2109992951154709 4456788 0 -1
-2.76928973197937 8.600436210632324 -1.6176612377166748 4456788 0 -1
-3.456679344177246 8.333986282348633 -1.687994360923767 4456788 0 -1
-3.141113519668579 8.551042556762695 -1.1253294944763184 4456788 0 -1
-3.1380226612091064 8.542628288269043 -1.1956626176834106 4456788 0 -1
-2.2505929470062256 8.898492813110352 0.0703330934047699 4456788 0 -1
-4.082848072052002 7.886484146118164 2.3209922313690186 4456788 0 -1
-3.585911512374878 7.889739990234375 3.0243232250213623 4456788 0 -1
-4.114480972290039 7.9475860595703125 2.0396597385406494 4456788 0 -1
-2.6978912353515625 8.378697395324707 2.6023244857788086 4456788 0 -1
-1.8645589351654053 8.488265037536621 2.9539899826049805 4456788 0 -1
-3.252317428588867 8.222891807556152 -2.461658477783203 2264205 0 -1
-1.7494258880615234 8.605213165283203 -2.6726577281951904 2264205 0 -1
-1.044913649559021 9.030985832214355 -1.265995740890503 2264205 0 -1
-3.4143519401550293 8.042430877685547 -2.813323736190796 2199437 0 -1
-3.157884359359741 8.596697807312012 -0.9881550669670105 4456788 0 -1
-2.7963175773620605 8.684374809265137 -1.2704850435256958 4456788 4 -1
-2.8165786266326904 8.747299194335938 -0.6352425217628479 4456788 4 -1
-2.8192360401153564 8.7555513381958 -0.49407753348350525 4456788 4 -1
-2.802001953125 8.70202922821045 -1.1293200254440308 4456788 4 -1
-3.538315773010254 8.33442497253418 -1.693980097770691 4456788 0 -1
-3.1604154109954834 8.603588104248047 -0.917572557926178 4456788 0 -1
-2.8070082664489746 8.71757698059082 -0.9881550669670105 4456788 4 -1
-2.81499981880188 8.742395401000977 -0.7058250308036804 4456788 4 -1
-2.8219738006591797 8.764054298400879 -0.2823300063610077 4456788 4 -1
-4.350862979888916 8.058873176574707 -0.9881550669670105 4456788 0 -1
-3.250878095626831 8.421158790588379 -1.835145115852356 4456788 0 -1
-2.467775583267212 8.864684104919434 -0.42349502444267273 4456788 0 -1
-4.548772811889648 7.9196457862854 -1.1999025344848633 4456788 0 -1
-2.953916311264038 8.690423011779785 -0.7764075398445129 4456788 4 -1
-3.3987038135528564 8.005572319030762 -3.035047769546509 2264205 0 -1
-1.8092410564422607 8.55593204498291 -2.8938827514648438 2264205 0 -1
-1.3787776231765747 8.890728950500488 -1.976310133934021 2264205 0 -1
-1.050750732421875 9.08143424987793 -1.1293200254440308 2264205 0 -1
-2.8279483318328857 8.782608985900879 -0.5666552782058716 4456788 4 -1
-2.814499855041504 8.740842819213867 -1.0624786615371704 4456788 4 -1
-2.757249593734741 8.805060386657715 -0.5666552782058716 4456788 0 -1
-2.826531410217285 8.778207778930664 -0.6374872326850891 4456788 4 -1
-2.816926956176758 8.748380661010742 -0.9916467666625977 4456788 4 -1
-2.809136152267456 8.7241849899292 -1.204142451286316 4456788 4 -1
-3.178065061569214 8.65163516998291 -0.7083191275596619 4456788 4 -1
-2.6130757331848145 8.838706016540527 0.7083191275596619 4456788 0 -1
-2.8030896186828613 8.705406188964844 -1.345806360244751 4456788 0 -1
-2.8325278759002686 8.796831130981445 -0.21249572932720184 4456788 4 -1
-2.7360434532165527 8.737339973449707 -1.2749744653701782 4456788 0 -1
-3.0349340438842773 8.696822166442871 -0.7791510224342346 4456788 4 -1
-2.8212738037109375 8.761880874633789 -0.8499829173088074 4456788 4 -1
-3.118476390838623 8.48941707611084 -1.9124616384506226 4456788 0 -1
-2.8986470699310303 8.759529113769531 0.5666552782058716 3238030 0 -1
-3.5389955043792725 8.532449722290039 -0.35415956377983093 3107982 0 -1
-3.182847738265991 8.664654731750488 0.49582338333129883 3107982 0 -1
-3.176093816757202 8.646268844604492 0.7791510224342346 2977934 0 -1
-3.2548227310180664 8.641650199890137 -0.4249914586544037 9360965 0 -1
-2.8379058837890625 8.813533782958984 -0.5686505436897278 4456788 4 -1
-2.842918872833252 8.829102516174316 0.14216263592243195 4456788 4 -1
-2.770869016647339 8.848552703857422 -0.2843252718448639 4456788 0 -1
-2.82684588432312 8.77918529510498 -0.9951384663581848 4456788 4 -1
-3.7834603786468506 8.32438850402832 -1.5637890100479126 4471684 0 -1
-2.841917037963867 8.825990676879883 0.2843252718448639 3107982 4 -1
-2.4028189182281494 8.904583930969238 0.9951384663581848 3107982 0 -1
-3.222947835922241 8.557021141052246 -1.5637890100479126 2977934 0 -1
-3.258105516433716 8.650365829467773 -0.7818945050239563 2588302 0 -1
-2.69720196723938 8.861883163452148 0.4975692331790924 2588302 0 -1
-4.474835395812988 8.11818790435791 -0.35540661215782166 2523534 0 -1
-2.905766010284424 8.78104305267334 -0.7108132243156433 2523534 4 -1
-2.4871888160705566 8.934420585632324 0.21324396133422852 2523534 0 -1
-2.85322904586792 8.861122131347656 0 4456788 4 -1
-2.8160486221313477 8.745652198791504 -1.4979453086853027 4456788 0 -1
-2.9902565479278564 8.79733657836914 -0.570645809173584 4456788 4 -1
-5.035257339477539 7.765908241271973 -0.9986302256584167 3302798 0 -1
-3.064969539642334 8.782890319824219 -0.35665363073349 3302798 4 -1
-2.566699743270874 8.943771362304688 0.285322904586792 3302798 0 -1
-2.9175972938537598 8.81679630279541 -0.641976535320282 2523534 4 -1
-2.7805914878845215 8.879600524902344 -0.285322904586792 2458766 0 -1
-2.062509536743164 9.049732208251953 0.71330726146698 2458766 0 -1
-3.0063657760620117 8.84472942352295 0 4456788 4 -1
-3.0031869411468506 8.83537769317627 -0.42948082089424133 4456788 4 -1
-2.681118965148926 8.809041023254395 1.5747630596160889 4456788 0 -1
-3.00203800201416 8.831997871398926 -0.501060962677002 3302798 4 -1
-3.0041584968566895 8.838235855102539 0.3579006791114807 2070922 4 -1
-3.00203800201416 8.831997871398926 -0.501060962677002 2271109 4 -1
-2.576582193374634 8.9782075881958 0.14316026866436005 2271109 0 -1
-3.2187411785125732 8.762368202209473 -0.3579006791114807 3651704 4 -1
-3.292299509048462 8.7411527633667 -0.14316026866436005 6933851 0 -1
-3.016752243041992 8.875287055969238 -0.07182954251766205 4456788 4 -1
-3.016752243041992 8.875287055969238 -0.07182954251766205 4456788 4 -1
-3.1605000495910645 8.82541275024414 0 4456788 4 -1
-3.160407304763794 8.825154304504395 0.07182954251766205 4456788 4 -1
-3.1601288318634033 8.824377059936523 -0.1436590850353241 4456788 4 -1
-3.0776796340942383 8.81931209564209 0.7901250123977661 4456788 0 -1
-5.299759387969971 7.698914051055908 -0.7182954549789429 4456788 0 -1
-3.513028621673584 8.672087669372559 -0.5746363401412964 4456788 0 -1
-1.0013535022735596 9.280678749084473 0.8619545102119446 4456788 0 -1
-3.016840934753418 8.875547409057617 0 2070922 4 -1
-3.3026068210601807 8.768518447875977 0.2873181700706482 6933851 0 -1
-3.026960611343384 8.905319213867188 -0.14415790140628815 4456788 4 -1
-3.0272271633148193 8.90610408782959 0.07207895070314407 4456788 4 -1
-3.0990309715270996 8.88049602508545 0.14415790140628815 4456788 4 -1
-3.0265159606933594 8.904011726379395 0.21623685956001282 4456788 4 -1
-3.026960611343384 8.905319213867188 0.14415790140628815 4456788 4 -1
-3.1713807582855225 8.855796813964844 -0.07207895070314407 4456788 4 -1
-3.099303960800171 8.881278991699219 0.07207895070314407 4456788 4 -1
-3.0883660316467285 8.849934577941895 -0.7928684949874878 4456788 4 -1
-3.1713807582855225 8.855796813964844 0.07207895070314407 4456788 4 -1
-3.171473979949951 8.856057167053223 0 4456788 4 -1
-3.026553153991699 8.45137882232666 -2.811079263687134 4456788 0 -1
-3.1691455841064453 8.849555015563965 0.36039477586746216 4456788 4 -1
-2.9521121978759766 8.921097755432129 -0.43247371912002563 2070922 4 -1
-2.96467924118042 8.959074974060059 0.2169850766658783 4456788 4 -1
-2.96467924118042 8.959074974060059 0.2169850766658783 4456788 4 -1
-3.0377912521362305 8.937183380126953 0 4456788 4 -1
-3.110119581222534 8.912271499633789 0 4456788 4 -1
-2.9654629230499268 8.961442947387695 0 4456788 4 -1
-3.1820740699768066 8.88565731048584 0.1446567177772522 4456788 4 -1
-3.1100282669067383 8.912009239196777 0.0723283588886261 4456788 4 -1
-3.1068308353424072 8.902847290039062 0.4339701533317566 4456788 4 -1
-2.96467924118042 8.959074974060059 -0.2169850766658783 4456788 4 -1
-2.9749021530151367 8.989968299865723 0.21773330867290497 4456788 4 -1
-3.0460283756256104 8.961417198181152 0.3628888428211212 4456788 4 -1
-3.0438783168792725 8.95509147644043 0.5080443620681763 4456788 4 -1
-3.1207525730133057 8.942740440368652 -0.07257776707410812 4456788 4 -1
-3.1207525730133057 8.942740440368652 0.07257776707410812 4456788 4 -1
-3.0474607944488525 8.965631484985352 0.21773330867290497 4456788 4 -1
-3.1933281421661377 8.917082786560059 0.07257776707410812 4456788 4 -1
-3.1134142875671387 8.921712875366211 0.6531999111175537 4456788 4 -1
-3.1204776763916016 8.9419527053833 0.14515553414821625 4456788 4 -1
-3.11635160446167 8.930130004882812 -0.5080443620681763 4456788 4 -1
-3.185819149017334 8.89611530303955 -0.6531999111175537 8180304 4 -1
-2.9855635166168213 9.022186279296875 0.1456543505191803 4456788 4 -1
-2.9851253032684326 9.020861625671387 0.21848152577877045 4456788 4 -1
-2.9851253032684326 9.020861625671387 0.21848152577877045 4456788 4 -1
-3.2043018341064453 8.947725296020508 -0.07282717525959015 4456788 4 -1
-3.2043018341064453 8.947725296020508 -0.07282717525959015 4456788 4 -1
-3.0529892444610596 8.98189640045166 0.5826174020767212 4456788 4 -1
-3.0564959049224854 8.992212295532227 0.36413589119911194 4456788 4 -1
-3.204019546508789 8.946937561035156 0.1456543505191803 4456788 4 -1
-3.1300973892211914 8.96951961517334 0.2913087010383606 4456788 4 -1
-2.8486478328704834 9.096933364868164 0.2923063337802887 4456788 4 -1
-2.849233865737915 9.098804473876953 0.21922975778579712 4456788 4 -1
-2.9939403533935547 9.047499656677246 0.36538293957710266 4456788 4 -1
-3.139986276626587 8.997856140136719 0.36538293957710266 4456788 4 -1
-3.139986276626587 8.997856140136719 0.36538293957710266 4456788 4 -1
-3.2130091190338135 8.972040176391602 0.36538293957710266 4456788 4 -1
-3.214520215988159 8.976259231567383 0.21922975778579712 4456788 4 -1
-2.858370304107666 9.127981185913086 0.2933039665222168 4456788 4 -1
-2.8589580059051514 9.129858016967773 0.2199779748916626 4456788 4 -1
-3.0796916484832764 9.060455322265625 0 4456788 4 -1
-3.150702953338623 9.028565406799316 0.366629958152771 4456788 4 -1
-3.1484789848327637 9.02219295501709 0.5132819414138794 4456788 4 -1
-3.151536464691162 9.030954360961914 0.2933039665222168 4456788 4 -1
-3.1470882892608643 9.018207550048828 0.5866079330444336 4456788 4 -1
-2.8673338890075684 9.15660572052002 0.3678770065307617 4456788 4 -1
-2.8691036701202393 9.162257194519043 0.14715079963207245 4456788 4 -1
-3.0893502235412598 9.08887004852295 0.22072620689868927 4456788 4 -1
-3.0956437587738037 9.107385635375977 -0.9629648327827454 4456788 0 -1
-3.101970672607422 9.125999450683594 -0.7407422065734863 4456788 0 -1
-3.1060667037963867 9.138050079345703 -0.9662071466445923 4456788 0 -1
-5.300266265869141 8.509220123291016 -0.07681770622730255 4456788 0 -1
-5.296530246734619 8.503222465515137 0.38408854603767395 4456788 0 -1
-4.915034294128418 8.734694480895996 0.23045311868190765 4456788 0 -1
-3.1494336128234863 9.517390251159668 -0.07681770622730255 4456788 0 -1
-3.39005708694458 9.4664306640625 -0.23120135068893433 4456788 0 -1
-3.1463661193847656 9.508121490478516 -0.9248054027557373 4456788 0 -1
-3.4671037197113037 9.438484191894531 -0.23120135068893433 4456788 0 -1
-3.1593806743621826 9.547450065612793 -0.15413422882556915 4456788 0 -1
-5.240563869476318 8.584622383117676 0 4456788 0 -1
-3.159658908843994 9.548291206359863 -0.07706711441278458 4456788 0 -1
-7.894838809967041 5.513101100921631 -3.0153443813323975 4456788 0 -1
-3.4010281562805176 9.497066497802734 -0.2319495677947998 4456788 0 -1
-3.0852982997894287 9.581847190856934 -0.6958487033843994 4456788 0 -1
-3.3105266094207764 9.486552238464355 -0.9277982711791992 4456788 0 -1
-3.1684882640838623 9.574972152709961 -0.3092660903930664 4456788 0 -1
-5.257369518280029 8.612151145935059 0.0773165225982666 4456788 0 -1
-3.169884443283081 9.579192161560059 -0.0773165225982666 4456788 0 -1
-4.385122776031494 9.031915664672852 -1.0051147937774658 4456788 0 -1
-4.473682403564453 9.017595291137695 -0.6958487033843994 4523353 0 -1
-4.373796463012695 9.008586883544922 -1.2370643615722656 4657508 0 -1
-3.4900569915771484 9.500969886779785 -0.15513186156749725 4456788 0 -1
-3.180109739303589 9.610092163085938 -0.07756593078374863 4456788 0 -1
-4.485597610473633 9.04161262512207 -0.7756593227386475 4523353 0 -1
-3.3425214290618896 9.578235626220703 -0.4668920338153839 4456788 0 -1
-2.9514219760894775 9.697144508361816 -0.6225227117538452 4456788 0 -1
-3.2635395526885986 9.601335525512695 -0.5447073578834534 4456788 0 -1
-4.834896564483643 8.955422401428223 -0.46838849782943726 4456788 0 -1
-3.3532347679138184 9.608935356140137 -0.46838849782943726 4456788 0 -1
-3.04014253616333 9.708456993103027 -0.5464532375335693 4456788 0 -1
-5.297717094421387 8.33600902557373 -2.4980719089508057 4590430 0 -1
-3.5423429012298584 9.176177024841309 -2.6542015075683594 4590430 0 -1
-8.257646560668945 5.601979732513428 -2.3569068908691406 4456788 0 -1
-4.425413131713867 9.315620422363281 -0.3162495195865631 4456788 0 -1
-4.424242973327637 9.313156127929688 -0.3953118920326233 4456788 0 -1
-5.222368240356445 8.554815292358398 -2.4509336948394775 4523353 0 -1
-4.191951751708984 8.824176788330078 -3.320620059967041 4523353 0 -1
-4.031707763671875 9.496599197387695 -0.15812475979328156 4523353 0 -1
-3.434948205947876 9.350947380065918 -2.6881208419799805 4523353 0 -1
-3.434948205947876 9.350947380065918 -2.6881208419799805 4523353 0 -1
-2.449134349822998 10.015515327453613 -0.3953118920326233 4523353 0 -1
-4.438199520111084 9.342535018920898 -0.396558940410614 4456788 0 -1
-5.248775482177734 8.598073959350586 -2.3793537616729736 4523353 0 -1
-4.5207719802856445 9.311307907104492 0 4523353 0 -1
-4.122275352478027 9.489153861999512 -0.3172471523284912 4523353 0 -1
-4.3900651931762695 9.659043312072754 -0.162614107131958 4456788 0 -1
-4.387357234954834 9.653084754943848 -0.406535267829895 4456788 0 -1
-4.389420986175537 9.657625198364258 0.243921160697937 4523353 0 -1
-4.401979923248291 9.685257911682129 -0.3262258470058441 4456788 0 -1
-4.083954811096191 10.579182624816895 -3.9573590755462646 4590430 0 -1
-4.370319843292236 11.320990562438965 -0.37211695313453674 4456788 0 -1
-4.380877494812012 11.348339080810547 -0.46639323234558105 4456788 0 -1
-4.279717922210693 11.950729370117188 -0.09726917743682861 4456788 0 -1
-4.262381553649902 11.902318954467773 -1.4627788066864014 4456788 0 -1
-4.288801670074463 11.976095199584961 -0.39007434248924255 4456788 0 -1
-4.291550159454346 11.983770370483398 -0.8799118995666504 4456788 0 -1
-4.313154220581055 12.044096946716309 -1.2807108163833618 4456788 0 -1
-4.330223560333252 12.091761589050293 -1.0864218473434448 4456788 0 -1
-4.343852996826172 12.129820823669434 -0.9901503324508667 4456788 0 -1
-4.460469722747803 12.142721176147461 -0.6948511004447937 4456788 0 -1
4.0687665939331055 12.295557975769043 -0.29779332876205444 4045940 5 -1
4.069364070892334 12.29736328125 -0.19852888584136963 4505456 5 -1
4.0698418617248535 12.298807144165039 0 5949540 5 -1
3.9800865650177 12.360743522644043 0.19902770221233368 2666112 5 -1
4.0770721435546875 12.320656776428223 -0.4975692331790924 4045940 5 -1
4.0770721435546875 12.320656776428223 -0.4975692331790924 4505456 5 -1
4.079588890075684 12.328261375427246 -0.19902770221233368 5949540 5 -1
4.079588890075684 12.328261375427246 -0.19902770221233368 6343264 5 -1
4.079588890075684 12.328261375427246 -0.19902770221233368 6933851 5 -1
4.072965621948242 12.308247566223145 -1.1971590518951416 4899181 5 -1
4.088371753692627 12.354803085327148 -0.39905303716659546 5424489 5 -1
4.087290287017822 12.35153579711914 -0.49881628155708313 5949540 5 -1
4.088371753692627 12.354803085327148 -0.39905303716659546 6343264 5 -1
4.088371753692627 12.354803085327148 -0.39905303716659546 6933851 5 -1
4.089813232421875 12.359158515930176 -0.19952651858329773 10016830 5 -1
3.689589262008667 12.48000431060791 -1.000126600265503 4017546 5 -1
3.6847922801971436 12.463778495788574 -1.2001519203186035 3887499 5 -1
3.7964627742767334 12.473596572875977 -0.6000759601593018 3432845 5 -1
3.795010566711426 12.468825340270996 -0.7000886797904968 3302798 5 -1
3.795010566711426 12.468825340270996 -0.7000886797904968 3238030 5 -1
3.7964627742767334 12.473596572875977 -0.6000759601593018 3107982 5 -1
3.7994771003723145 12.483500480651855 -0.3000379800796509 2588302 5 -1
3.7976911067962646 12.477632522583008 -0.5000633001327515 2523534 5 -1
3.8986613750457764 12.450069427490234 -0.40005066990852356 2134668 5 -1
4.073344707489014 12.309391975402832 -1.500190019607544 4899181 0 -1
4.094616413116455 12.373674392700195 -0.7000886797904968 5424489 5 -1
4.094616413116455 12.373674392700195 -0.7000886797904968 5949540 5 -1
4.100037574768066 12.390056610107422 -0.20002533495426178 8705099 5 -1
4.094616413116455 12.373674392700195 -0.7000886797904968 9360965 5 -1
-4.286390781402588 12.28296184539795 -1.403668999671936 4456788 0 -1
-4.38229513168335 12.237167358398438 -1.5039310455322266 4456788 0 -1
3.7027204036712646 12.524419784545898 -0.8020966053009033 4523353 5 -1
3.793818712234497 12.464909553527832 -1.203144907951355 4726897 5 -1
3.7910096645355225 12.455679893493652 -1.3034069538116455 4728182 5 -1
3.796401262283325 12.473394393920898 -1.1028828620910645 4664956 5 -1
3.7008650302886963 12.518143653869629 -0.9023586511611938 4536450 5 -1
3.70871639251709 12.54470157623291 -0.30078622698783875 4017546 5 -1
3.787973403930664 12.445704460144043 -1.403668999671936 3887499 5 -1
3.8008882999420166 12.488137245178223 -0.9023586511611938 3757452 5 -1
3.804474353790283 12.499919891357422 -0.701834499835968 3432845 5 -1
3.796401262283325 12.473394393920898 -1.1028828620910645 3302798 5 -1
3.8027937412261963 12.49439811706543 -0.8020966053009033 3238030 5 -1
3.807161569595337 12.508749008178711 -0.5013103485107422 3107982 5 -1
3.8059301376342773 12.5047025680542 -0.6015724539756775 2977934 5 -1
3.8089520931243896 12.514631271362305 -0.30078622698783875 2588302 5 -1
3.807161569595337 12.508749008178711 -0.5013103485107422 2523534 5 -1
3.8089520931243896 12.514631271362305 -0.30078622698783875 2328718 5 -1
3.809511423110962 12.51646900177002 -0.20052415132522583 2134668 5 -1
3.809511423110962 12.51646900177002 -0.20052415132522583 2070155 5 -1
3.8089520931243896 12.514631271362305 -0.30078622698783875 2070922 5 -1
3.9101059436798096 12.486617088317871 -0.10026207566261292 2271109 5 -1
4.010365009307861 12.454778671264648 -0.10026207566261292 8705099 5 -1
4.110624313354492 12.422048568725586 0.10026207566261292 12640037 5 -1
3.790623664855957 12.454411506652832 -1.608183741569519 4456788 0 -1
-4.4037699699401855 12.297133445739746 -1.206137776374817 4456788 0 -1
3.8004398345947266 12.486663818359375 -1.3066492080688477 4726897 5 -1
3.713571310043335 12.56112289428711 -0.703580379486084 4728182 5 -1
3.805845022201538 12.504423141479492 -1.1056263446807861 4664956 5 -1
3.710071086883545 12.549283981323242 -0.9046033024787903 4536450 5 -1
3.8103432655334473 12.51920223236084 -0.9046033024787903 3757452 5 -1
3.8103432655334473 12.51920223236084 -0.9046033024787903 3432845 5 -1
3.8004398345947266 12.486663818359375 -1.3066492080688477 3302798 5 -1
3.803256034851074 12.495916366577148 -1.206137776374817 3238030 5 -1
3.812253475189209 12.52547836303711 -0.8040918707847595 2977934 5 -1
3.818427085876465 12.545762062072754 -0.3015344440937042 2588302 5 -1
3.8153977394104004 12.535808563232422 -0.6030688881874084 2523534 5 -1
3.8189878463745117 12.54760456085205 -0.20102296769618988 2328718 5 -1
3.818427085876465 12.545762062072754 -0.3015344440937042 2070155 5 -1
3.816632032394409 12.539864540100098 -0.5025573968887329 2070922 5 -1
3.9181060791015625 12.512164115905762 -0.40204593539237976 2139270 5 -1
3.919947862625122 12.518045425415039 0 2666112 5 -1
4.120486736297607 12.451852798461914 -0.20102296769618988 6933851 5 -1
3.6697998046875 12.413065910339355 -2.317500352859497 4456788 0 -1
3.62355637550354 12.626432418823242 -0.6045653223991394 4456788 5 -1
-4.411428928375244 12.318519592285156 -1.3098915815353394 4456788 0 -1
3.806818962097168 12.507622718811035 -1.4106523990631104 4456788 5 -1
3.806818962097168 12.507622718811035 -1.4106523990631104 4590430 5 -1
3.7264013290405273 12.604520797729492 -0.40304356813430786 4728182 5 -1
3.7192773818969727 12.580423355102539 -0.9068480134010315 4536450 5 -1
3.7192773818969727 12.580423355102539 -0.9068480134010315 4341894 5 -1
3.714886426925659 12.565571784973145 -1.1083698272705078 3692940 5 -1
3.8035390377044678 12.496846199035645 -1.511413335800171 3302798 0 -1
3.815288782119751 12.53545093536377 -1.1083698272705078 3238030 5 -1
