VERSION .7
FIELDS x y z rgb label object
SIZE 4 4 4 4 4 4
TYPE F F F I I I
COUNT 1 1 1 1 1 1
WIDTH 679
HEIGHT 1
POINTS 679
VIEWPOINT 0 0 0 1 0 0 0
DATA ascii
0.4777859151363373 0.3622078597545624 -0.1516401469707489 4456788 0 -1
0.5184742212295532 0.3206002712249756 -0.10425260663032532 4456788 0 -1
-0.5892001986503601 0.1171826496720314 -0.14690139889717102 4456788 0 -1
-0.5855146050453186 0.19215653836727142 0.05212630331516266 4456788 0 -1
-0.6014199256896973 0.24304598569869995 0.05486978963017464 4456788 0 -1
0.5612281560897827 0.3011181652545929 -0.1346803903579712 4456788 0 -1
0.631988525390625 0.149542897939682 -0.04489346593618393 4456788 0 -1
0.5872160196304321 0.19271492958068848 -0.20451468229293823 4456788 0 -1
-0.6104925274848938 0.2165221869945526 0.06484611332416534 4456788 0 -1
0.45948806405067444 0.4425365626811981 -0.1296922266483307 4523353 0 -1
0.5271907448768616 0.37864190340042114 -0.04988162964582443 4523353 0 -1
-0.6283424496650696 0.16955773532390594 0.014964488334953785 4590430 0 -1
-0.6012450456619263 0.21324241161346436 -0.1296922266483307 4657508 0 -1
0.5169228911399841 0.39187750220298767 0.05486978963017464 4657508 0 -1
0.5966872572898865 0.1610156148672104 -0.20451468229293823 4657508 0 -1
0.5242401957511902 0.3765227198600769 -0.08479876816272736 4725613 0 -1
-0.3287281394004822 0.5172568559646606 -0.21947915852069855 4664956 0 -1
0.3924770951271057 0.4958208501338959 -0.1546330451965332 4664956 0 -1
0.48242929577827454 0.434237003326416 -0.04988162964582443 4212104 0 -1
0.5822256207466125 0.2877253293991089 -0.04489346593618393 4212104 0 -1
0.6133819222450256 0.2175469696521759 -0.014964488334953785 4212104 0 -1
-0.6439185738563538 0.2283773571252823 0.020950283855199814 4456788 0 -1
0.3034023642539978 0.5860560536384583 -0.17807741463184357 4456788 0 -1
0.48762640357017517 0.46963682770729065 -0.09427627921104431 4456788 0 -1
-0.6703894138336182 0.13332991302013397 -0.0052375709637999535 4456788 0 -1
0.631882905960083 0.25535666942596436 -0.052375711500644684 4456788 0 -1
-0.6703894138336182 0.13332991302013397 -0.0052375709637999535 4456788 0 -1
-0.5761159062385559 0.3678169250488281 0.0052375709637999535 4456788 0 -1
0.5848544239997864 0.33793291449546814 -0.10475142300128937 4456788 0 -1
-0.6405037641525269 0.22716622054576874 0.0733259916305542 4456788 0 -1
-0.6485239267349243 0.2128351926803589 -0.0366629958152771 4590430 0 -1
0.6439252495765686 0.2113259732723236 -0.08903870731592178 4590430 0 -1
0.45099547505378723 0.48368969559669495 0.17283983528614044 4664956 0 -1
0.5636229515075684 0.34851813316345215 0.1676022708415985 4664956 0 -1
0.5801951885223389 0.2867219150066376 0.2199779748916626 4664956 0 -1
0.6437482833862305 0.22831694781780243 -0.026187855750322342 4212104 0 -1
0.4990137815475464 0.4595528841018677 -0.08380113542079926 2134668 0 -1
0.6543887853622437 0.19637374579906464 -0.020950283855199814 2134668 0 -1
-0.2642766237258911 0.6523800492286682 0.1316874921321869 4456788 0 -1
0.6322714686393738 0.32594814896583557 -0.0823046863079071 4456788 0 -1
-0.5814957022666931 0.4060684144496918 -0.09876562654972076 4456788 0 -1
-0.6967645287513733 0.16487036645412445 -0.010973958298563957 4456788 0 -1
0.630087673664093 0.3113778531551361 0.13717447221279144 4456788 0 -1
0.6515926718711853 0.23109911382198334 0.18655729293823242 4456788 0 -1
-0.6704257726669312 0.23777861893177032 0.0823046863079071 4456788 0 -1
0.5617287755012512 0.41463756561279297 0.15912239253520966 4590430 0 -1
0.6752600073814392 0.18221840262413025 0.1536354124546051 4590430 0 -1
-0.6130186319351196 0.2896255850791931 -0.23045311868190765 4664956 0 -1
0.5904621481895447 0.3651142418384552 0.17558333277702332 4664956 0 -1
-0.6259263157844543 0.30932140350341797 0.15912239253520966 4471684 0 -1
0.615725040435791 0.34313198924064636 0.12620052695274353 4471684 0 -1
0.37284064292907715 0.610754132270813 0.02743489481508732 4212104 0 -1
-0.5091171860694885 0.44774383306503296 -0.23045311868190765 3887499 0 -1
0.5550276041030884 0.40969112515449524 0.19204427301883698 3887499 0 -1
0.6211224794387817 0.4089774787425995 0.08604580909013748 4456788 0 -1
0.629540205001831 0.33776992559432983 0.22371910512447357 4657508 0 -1
0.629540205001831 0.33776992559432983 0.22371910512447357 4657508 0 -1
0.43877458572387695 0.6004436612129211 0.08604580909013748 4726897 0 -1
0.4721973240375519 0.561466634273529 0.14914606511592865 4726897 0 -1
0.6147509813308716 0.38013333082199097 0.19503717124462128 4726897 0 -1
-0.6390966773033142 0.30194637179374695 -0.24666465818881989 4664956 0 -1
-0.6443158984184265 0.30441224575042725 -0.22945548593997955 4536450 0 -1
0.4697311520576477 0.5472679734230042 0.20077355206012726 4471684 0 -1
0.04815910384058952 1.570536494255066 -0.423993855714798 4590430 0 -1
0.27505096793174744 1.5362704992294312 -0.46140506863594055 4590430 0 -1
-0.45874252915382385 1.5516926050186157 -0.17458570003509521 4657508 0 -1
0.04960721731185913 1.6177613735198975 -0.3688746392726898 4590430 0 -1
-0.4006631672382355 1.5841596126556396 -0.2925557494163513 4657508 0 -1
-0.29241830110549927 1.6332740783691406 -0.05087926238775253 4657508 0 -1
-1.458504319190979 0.7518871426582336 -0.41501516103744507 4456788 0 -1
0 1.6683517694473267 0.285322904586792 4456788 0 -1
0.30452728271484375 1.6277135610580444 0.35016903281211853 4456788 0 -1
1.5367995500564575 0.6919775605201721 0.1556306779384613 4590430 0 -1
-1.5470741987228394 0.46425729990005493 -0.5057997107505798 4657508 0 -1
0.15497137606143951 1.6782639026641846 0.1556306779384613 4657508 0 -1
-0.025901108980178833 1.689939022064209 0.09078456461429596 4664956 0 -1
-0.37788063287734985 1.6580376625061035 -0.44444531202316284 4456788 0 -1
-0.06565660983324051 1.7124707698822021 -0.3905731439590454 4456788 0 -1
0.05189868435263634 1.6924893856048584 0.47138139605522156 4456788 0 -1
0.3974151909351349 1.62519371509552 0.5387215614318848 4456788 0 -1
0.3250739574432373 1.6655499935150146 0.457913339138031 4456788 0 -1
-1.6602592468261719 0.44801971316337585 0.3636370599269867 4590430 0 -1
-0.34613579511642456 1.6368821859359741 -0.5387215614318848 4590430 0 -1
0.3470206558704376 1.6410666704177856 0.5252535343170166 4657508 0 -1
0.6227841973304749 1.5745964050292969 0.47138139605522156 4657508 0 -1
-0.4173130691051483 1.7065644264221191 -0.053872156888246536 4664956 0 -1
0.3394884765148163 1.6699026823043823 0.5486978888511658 4456788 0 -1
0.6676220297813416 1.5725690126419067 0.5349804759025574 4456788 0 -1
-0.0539340041577816 1.7588640451431274 0.3292187452316284 4456788 0 -1
0.3946383595466614 1.6707946062088013 0.5075455904006958 4456788 0 -1
0.6211023330688477 1.608919620513916 0.48011067509651184 4456788 0 -1
-1.6722303628921509 0.4512501060962677 0.45267578959465027 4590430 0 -1
0.9736814498901367 1.501714825630188 0.04115234315395355 4590430 0 -1
1.7271294593811035 0.46606457233428955 0.06858723610639572 4590430 0 -1
0.625038743019104 1.6191166639328003 0.4389583170413971 4657508 0 -1
1.6364480257034302 0.44159427285194397 -0.5761328339576721 4657508 0 -1
-0.4332382380962372 1.712956190109253 -0.28806641697883606 4664956 0 -1
-0.4211767911911011 1.7223646640777588 -0.2469140589237213 4471684 0 -1
0.06948695331811905 1.8123747110366821 -0.18156912922859192 4456788 0 -1
0.4319417476654053 1.7663869857788086 -0.12570171058177948 4456788 0 -1
0.6429017782211304 1.625459909439087 0.5167736411094666 4456788 0 -1
1.0050104856491089 1.402976393699646 -0.5866079330444336 4456788 0 -1
-0.07889475673437119 1.7142380475997925 -0.6145416498184204 4590430 0 -1
-1.226234793663025 1.233750343322754 -0.5447073578834534 4657508 0 -1
0.7100527882575989 1.5622615814208984 0.6145416498184204 4657508 0 -1
-1.063336968421936 1.398221731185913 -0.5970830917358398 4590430 0 -1
0.7022426128387451 1.6541169881820679 0.5786268711090088 4456788 0 -1
-1.506922960281372 2.1036369800567627 -0.5050514936447144 4456788 0 -1
-1.3733770847320557 2.2497432231903076 -0.060606177896261215 4456788 0 -1
-1.309273362159729 2.2795116901397705 -0.20202060043811798 4456788 0 -1
-1.3937784433364868 2.2376174926757812 -0.04040411859750748 4456788 0 -1
-0.28242170810699463 2.6175222396850586 0.14141441881656647 4456788 0 -1
-1.4373667240142822 2.1729955673217773 -0.40404120087623596 4456788 0 -1
-0.28242170810699463 2.6175222396850586 0.14141441881656647 4456788 0 -1
-1.2650303840637207 2.2024824619293213 -0.7070720791816711 4523353 0 -1
-0.28242170810699463 2.6175222396850586 0.14141441881656647 4523353 0 -1
-1.429730772972107 2.118757724761963 -0.6464658975601196 4725613 0 -1
-1.3055564165115356 2.273040294647217 -0.28282883763313293 4725613 0 -1
-0.30230945348739624 2.6128017902374268 0.18181852996349335 4725613 0 -1
-1.5579848289489746 2.132033348083496 -0.3885778784751892 4456788 0 -1
-1.574578046798706 2.154740571975708 -0.04090293496847153 4456788 0 -1
-1.466267704963684 2.2166879177093506 -0.24541760981082916 4456788 0 -1
-1.4477852582931519 2.2329280376434326 -0.20451468229293823 4456788 0 -1
-1.5455995798110962 2.1150848865509033 -0.5112866759300232 4456788 0 -1
-1.5136644840240479 2.071382999420166 -0.7362528443336487 4523353 0 -1
-1.574346899986267 2.1544241905212402 -0.06135440245270729 4657508 0 -1
-1.5495576858520508 2.0786526203155518 -0.6339954733848572 4724328 0 -1
-1.555332064628601 2.0863986015319824 -0.5930925607681274 4725613 0 -1
-1.5579848289489746 2.132033348083496 -0.3885778784751892 3432845 0 -1
-1.6660360097885132 2.062809705734253 -0.5175219178199768 4456788 0 -1
-1.5751389265060425 2.155508041381836 -0.41401752829551697 4456788 0 -1
-1.5751389265060425 2.155508041381836 -0.41401752829551697 4456788 0 -1
-1.8964126110076904 1.9080356359481812 -0.24841050803661346 4456788 0 -1
-1.4876601696014404 2.2490286827087402 -0.1656070053577423 4456788 0 -1
-1.6066375970840454 2.1552224159240723 0.26911139488220215 4456788 0 -1
-1.7800662517547607 2.0318312644958496 0.04140175133943558 4456788 0 -1
-1.588295340538025 2.1735119819641113 0.22770963609218597 4456788 0 -1
-1.958252191543579 1.8445132970809937 -0.24841050803661346 4456788 0 -1
-1.4841489791870117 2.243720769882202 -0.24841050803661346 4456788 0 -1
-1.3455569744110107 2.3426833152770996 0 4456788 0 -1
-1.5620150566101074 2.1375484466552734 -0.5382227897644043 4456788 0 -1
-1.4662630558013916 2.2614266872406006 -0.1863078773021698 4456788 0 -1
-1.566782832145691 2.144073009490967 -0.49682101607322693 4456788 0 -1
-1.5421680212020874 2.11038875579834 -0.6831288933753967 4523353 0 -1
-1.692481279373169 2.095553159713745 0.20700876414775848 4657508 0 -1
-1.6146209239959717 2.165931463241577 -0.02070087566971779 4657508 0 -1
-1.503648042678833 2.228297710418701 -0.26911139488220215 4657508 0 -1
-1.5742995738983154 2.111842393875122 -0.6003254055976868 4725613 0 -1
-1.5787336826324463 2.1604273319244385 -0.3726157546043396 3432845 0 -1
-1.688624620437622 2.09077787399292 -0.5028068423271179 4456788 0 -1
-1.5959844589233398 2.1840341091156006 -0.39805540442466736 4456788 0 -1
-1.9803781509399414 1.865354061126709 -0.2723536789417267 4456788 0 -1
-1.503052830696106 2.272299289703369 -0.23045311868190765 4456788 0 -1
-1.5832971334457397 2.1666722297668457 -0.5237571001052856 4456788 0 -1
-1.58792245388031 2.173001766204834 -0.4818565249443054 4456788 0 -1
-1.5728405714035034 2.152362823486328 -0.6075582504272461 4523353 0 -1
-1.6038594245910645 2.1514956951141357 -0.5237571001052856 4590430 0 -1
-1.7257088422775269 1.9295865297317505 -0.8799118995666504 4657508 0 -1
-1.7597336769104004 1.9676311016082764 -0.7123096585273743 4724328 0 -1
-1.5832971334457397 2.1666722297668457 -0.5237571001052856 4724328 0 -1
-1.5808345079421997 2.163302183151245 -0.5447073578834534 4725613 0 -1
-1.5977545976638794 2.1864564418792725 -0.37710511684417725 3432845 0 -1
-1.691937804222107 2.180737018585205 0.19079722464084625 4456788 0 -1
-1.691937804222107 2.180737018585205 0.19079722464084625 4456788 0 -1
-1.839982271194458 2.0573604106903076 -0.19079722464084625 4456788 0 -1
-1.684735894203186 2.171454429626465 0.3179953694343567 4456788 0 -1
-1.8441566228866577 2.062027931213379 -0.04239938408136368 4456788 0 -1
-1.8424229621887207 2.060089349746704 -0.12719815969467163 4456788 0 -1
-1.8389508724212646 2.0562071800231934 -0.211996927857399 4456788 0 -1
-1.8430191278457642 2.060755968093872 0.1059984639286995 4456788 0 -1
-1.8443191051483154 2.0622096061706543 0.02119969204068184 4456788 0 -1
-1.581338882446289 2.2075202465057373 -0.5299922823905945 4456788 0 -1
-1.8443191051483154 2.0622096061706543 -0.02119969204068184 4523353 0 -1
-1.7847388982772827 1.9545856714248657 -0.8055883049964905 4590430 0 -1
-1.759522795677185 2.1350176334381104 0.02119969204068184 4590430 0 -1
-1.8441566228866577 2.062027931213379 -0.04239938408136368 4725613 0 -1
-1.759522795677185 2.1350176334381104 -0.02119969204068184 3107982 0 -1
-1.5957783460617065 2.227677583694458 0.3815944492816925 3107982 0 -1
-1.8655786514282227 2.0859806537628174 -0.0643472969532013 4456788 0 -1
-1.8605855703353882 2.080397844314575 -0.21449099481105804 4456788 0 -1
-1.8616291284561157 2.0815646648406982 -0.19304190576076508 4456788 0 -1
-1.8647016286849976 2.0850002765655518 -0.10724549740552902 4456788 0 -1
-1.8625624179840088 2.082608222961426 -0.1715928018093109 4456788 0 -1
-1.8660169839859009 2.08647084236145 -0.021449100226163864 4456788 0 -1
-1.8658525943756104 2.086287021636963 -0.04289820045232773 4456788 0 -1
-1.8655786514282227 2.0859806537628174 -0.0643472969532013 4523353 0 -1
-1.8861349821090698 2.06563138961792 0.10724549740552902 4590430 0 -1
-1.7802753448486328 2.160198926925659 0 4590430 0 -1
-1.8581664562225342 2.077692985534668 -0.2573891878128052 4657508 0 -1
-1.8647016286849976 2.0850002765655518 -0.10724549740552902 4725613 0 -1
-1.8651950359344482 2.129000425338745 -0.08679403364658356 4456788 0 -1
-1.8647016286849976 2.1284372806549072 -0.10849253833293915 4456788 0 -1
-1.8877148628234863 2.110732078552246 -0.02169850841164589 4456788 0 -1
-1.8658525943756104 2.129750967025757 -0.04339701682329178 4456788 0 -1
-1.8655786514282227 2.1294381618499756 -0.06509552150964737 4523353 0 -1
-1.9092445373535156 2.090939998626709 0.04339701682329178 4590430 0 -1
-1.8007646799087524 2.185060977935791 0.04339701682329178 4590430 0 -1
-1.8857741355895996 2.1085622310638428 -0.13019104301929474 4657508 0 -1
-2.271944999694824 1.7223538160324097 -0.6734020113945007 4456788 0 -1
-1.5666518211364746 2.465141534805298 -0.22446732223033905 4456788 0 -1
-2.143691301345825 2.019181728363037 -0.31774598360061646 4456788 0 -1
-1.9518108367919922 2.2278666496276855 0.02269614115357399 4456788 0 -1
-1.406788945198059 2.6057205200195312 0.06808841973543167 4456788 0 -1
-1.5195250511169434 2.5400071144104004 -0.11348070204257965 4456788 0 -1
-1.8147720098495483 2.2020576000213623 -0.7943649291992188 4456788 0 -1
-1.950951099395752 2.2268853187561035 0.09078456461429596 4456788 0 -1
-1.8470441102981567 2.286925792694092 -0.36313825845718384 4456788 0 -1
-1.6652045249938965 2.4190280437469482 0.38583439588546753 4456788 0 -1
-1.756608009338379 2.3564000129699707 -0.5736387372016907 4456788 0 -1
-1.7061336040496826 2.3817315101623535 0.6195298433303833 4456788 0 -1
-1.7472972869873047 2.252089738845825 0.9178219437599182 4456788 0 -1
-1.792898178100586 2.3108646869659424 0.6424753665924072 4456788 0 -1
-1.7864866256713867 2.302600860595703 0.6883664727210999 4456788 0 -1
-1.8011505603790283 2.3684005737304688 0.5566789507865906 4456788 0 -1
-1.8099665641784668 2.2865517139434814 0.8118234872817993 4456788 0 -1
-1.7314903736114502 2.3694679737091064 0.7422386407852173 4456788 0 -1
-1.775194764137268 2.2880468368530273 0.8814083933830261 4456788 0 -1
-1.9122940301895142 2.2738146781921387 0.5798739194869995 4456788 0 -1
-1.812386155128479 2.3359827995300293 0.6494588255882263 4456788 0 -1
-1.8165416717529297 2.436797857284546 0.3516654670238495 4456788 0 -1
-1.6562711000442505 2.5544772148132324 -0.30477675795555115 4456788 0 -1
-1.8026175498962402 2.4668023586273193 -0.16411055624485016 4456788 0 -1
-1.8294286727905273 2.311138391494751 0.8205527663230896 4456788 0 -1
-1.7985942363739014 2.318206310272217 0.8674415349960327 4456788 0 -1
-1.7508152723312378 2.543394088745117 0.16585642099380493 4456788 0 -1
-1.8402851819992065 2.468648672103882 0.2843252718448639 4456788 0 -1
-1.7278165817260742 2.5604991912841797 0.14216263592243195 4456788 0 -1
-1.7998807430267334 2.512600898742676 0.09477509558200836 4456788 0 -1
-1.8088759183883667 2.4753668308258057 0.40279415249824524 4456788 0 -1
-1.7018903493881226 2.572899580001831 0.21324396133422852 4456788 0 -1
-1.8190568685531616 2.4892988204956055 0.2369377315044403 4456788 0 -1
-1.722318172454834 2.5523509979248047 0.2843252718448639 4456788 0 -1
-1.7943190336227417 2.5048367977142334 0.2606315016746521 4456788 0 -1
-1.68220853805542 2.594480514526367 -0.02369377389550209 4456788 0 -1
-1.7181828022003174 2.546222686767578 0.35540661215782166 4456788 0 -1
-1.8191876411437988 2.440347194671631 -0.5449568033218384 4456788 0 -1
-1.6464004516601562 2.4398462772369385 -0.9477509260177612 4456788 0 -1
-1.8002510070800781 2.513117551803589 0.07108131796121597 4456788 0 -1
-1.8177281618118286 2.3428680896759033 0.8766696453094482 4456788 0 -1
-1.7095563411712646 2.386509656906128 0.9714447259902954 4456788 0 -1
-1.8834983110427856 2.476682662963867 0.2873181700706482 4456788 0 -1
-1.7684634923934937 2.5690314769744873 0.19154545664787292 4456788 0 -1
-1.837064504623413 2.513941764831543 0.2633749842643738 4456788 0 -1
-1.7460041046142578 2.587451696395874 0.1436590850353241 4456788 0 -1
-1.8132065534591675 2.531203508377075 0.2633749842643738 4456788 0 -1
-1.7821921110153198 2.537933826446533 0.38309091329574585 4456788 0 -1
-1.849719524383545 2.481304407119751 0.4309772551059723 4456788 0 -1
-1.7404478788375854 2.5792179107666016 0.2873181700706482 4456788 0 -1
-1.8358148336410522 2.5122315883636475 0.2873181700706482 4456788 0 -1
-1.7377662658691406 2.5752439498901367 0.335204541683197 4456788 0 -1
-1.8091813325881958 2.5255842208862305 0.335204541683197 4456788 0 -1
-1.774526834487915 2.527017831802368 0.4788636267185211 4456788 0 -1
-1.7346670627593994 2.570651054382324 0.38309091329574585 4456788 0 -1
-1.774526834487915 2.527017831802368 0.4788636267185211 4456788 0 -1
-1.7821921110153198 2.537933826446533 0.38309091329574585 4456788 0 -1
-1.7821921110153198 2.537933826446533 0.38309091329574585 4456788 0 -1
-1.8314069509506226 2.506199598312378 0.35914772748947144 4456788 0 -1
-1.802419662475586 2.5667388439178467 0.3628888428211212 4456788 0 -1
-1.819047212600708 2.5393569469451904 0.459659218788147 4456788 0 -1
-1.8761329650878906 2.5167365074157715 0.33869627118110657 4456788 0 -1
-1.7572753429412842 2.6041550636291504 0.31450366973876953 4456788 0 -1
-1.7527364492416382 2.597428560256958 0.38708144426345825 4456788 0 -1
-1.8280270099639893 2.5518925189971924 0.33869627118110657 4456788 0 -1
-1.8600170612335205 2.4951179027557373 0.5322369933128357 4456788 0 -1
-1.7472426891326904 2.589287281036377 0.459659218788147 4456788 0 -1
-1.7731419801712036 2.5758278369903564 0.43546661734580994 4456788 0 -1
-1.814677357673645 2.533256769180298 0.5080443620681763 4456788 0 -1
-1.7971032857894897 2.5591681003570557 0.43546661734580994 4456788 0 -1
-1.8504841327667236 2.5323057174682617 0.3628888428211212 4456788 0 -1
-1.7219053506851196 2.55173921585083 0.7015851140022278 4456788 0 -1
-1.8608596324920654 2.546504259109497 0.14515553414821625 4456788 0 -1
-1.8938413858413696 2.5404915809631348 0.366629958152771 4456788 0 -1
-1.8010456562042236 2.616363286972046 0.2933039665222168 4456788 0 -1
-1.8531694412231445 2.5869908332824707 0.2199779748916626 4456788 0 -1
-1.7672133445739746 2.618882417678833 0.4399559497833252 4456788 0 -1
-1.8092619180679321 2.5764825344085693 0.5132819414138794 4456788 0 -1
-1.8598026037216187 2.545057773590088 0.4888399541378021 4456788 0 -1
-1.7587313652038574 2.6063127517700195 0.537723958492279 4456788 0 -1
-1.9298794269561768 2.487419605255127 0.5132819414138794 4456788 0 -1
-1.8259111642837524 2.548938751220703 0.5866079330444336 4456788 0 -1
-1.8756529092788696 2.4663665294647217 0.7577019333839417 4456788 0 -1
-1.7569407224655151 2.5522923469543457 0.7577019333839417 4456788 0 -1
-1.7813736200332642 2.486765146255493 0.90435391664505 4456788 0 -1
-1.706101894378662 2.5792667865753174 0.7821439504623413 4456788 0 -1
-1.7262823581695557 2.558225631713867 0.8065859079360962 4456788 0 -1
-1.897662878036499 2.596867799758911 0.19753125309944153 4456788 0 -1
-1.7960586547851562 2.6616289615631104 0.2716054618358612 4456788 0 -1
-1.8498972654342651 2.6343493461608887 0.14814843237400055 4456788 0 -1
-1.9190763235092163 2.574342966079712 0.2716054618358612 4456788 0 -1
-1.8206621408462524 2.644860029220581 0.2716054618358612 4456788 0 -1
-1.8708075284957886 2.5095927715301514 -0.7654336094856262 4456788 0 -1
-1.8708075284957886 2.5095927715301514 -0.7654336094856262 4456788 0 -1
-1.9423576593399048 2.554079055786133 0.2962968647480011 4456788 0 -1
-1.7811812162399292 2.6395819187164307 0.4938281178474426 4456788 0 -1
-1.8175605535507202 2.5883002281188965 0.6172851324081421 4456788 0 -1
-1.885039210319519 2.579592704772949 0.41975390911102295 4456788 0 -1
-1.935715675354004 2.4949419498443604 0.641976535320282 4456788 0 -1
-1.83594810962677 2.5629501342773438 0.6666679382324219 4456788 0 -1
-1.720008373260498 2.600290298461914 0.814816415309906 4456788 0 -1
-1.7474488019943237 2.589592695236206 0.7901250123977661 4456788 0 -1
-1.7438974380493164 2.584329843521118 0.814816415309906 4456788 0 -1
-1.9407521486282349 2.603419780731201 0.22446732223033905 4456788 0 -1
-1.8238191604614258 2.6494462490081787 0.49881628155708313 4456788 0 -1
-2.2696139812469482 2.333142042160034 0 4456788 0 -1
-1.9203863143920898 2.6279637813568115 -0.024940814822912216 4456788 0 -1
-1.9837514162063599 2.5568552017211914 0.34917140007019043 4456788 0 -1
-1.8829400539398193 2.6285502910614014 0.37411221861839294 4456788 0 -1
-1.8829400539398193 2.6285502910614014 0.37411221861839294 4456788 0 -1
-1.6077618598937988 2.742648124694824 0.6983428001403809 4456788 0 -1
-1.9195404052734375 2.6268062591552734 0.09976325929164886 4456788 0 -1
-1.7969540357589722 2.6629559993743896 0.5237571001052856 4456788 0 -1
-1.9327449798583984 2.644876003265381 0.27709245681762695 4456788 0 -1
-1.8354281187057495 2.7199716567993164 0.20152178406715393 4456788 0 -1
-1.91395103931427 2.6718409061431885 -0.07557066529989243 4456788 0 -1
-1.8911534547805786 2.5879600048065186 0.7305164337158203 4456788 0 -1
-1.9758851528167725 2.6505489349365234 0.305275559425354 4456788 0 -1
-1.8570384979248047 2.7519967555999756 -0.025439631193876266 4456788 0 -1
-1.6269409656524658 2.891298770904541 -0.12719815969467163 4456788 0 -1
-1.8305163383483887 2.712692975997925 -0.5596718788146973 4456788 0 -1
-2.0012168884277344 2.6314754486083984 -0.305275559425354 4456788 0 -1
-1.8135707378387451 2.6345584392547607 0.8903870582580566 4456788 0 -1
-1.8544197082519531 2.7481160163879395 -0.17807741463184357 4456788 0 -1
-1.8516331911087036 2.7439866065979004 -0.25439631938934326 4523353 0 -1
-1.8321197032928467 2.6615042686462402 0.763188898563385 4724328 0 -1
-1.7720752954483032 2.844947576522827 -0.07706711441278458 4456788 0 -1
-1.8657840490341187 2.7104082107543945 -0.642225980758667 4456788 0 -1
-1.7692102193832397 2.8403480052948 -0.20551231503486633 4456788 0 -1
-1.8915340900421143 2.7478151321411133 -0.3339574933052063 4456788 0 -1
-1.87177312374115 2.7738325595855713 -0.20551231503486633 4456788 0 -1
-1.8726003170013428 2.7750582695007324 -0.17982326447963715 4523353 0 -1
-1.8974138498306274 2.756356716156006 -0.20551231503486633 4590430 0 -1
-1.8712345361709595 2.7183260917663574 -0.590847909450531 4724328 0 -1
-1.880734920501709 2.7321271896362305 -0.48809173703193665 4725613 0 -1
-1.842957615852356 2.677248477935791 0.8220492601394653 3432845 0 -1
-1.9723823070526123 2.64585018157959 -0.590847909450531 2912910 0 -1
-1.7435694932937622 2.8561594486236572 -0.20551231503486633 2912910 0 -1
-1.9083689451217651 2.772270917892456 -0.36313825845718384 4456788 0 -1
-1.78786039352417 2.8702893257141113 -0.1556306779384613 4456788 0 -1
-1.886709451675415 2.7408063411712646 -0.6225227117538452 4456788 0 -1
-1.7844910621643066 2.864880084991455 -0.2593844532966614 4456788 0 -1
-1.9126148223876953 2.7784388065338135 -0.285322904586792 4456788 0 -1
-1.9158353805541992 2.7831172943115234 -0.20750758051872253 4456788 0 -1
-1.9174154996871948 2.7854127883911133 -0.1556306779384613 4523353 0 -1
-1.9158353805541992 2.7831172943115234 -0.20750758051872253 4590430 0 -1
-1.9083689451217651 2.772270917892456 -0.36313825845718384 4212104 0 -1
-1.9112082719802856 2.832272529602051 -0.07856356352567673 4456788 0 -1
-1.8446332216262817 2.679682493209839 -1.0475142002105713 4456788 0 -1
-1.9150100946426392 2.781918525695801 -0.5237571001052856 4456788 0 -1
-1.93511164188385 2.811119794845581 -0.1833149790763855 4456788 0 -1
-1.9071621894836426 2.8262765407562256 -0.23569069802761078 4456788 0 -1
-1.908961534500122 2.8289427757263184 -0.1833149790763855 4523353 0 -1
-1.93511164188385 2.811119794845581 -0.1833149790763855 4590430 0 -1
-1.9358521699905396 2.8121955394744873 -0.15712712705135345 4724328 0 -1
-1.9149844646453857 2.727036952972412 0.7594478130340576 4664956 0 -1
-1.9296917915344238 2.80324649810791 -0.3142542541027069 4212104 0 -1
-2.952268362045288 1.7659058570861816 0.2643726170063019 4456788 0 -1
-1.9262908697128296 2.854623794555664 -0.21149811148643494 4456788 0 -1
-2.2949459552764893 3.078552722930908 0.08829048275947571 4456788 0 -1
-3.001523971557617 2.39571475982666 -0.05886032059788704 4456788 0 -1
-3.1308557987213135 2.1863300800323486 0.41202226281166077 4456788 0 -1
-3.020519733428955 2.3502590656280518 0.32373178005218506 4456788 0 -1
-2.8154971599578857 2.3610033988952637 -1.118346095085144 4456788 0 -1
-2.2128615379333496 3.0891146659851074 -0.559173047542572 4456788 0 -1
-2.991194248199463 2.387470245361328 0.32373178005218506 4456788 0 -1
-2.8885138034820557 2.4222333431243896 -0.7357540130615234 4456788 0 -1
-2.991194248199463 2.387470245361328 0.32373178005218506 4590430 0 -1
-2.976299524307251 2.3755815029144287 0.5003127455711365 4724328 0 -1
-2.957662582397461 2.4203131198883057 0.3825920820236206 4664956 0 -1
-2.834254741668701 2.2622063159942627 1.2654969692230225 4212104 0 -1
-2.9975483417510986 2.4529526233673096 0.029679568484425545 4456788 0 -1
-3.0566365718841553 2.378361463546753 0.05935913696885109 4456788 0 -1
-2.990499973297119 2.4471845626831055 0.26711612939834595 4456788 0 -1
-2.9950616359710693 2.390557050704956 0.5639117956161499 4456788 0 -1
-2.8704543113708496 2.583710193634033 0.29679569602012634 4456788 0 -1
-3.018415927886963 2.4091973304748535 0.29679569602012634 4456788 0 -1
-2.9849376678466797 2.4426329135894775 0.35615482926368713 4456788 0 -1
-2.9803385734558105 2.4388694763183594 0.4155139625072479 4523353 0 -1
-3.049717903137207 2.3729779720306396 0.26711612939834595 4590430 0 -1
-2.9082562923431396 2.5576701164245605 0.05935913696885109 4590430 0 -1
-3.0122594833374023 2.4042835235595703 0.38583439588546753 4657508 0 -1
-2.898247718811035 2.548868179321289 0.32647526264190674 4724328 0 -1
-2.9919991493225098 2.448411464691162 0.23743654787540436 4664956 0 -1
-2.9258298873901367 2.5131309032440186 0.35615482926368713 2912910 0 -1
-3.045487880706787 2.4308054447174072 0.2693607807159424 4456788 0 -1
-3.0120701789855957 2.4648358821868896 0.3292187452316284 4456788 0 -1
-3.026745319366455 2.4158456325531006 0.5087926387786865 4456788 0 -1
-3.0717151165008545 2.390094041824341 0.3292187452316284 4456788 0 -1
-3.035139799118042 2.422545909881592 0.41900569200515747 4456788 0 -1
-3.0077922344207764 2.4613354206085205 0.38907670974731445 4523353 0 -1
-3.075345754623413 2.392918825149536 0.2693607807159424 4590430 0 -1
-2.7990143299102783 2.461597204208374 -1.1672301292419434 4590430 0 -1
-2.918452024459839 2.566636800765991 0.38907670974731445 4724328 0 -1
-3.048361301422119 2.433098793029785 0.20950284600257874 4664956 0 -1
-2.976433038711548 2.375688076019287 0.8679403066635132 3562893 0 -1
-2.92061448097229 2.5685386657714844 0.35914772748947144 2912910 0 -1
-3.072406530380249 2.4522910118103027 0.24142707884311676 4456788 0 -1
-3.035104513168335 2.4836854934692383 0.36214062571525574 4456788 0 -1
-3.054974317550659 2.4383771419525146 0.4828541576862335 4456788 0 -1
-3.0973126888275146 2.4100112915039062 0.3319622278213501 4456788 0 -1
-3.0604326725006104 2.4427337646484375 0.42249739170074463 4456788 0 -1
-3.0089662075042725 2.5232417583465576 0.30178385972976685 4523353 0 -1
-3.095205783843994 2.408371925354004 0.36214062571525574 4590430 0 -1
-3.0904366970062256 2.404661178588867 0.42249739170074463 4657508 0 -1
-3.0453989505767822 2.430734395980835 0.5733892917633057 4724328 0 -1
-3.072406530380249 2.4522910118103027 0.24142707884311676 4664956 0 -1
-3.7393722534179688 1.227202296257019 0.15089192986488342 2977934 0 -1
-2.9052207469940186 2.6150035858154297 0.4828541576862335 2977934 0 -1
-2.593855857849121 2.840703248977661 0.8449947834014893 2977934 0 -1
-3.069145441055298 2.449688196182251 0.30178385972976685 2139270 0 -1
-2.916886568069458 2.6255042552948 0.3319622278213501 2139270 0 -1
-2.677185535430908 2.811331033706665 0.6639244556427002 2139270 0 -1
-2.3690366744995117 3.0534489154815674 -0.9128338098526001 4456788 0 -1
-3.0962460041046143 2.4713189601898193 0.27385014295578003 4456788 0 -1
-3.0622713565826416 2.5059165954589844 0.33470574021339417 4456788 0 -1
-3.12078595161438 2.4282758235931396 0.36513352394104004 4456788 0 -1
-3.0857253074645996 2.462921619415283 0.4259890913963318 4456788 0 -1
-3.192572593688965 2.3565831184387207 0.15213896334171295 4523353 0 -1
-3.0383992195129395 2.5479235649108887 0.2129945456981659 4523353 0 -1
-3.1184751987457275 2.4264779090881348 0.3955613076686859 4590430 0 -1
-2.943066120147705 2.5882837772369385 0.6389836668968201 4590430 0 -1
-3.2249672412872314 2.316254138946533 -0.06085558608174324 4657508 0 -1
-2.967092752456665 2.6094141006469727 -0.3955613076686859 4657508 0 -1
-2.5389959812164307 3.018995523452759 -0.45641690492630005 4657508 0 -1
-2.777379274368286 2.7343478202819824 0.7606948614120483 4724328 0 -1
-3.100353240966797 2.4745969772338867 0.18256676197052002 4664956 0 -1
-2.923288106918335 2.6312661170959473 0.5477002859115601 4664956 0 -1
-2.391918182373047 3.1452229022979736 0.6442212462425232 4456788 0 -1
3.7732958793640137 1.33826744556427 0 4456788 0 -1
-2.8859760761260986 2.657759428024292 0.7976072430610657 4456788 0 -1
-3.235610246658325 2.3238980770111084 -0.39880362153053284 4456788 0 -1
-3.174561023712158 2.4066238403320312 -0.39880362153053284 4456788 0 -1
-2.8767917156219482 2.770660877227783 -0.27609482407569885 4456788 0 -1
-3.1564106941223145 2.4559953212738037 0.18406321108341217 4456788 0 -1
-2.463463306427002 2.9891841411590576 1.01234769821167 4523353 0 -1
-2.8423893451690674 2.737527370452881 0.6748984456062317 4724328 0 -1
-2.0830469131469727 3.4122607707977295 0.21474041044712067 4724328 0 -1
-2.83879017829895 2.794807195663452 0.39880362153053284 4664956 0 -1
-2.6792287826538086 2.9342007637023926 0.4908352196216583 4664956 0 -1
-2.0094215869903564 3.4278311729431152 0.4908352196216583 4664956 0 -1
-3.25028920173645 2.3344409465789795 -0.5257523655891418 4456788 0 -1
-2.90645170211792 2.5560832023620605 1.1442846059799194 4456788 0 -1
-3.2660255432128906 2.280721426010132 -0.6494588255882263 4456788 0 -1
-3.1719462871551514 2.468083620071411 -0.37111932039260864 4456788 0 -1
-2.9132168292999268 2.562032699584961 1.1133579015731812 4523353 0 -1
-2.2201695442199707 3.356428384780884 0.3092660903930664 4590430 0 -1
-2.23939847946167 3.189018964767456 1.0515047311782837 4726897 0 -1
-2.461097240447998 3.236189126968384 0.15588009357452393 4456788 0 -1
-2.3181161880493164 3.2360482215881348 -0.8417524695396423 4456788 0 -1
-2.244080066680908 3.3925764560699463 0.09352805465459824 4456788 0 -1
-3.273385763168335 2.4162349700927734 -0.031176017597317696 4456788 0 -1
-2.282445192337036 3.315688371658325 0.592344343662262 4590430 0 -1
-2.350362777709961 3.0905802249908447 1.215864658355713 4726897 0 -1
-2.350362777709961 3.0905802249908447 1.215864658355713 4726897 0 -1
-2.2607791423797607 3.2842140197753906 0.8105764389038086 4664956 0 -1
-2.4814422130584717 3.262941598892212 0.12570171058177948 4456788 0 -1
-2.3966317176818848 3.2796847820281982 0.5656576752662659 4456788 0 -1
-2.413997173309326 3.303448438644409 0.28282883763313293 4456788 0 -1
-3.362421751022339 2.348036766052246 0.03142542764544487 4456788 0 -1
-3.163623809814453 2.525097370147705 0.6599339246749878 4590430 0 -1
-3.0314884185791016 2.6660468578338623 0.7227848172187805 4590430 0 -1
-2.447080373764038 3.2177577018737793 0.6913593411445618 4590430 0 -1
-2.344102382659912 3.272324323654175 0.7856356501579285 4657508 0 -1
-2.310718297958374 3.2257208824157715 1.037039041519165 4725613 0 -1
-2.350609540939331 3.1532227993011475 1.162740707397461 4726897 0 -1
-2.2922017574310303 3.329861640930176 0.6913593411445618 4664956 0 -1
-2.430283308029175 3.325735330581665 0.34842318296432495 4456788 0 -1
-2.430283308029175 3.325735330581665 0.34842318296432495 4456788 0 -1
-3.355954885482788 2.4103329181671143 -0.12669934332370758 4456788 0 -1
-3.1887319087982178 2.545137882232666 0.6651715040206909 4590430 0 -1
-3.0555477142333984 2.6872060298919678 0.7285211682319641 4590430 0 -1
-2.4101524353027344 3.298187017440796 0.6334967017173767 4590430 0 -1
-2.327991485595703 3.3151800632476807 0.8235456943511963 4657508 0 -1
-2.3338003158569336 3.2579429149627686 1.0135947465896606 4725613 0 -1
-3.219993829727173 2.50546932220459 0.6651715040206909 4726897 0 -1
-3.046647548675537 2.6793787479400635 0.7918708324432373 4726897 0 -1
-2.363585948944092 3.1706299781799316 1.2036436796188354 4726897 0 -1
-2.2901642322540283 3.393857717514038 0.5701470375061035 4664956 0 -1
-2.4795420169830322 3.326179265975952 0.38309091329574585 4456788 0 -1
-3.2726073265075684 2.480952501296997 -0.7023333311080933 4456788 0 -1
-3.2907609939575195 2.29799485206604 1.1173484325408936 4590430 0 -1
-3.185823678970337 2.542816638946533 0.8619545102119446 4590430 0 -1
-2.5453896522521973 3.215620279312134 0.7342575788497925 4590430 0 -1
-2.4291300773620605 3.3241569995880127 0.6384848356246948 4590430 0 -1
-2.28731107711792 3.38962984085083 0.7981060743331909 4590430 0 -1
-2.3344571590423584 3.324387788772583 0.925803005695343 4657508 0 -1
-3.21667218208313 2.63226580619812 0.2873181700706482 4724328 0 -1
-2.8839797973632812 2.839296817779541 0.9896515011787415 4724328 0 -1
-3.325627088546753 2.721425771713257 1.3078962564468384 4456788 0 -1
-3.303396224975586 2.837440252304077 1.101386308670044 4523353 0 -1
-3.333617925643921 2.7279646396636963 1.2734780311584473 4590430 0 -1
-3.327333927154541 2.858001232147217 1.1093673706054688 4523353 0 -1
-3.251643419265747 3.7883806228637695 -1.6969729661941528 4456788 0 -1
-3.058058023452759 4.184817314147949 -0.9696988463401794 4456788 0 -1
-4.844795227050781 1.1463890075683594 1.7373771667480469 4456788 0 -1
-3.2109084129333496 4.13853645324707 -0.6060617566108704 4456788 0 -1
-4.39841365814209 2.541433572769165 -1.4141441583633423 4456788 0 -1
-3.4334425926208496 4.000188827514648 -0.12121235579252243 4523353 0 -1
-4.427980899810791 2.915599822998047 -0.2032676339149475 4456788 0 -1
-3.496100664138794 3.990574359893799 0.0406535267829895 4456788 0 -1
-3.251422882080078 4.190755844116211 0.1219605803489685 4456788 0 -1
4.861063480377197 2.078253984451294 -0.4471887946128845 4456788 0 -1
-3.2717154026031494 3.811765670776367 -1.707448124885559 4456788 0 -1
-3.2881956100463867 4.15401554107666 -0.2845746874809265 4456788 0 -1
-3.4453907012939453 4.014108657836914 -0.406535267829895 4456788 0 -1
-4.593848705291748 2.6543571949005127 0 4456788 0 -1
-3.4554483890533447 4.025826930999756 -0.0406535267829895 4523353 0 -1
-3.494560718536377 3.988816738128662 -0.162614107131958 4590430 0 -1
-3.4962034225463867 3.990691661834717 0 4657508 0 -1
-3.330064296722412 4.123133659362793 -0.243921160697937 4724328 0 -1
-4.269370079040527 2.9813742637634277 1.0163382291793823 4471684 0 -1
-3.733604669570923 3.360635995864868 1.707448124885559 4471684 0 -1
-5.054717540740967 1.0053037405014038 1.2602593898773193 4471684 0 -1
-3.2687747478485107 4.213120460510254 0.24541760981082916 4456788 0 -1
-3.4763412475585938 4.050168514251709 -0.08180586993694305 4456788 0 -1
-3.468472480773926 4.041000843048096 -0.36812642216682434 4456788 0 -1
-4.6220316886901855 2.6706416606903076 0 4456788 0 -1
-3.4730732440948486 4.046360969543457 -0.24541760981082916 4523353 0 -1
-3.5167229175567627 4.014113426208496 -0.12270880490541458 4590430 0 -1
-3.5176525115966797 4.015174388885498 0 4657508 0 -1
-3.558450937271118 3.978851318359375 0.04090293496847153 4724328 0 -1
-3.5150699615478516 4.012226581573486 -0.20451468229293823 4664956 0 -1
-3.439706802368164 4.007486820220947 0.7771557569503784 4471684 0 -1
-3.2940192222595215 4.161372661590576 0.5726410746574402 4471684 0 -1
-3.491370916366577 4.067678928375244 -0.3292187452316284 4456788 0 -1
-3.0742380619049072 4.291580677032471 -0.9876562356948853 4456788 0 -1
-3.454258918762207 4.1072893142700195 -0.20576171576976776 4456788 0 -1
-3.494250535964966 4.071033954620361 -0.2469140589237213 4456788 0 -1
-3.489621639251709 4.065640926361084 -0.37037110328674316 4456788 0 -1
-4.648985862731934 2.686216115951538 0.12345702946186066 4456788 0 -1
-3.4929139614105225 4.06947660446167 -0.28806641697883606 4523353 0 -1
-3.491370916366577 4.067678928375244 -0.3292187452316284 4590430 0 -1
-3.5389976501464844 4.039538383483887 -0.04115234315395355 4657508 0 -1
-3.5389976501464844 4.039538383483887 -0.04115234315395355 4724328 0 -1
-3.76047420501709 3.865732192993164 -0.3312140107154846 4456788 0 -1
-3.4327118396759033 4.165277481079102 -0.24841050803661346 4456788 0 -1
-3.7647933959960938 3.8701722621917725 0.20700876414775848 4456788 0 -1
-3.7671170234680176 3.872560739517212 -0.08280350267887115 4456788 0 -1
-4.677161693572998 2.702496290206909 0.12420525401830673 4456788 0 -1
-3.931318521499634 3.7029802799224854 0.1656070053577423 4523353 0 -1
-3.508802652359009 4.087987899780273 -0.41401752829551697 4523353 0 -1
-3.7954070568084717 3.818668842315674 -0.45541927218437195 4590430 0 -1
-3.973517894744873 3.6593008041381836 0.12420525401830673 4657508 0 -1
-3.766563892364502 3.871992349624634 -0.12420525401830673 4657508 0 -1
-3.972700834274292 3.658548355102539 0.1656070053577423 4724328 0 -1
2.896259307861328 4.557291507720947 0.6247674226760864 4456788 5 -1
2.898756742477417 4.561221599578857 0.5831162333488464 4456788 5 -1
2.896259307861328 4.557291507720947 0.6247674226760864 4456788 5 -1
2.8935868740081787 4.553086757659912 0.6664185523986816 4456788 5 -1
2.849443197250366 4.574589252471924 0.7080697417259216 4456788 5 -1
2.839982271194458 4.5594000816345215 0.833023190498352 4456788 5 -1
-3.802999973297119 3.826308250427246 -0.6664185523986816 4456788 0 -1
-3.8247005939483643 3.848141670227051 -0.3332092761993408 4456788 0 -1
-3.8290934562683105 3.8525617122650146 -0.208255797624588 4456788 0 -1
-3.765136957168579 3.870525360107422 -0.6247674226760864 4456788 0 -1
-4.529168128967285 2.9822263717651367 0.3748604357242584 4456788 0 -1
-3.7812321186065674 3.887071132659912 -0.3748604357242584 4523353 0 -1
-3.8182709217071533 3.841672897338867 -0.45816275477409363 4590430 0 -1
-3.8290934562683105 3.8525617122650146 -0.208255797624588 4657508 0 -1
-3.9909918308258057 3.6753928661346436 0.3332092761993408 4724328 0 -1
-3.8314566612243652 3.8549394607543945 -0.0833023190498352 4724328 0 -1
2.9552249908447266 4.557861804962158 0.6285085082054138 4456788 5 -1
2.916114568710327 4.588534355163574 0.5866079330444336 4456788 5 -1
2.918452024459839 4.592212200164795 0.5447073578834534 4456788 5 -1
2.918452024459839 4.592212200164795 0.5447073578834534 4456788 5 -1
2.916114568710327 4.588534355163574 0.5866079330444336 4456788 5 -1
2.913602113723755 4.584580898284912 0.6285085082054138 4456788 5 -1
2.901789903640747 4.5659942626953125 0.7961108088493347 4456788 5 -1
2.8603358268737793 4.592076301574707 0.7961108088493347 4456788 5 -1
2.913602113723755 4.584580898284912 0.6285085082054138 4456788 5 -1
2.8948190212249756 4.555025577545166 0.8799118995666504 4456788 5 -1
-3.6862757205963135 4.037084579467773 0.12570171058177948 4456788 0 -1
-4.104326248168945 3.609555959701538 0.1676022708415985 4456788 0 -1
-4.061371326446533 3.655660390853882 -0.20950284600257874 4456788 0 -1
-4.586138725280762 2.9279863834381104 -0.5447073578834534 4456788 0 -1
-4.06435489654541 3.65834641456604 0 4523353 0 -1
-3.9190640449523926 3.7744815349578857 -0.5447073578834534 4590430 0 -1
-3.8038742542266846 3.9103469848632812 -0.37710511684417725 4590430 0 -1
-4.105773448944092 3.610828399658203 0.08380113542079926 4657508 0 -1
-3.8111603260040283 3.917836904525757 -0.1676022708415985 4657508 0 -1
-3.448115587234497 4.183968544006348 0.7123096585273743 4657508 0 -1
2.9253592491149902 4.603080749511719 0.7165495753288269 4456788 5 -1
2.9309449195861816 4.611869812011719 0.632249653339386 4456788 5 -1
2.9334723949432373 4.615847110748291 0.5900996923446655 4456788 5 -1
2.9379992485046387 4.622969627380371 0.5057997107505798 4456788 5 -1
2.9379992485046387 4.622969627380371 0.5057997107505798 4456788 5 -1
2.9334723949432373 4.615847110748291 0.5900996923446655 4456788 5 -1
2.9253592491149902 4.603080749511719 0.7165495753288269 4456788 5 -1
2.935823678970337 4.619546890258789 0.5479496717453003 4456788 5 -1
2.883568286895752 4.629374980926514 0.7165495753288269 4456788 5 -1
2.9379992485046387 4.622969627380371 0.5057997107505798 4456788 5 -1
2.9282407760620117 4.607614517211914 0.6743996143341064 4456788 5 -1
2.8640940189361572 4.691702365875244 0.21074987947940826 4456788 5 -1
2.947939157485962 4.456663131713867 -1.3066492080688477 4456788 0 -1
-3.4934120178222656 4.238931655883789 0.29504984617233276 4456788 0 -1
-3.4782602787017822 4.220546245574951 0.5900996923446655 4456788 0 -1
-4.0788140296936035 3.671360969543457 -0.37934979796409607 4456788 0 -1
-3.6068692207336426 4.11700963973999 0.5479496717453003 4456788 0 -1
-3.4416561126708984 4.261301517486572 0.5057997107505798 4456788 0 -1
-4.627778053283691 2.954570770263672 0.3371998071670532 4456788 0 -1
-4.086627006530762 3.6783931255340576 -0.1685999035835266 4523353 0 -1
-3.430224895477295 4.247147560119629 0.6743996143341064 4523353 0 -1
-3.433659553527832 4.166427135467529 1.053749442100525 4590430 0 -1
-3.4720568656921387 4.213018894195557 0.6743996143341064 4657508 0 -1
-3.468640089035034 4.208873271942139 0.7165495753288269 4724328 0 -1
2.9086756706237793 4.66968297958374 0.5935913920402527 4456788 5 -1
2.9996440410614014 4.626369476318359 0.46639323234558105 4456788 5 -1
2.997603416442871 4.623222351074219 0.5087926387786865 4456788 5 -1
3.0060229301452637 4.636207580566406 0.29679569602012634 4456788 5 -1
2.9996440410614014 4.626369476318359 0.46639323234558105 4456788 5 -1
2.9086756706237793 4.66968297958374 0.5935913920402527 4456788 5 -1
2.872898578643799 4.706125259399414 0.46639323234558105 4456788 5 -1
2.98764705657959 4.607866287231445 0.6783901453018188 4456788 5 -1
2.9904062747955322 4.612122058868408 0.6359907388687134 4456788 5 -1
3.026745319366455 4.575801372528076 0.7207895517349243 4456788 5 -1
2.833995819091797 4.737249851226807 0.3815944492816925 4456788 5 -1
2.9473371505737305 4.455752849578857 -1.4415791034698486 4456788 0 -1
-3.51904559135437 4.270035266876221 0.04239938408136368 4456788 0 -1
-3.517495632171631 4.268154621124268 0.1695975363254547 4456788 0 -1
-3.450521945953369 4.272278785705566 0.6783901453018188 4456788 0 -1
-4.652828693389893 2.970564126968384 0.3815944492816925 4456788 0 -1
-3.501646041870117 4.248922824859619 0.5511919856071472 4523353 0 -1
-3.5042407512664795 4.252070903778076 0.5087926387786865 4590430 0 -1
-3.7029991149902344 4.055399417877197 0.6783901453018188 4657508 0 -1
-3.51253080368042 4.262130260467529 0.3391950726509094 4657508 0 -1
-3.5194780826568604 4.18483829498291 0.847987711429596 4724328 0 -1
2.7681808471679688 4.819544315338135 -0.2985415458679199 4456788 5 -1
2.769240140914917 4.8213887214660645 -0.2558927536010742 4456788 5 -1
2.7701361179351807 4.822948455810547 -0.21324396133422852 4456788 5 -1
2.8118438720703125 4.796667098999023 -0.2558927536010742 4456788 5 -1
2.8567140102386475 4.7752251625061035 -0.1279463768005371 4456788 5 -1
2.833122491836548 4.735790252685547 0.725029468536377 4456788 5 -1
2.8946640491485596 4.741779327392578 0.3411903381347656 4456788 5 -1
2.798577308654785 4.774035930633545 0.5970830917358398 4456788 5 -1
2.7292022705078125 4.8501691818237305 -0.0852975845336914 4456788 5 -1
3.0577046871185303 4.622605323791504 0.5117855072021484 4456788 5 -1
2.770869016647339 4.824224472045898 0.1705951690673828 4456788 5 -1
2.7714390754699707 4.825216770172119 0.1279463768005371 4456788 5 -1
2.771846055984497 4.825925350189209 0.0852975845336914 4456788 5 -1
2.853355646133423 4.769611358642578 0.2985415458679199 4456788 5 -1
2.7282402515411377 4.848459720611572 0.1705951690673828 4456788 5 -1
2.8915915489196777 4.736746311187744 0.42648792266845703 4456788 5 -1
3.0022642612457275 4.630410671234131 0.725029468536377 4456788 5 -1
2.8107683658599854 4.794832229614258 0.2985415458679199 4456788 5 -1
2.9656307697296143 4.66644811630249 0.6397318840026855 4456788 5 -1
-3.2369606494903564 4.429637432098389 0.9382734298706055 4456788 0 -1
-1.9764496088027954 4.9970927238464355 1.450058937072754 4456788 0 -1
4.9051079750061035 2.5286777019500732 -0.725029468536377 4456788 0 -1
-3.5823934078216553 4.259647846221924 0.0426487922668457 4456788 0 -1
-3.4674038887023926 4.2931809425354 0.725029468536377 4456788 0 -1
-4.635051250457764 3.0519449710845947 0.42648792266845703 4456788 0 -1
-4.674673080444336 2.9845104217529297 -0.46913671493530273 4523353 0 -1
-3.643489122390747 4.158808708190918 0.6397318840026855 4523353 0 -1
2.7863359451293945 4.8511528968811035 -0.21449099481105804 4456788 5 -1
2.829202651977539 4.8262786865234375 -0.21449099481105804 4456788 5 -1
2.8259568214416504 4.820741653442383 -0.3431856036186218 4456788 5 -1
2.829202651977539 4.8262786865234375 -0.21449099481105804 4456788 5 -1
2.829202651977539 4.8262786865234375 -0.21449099481105804 4456788 5 -1
2.824540853500366 4.818326473236084 0.38608381152153015 4456788 5 -1
2.828287363052368 4.8247175216674805 0.2573891878128052 4456788 5 -1
2.7883830070495605 4.854717254638672 0 4456788 5 -1
2.7870728969573975 4.852436542510986 0.1715928018093109 4456788 5 -1
2.7883012294769287 4.854574680328369 0.04289820045232773 4456788 5 -1
2.783139228820801 4.845587730407715 0.3431856036186218 4456788 5 -1
2.7863359451293945 4.8511528968811035 0.21449099481105804 4456788 5 -1
2.85988450050354 4.780524730682373 0.5576766133308411 4456788 5 -1
2.8620035648345947 4.784067153930664 0.5147783756256104 4456788 5 -1
2.8620035648345947 4.784067153930664 0.5147783756256104 4456788 5 -1
2.804222345352173 4.783665180206299 0.7721676230430603 4456788 5 -1
2.98793888092041 4.701550483703613 0.5576766133308411 4456788 5 -1
2.778460741043091 4.837441921234131 0.4718801975250244 4456788 5 -1
2.94525408744812 4.728407382965088 0.5576766133308411 4456788 5 -1
2.7883012294769287 4.854574680328369 -0.04289820045232773 4456788 5 -1
-3.251460313796997 4.449479579925537 0.9866586327552795 4456788 0 -1
4.938652515411377 2.5459704399108887 -0.6863712072372437 4456788 0 -1
2.8025355339050293 4.87935733795166 -0.21573804318904877 4456788 5 -1
2.8423867225646973 4.848769187927246 -0.345180869102478 4456788 5 -1
2.845651388168335 4.8543381690979 -0.21573804318904877 4456788 5 -1
2.884007453918457 4.82084846496582 0.3883284628391266 4456788 5 -1
2.886728286743164 4.825396537780762 0.3020332455635071 4456788 5 -1
