VERSION .7
FIELDS x y z rgb label object
SIZE 4 4 4 4 4 4
TYPE F F F I I I
COUNT 1 1 1 1 1 1
WIDTH 685
HEIGHT 1
POINTS 685
VIEWPOINT 0 0 0 1 0 0 0
DATA ascii
-1.9267911911010742 2.7438502311706543 -0.4668920338153839 4456788 0 -1
-1.9126148223876953 2.7784388065338135 -0.285322904586792 4456788 0 -1
-1.8631219863891602 2.816648006439209 -0.23344601690769196 4456788 0 -1
-1.9126148223876953 2.7784388065338135 -0.285322904586792 4523353 0 -1
-1.913801908493042 2.780163526535034 -0.2593844532966614 4590430 0 -1
-1.9384609460830688 2.7604687213897705 -0.285322904586792 4657508 0 -1
-1.8130775690078735 2.8528950214385986 -0.18156912922859192 4657508 0 -1
-1.9444695711135864 2.7690250873565674 -0.10375379025936127 4724328 0 -1
-1.8122767210006714 2.8516347408294678 -0.20750758051872253 4724328 0 -1
-1.8367552757263184 2.6156344413757324 1.1153532266616821 4726897 0 -1
-1.9224040508270264 2.737602710723877 -0.5187689065933228 4536450 0 -1
-1.9224040508270264 2.737602710723877 -0.5187689065933228 4536450 0 -1
-1.9332877397537231 2.8084702491760254 -0.23569069802761078 4456788 0 -1
-1.9250584840774536 2.796515703201294 -0.39281782507896423 4456788 0 -1
-1.9310053586959839 2.80515456199646 -0.28806641697883606 4456788 0 -1
-1.9310053586959839 2.80515456199646 -0.28806641697883606 4456788 0 -1
-1.8819797039031982 2.8451569080352783 -0.20950284600257874 4456788 0 -1
-1.904910683631897 2.822939872741699 -0.28806641697883606 4523353 0 -1
-1.9267185926437378 2.7989273071289062 -0.366629958152771 4726897 0 -1
-2.9208149909973145 2.4493203163146973 -0.4708825647830963 4456788 0 -1
-2.97318696975708 2.3730974197387695 -0.5297428965568542 4456788 0 -1
-2.9217519760131836 2.3909268379211426 -0.7063238620758057 4590430 0 -1
-2.9962310791015625 2.3914902210235596 0.23544128239154816 4657508 0 -1
-2.990499973297119 2.4471845626831055 0.26711612939834595 4456788 0 -1
-2.9950616359710693 2.390557050704956 0.5639117956161499 4456788 0 -1
-2.9508302211761475 2.4744904041290283 0.4155139625072479 4456788 0 -1
-3.060375690460205 2.3200604915618896 0.5045526623725891 4523353 0 -1
-2.93612003326416 2.5219695568084717 0.14839784801006317 4523353 0 -1
-2.9878668785095215 2.3848142623901367 0.6232709288597107 4590430 0 -1
-3.0440452098846436 2.3685641288757324 0.35615482926368713 4657508 0 -1
-3.0120701789855957 2.4648358821868896 0.3292187452316284 4456788 0 -1
-2.987269401550293 2.50504732131958 0.23943181335926056 4456788 0 -1
-3.026745319366455 2.4158456325531006 0.5087926387786865 4456788 0 -1
-2.9756271839141846 2.4952845573425293 0.41900569200515747 4456788 0 -1
-3.0891330242156982 2.3418612480163574 0.4788636267185211 4523353 0 -1
-2.952425241470337 2.5359747409820557 0.3292187452316284 4523353 0 -1
-3.020230293273926 2.4106457233428955 0.5686505436897278 4590430 0 -1
-3.097132682800293 2.347925901412964 0.38907670974731445 4657508 0 -1
-3.035139799118042 2.422545909881592 0.41900569200515747 4724328 0 -1
-3.035104513168335 2.4836854934692383 0.36214062571525574 4456788 0 -1
-3.0004241466522217 2.516078472137451 0.42249739170074463 4456788 0 -1
-3.054974317550659 2.4383771419525146 0.4828541576862335 4456788 0 -1
-2.9978389739990234 2.5139105319976807 0.45267578959465027 4456788 0 -1
-3.0904366970062256 2.404661178588867 0.42249739170074463 4523353 0 -1
-2.967860460281372 2.5492329597473145 0.45267578959465027 4523353 0 -1
-3.0519680976867676 2.4359776973724365 0.5130325555801392 4590430 0 -1
-2.9728007316589355 2.553476333618164 0.392318993806839 4657508 0 -1
-3.057795524597168 2.440629005432129 0.45267578959465027 4724328 0 -1
-3.192572593688965 2.3565831184387207 0.15213896334171295 4456788 0 -1
-3.057922124862671 2.5023577213287354 0.3955613076686859 4456788 0 -1
-2.8564951419830322 2.690584659576416 0.6085558533668518 4456788 0 -1
-2.976768732070923 2.556884527206421 0.6085558533668518 4456788 0 -1
-2.828101873397827 2.6638405323028564 0.8215504288673401 4456788 0 -1
-2.913034677505493 2.622037172317505 0.6389836668968201 4456788 0 -1
-3.16300368309021 2.397862434387207 0.12171117216348648 4456788 0 -1
-3.0136990547180176 2.5272104740142822 0.5477002859115601 4456788 0 -1
-2.94670033454895 2.591479778289795 0.6085558533668518 4523353 0 -1
-2.905299186706543 2.6150741577148438 0.6998392343521118 4590430 0 -1
-2.9652020931243896 2.546949625015259 0.6998392343521118 4657508 0 -1
-2.879265069961548 2.6515791416168213 0.6694114804267883 4724328 0 -1
-2.9501194953918457 2.533994436264038 0.9509932398796082 4456788 0 -1
-2.794757127761841 2.632432460784912 -1.135056495666504 4456788 0 -1
-2.310192346572876 3.0990049839019775 1.0430248975753784 4456788 0 -1
-2.80757474899292 2.644505500793457 1.073702096939087 4456788 0 -1
-2.901292562484741 2.6114680767059326 0.8896388411521912 4456788 0 -1
-2.901292562484741 2.6114680767059326 0.8896388411521912 4456788 0 -1
-3.280050754547119 2.290515661239624 -0.15338601171970367 4456788 0 -1
-3.1593806743621826 2.458306312561035 -0.06135440245270729 4456788 0 -1
-3.250255584716797 2.3344168663024902 -0.12270880490541458 4523353 0 -1
-2.8064346313476562 2.702899217605591 0.9203160405158997 4523353 0 -1
-2.280574321746826 3.1208653450012207 1.0430248975753784 4523353 0 -1
-2.884850025177002 2.596668004989624 0.9816704392433167 4590430 0 -1
-2.925788402557373 2.5130951404571533 1.073702096939087 4657508 0 -1
-2.881296396255493 2.6534500122070312 0.8282844424247742 4725613 0 -1
-2.3068597316741943 3.033376693725586 1.2270880937576294 4536450 0 -1
-2.380230188369751 3.257239818572998 -0.12370643764734268 4456788 0 -1
-2.3676021099090576 3.1760172843933105 -0.773165225982666 4456788 0 -1
-3.079559564590454 2.582439422607422 -0.37111932039260864 4456788 0 -1
-2.251005172729492 3.335826873779297 -0.3092660903930664 4456788 0 -1
-2.378830909729004 3.2553250789642334 0.18555966019630432 4456788 0 -1
-2.4122047424316406 3.235849380493164 0.03092660941183567 4456788 0 -1
-2.288569211959839 3.324584484100342 0 4456788 0 -1
-2.378830909729004 3.2553250789642334 0.18555966019630432 4523353 0 -1
-2.380230188369751 3.257239818572998 -0.12370643764734268 4590430 0 -1
-2.3519656658172607 3.1550416946411133 0.8968716859817505 4657508 0 -1
-2.33388352394104 3.1307854652404785 1.020578145980835 4725613 0 -1
-2.227282762527466 3.2355542182922363 0.9277982711791992 4725613 0 -1
-2.36930775642395 3.3075106143951416 0.031176017597317696 4456788 0 -1
-3.271944046020508 2.415170669555664 -0.12470407038927078 4456788 0 -1
-2.431086778640747 3.261178731918335 0.09352805465459824 4456788 0 -1
-2.3624114990234375 3.2978835105895996 0.31176018714904785 4523353 0 -1
-2.3690991401672363 3.3072192668914795 0.06235203519463539 4590430 0 -1
-2.26271653175354 3.353182315826416 0.43646425008773804 4657508 0 -1
-2.398015022277832 3.2815775871276855 0.18705610930919647 4724328 0 -1
-3.074554204940796 2.578242063522339 0.8484864830970764 4456788 0 -1
-3.42496919631958 2.2551677227020264 0.06285085529088974 4456788 0 -1
-2.6997289657592773 3.0815672874450684 -0.18855255842208862 4456788 0 -1
-3.3286495208740234 2.390721321105957 0.15712712705135345 4456788 0 -1
-2.6656582355499268 2.9805829524993896 0.9113373756408691 4456788 0 -1
-2.5365514755249023 3.1406421661376953 0.7227848172187805 4456788 0 -1
-2.841831684112549 2.8592491149902344 -0.7542102336883545 4523353 0 -1
-2.6911377906799316 3.071760892868042 -0.37710511684417725 4523353 0 -1
-3.390357255935669 2.3000152111053467 0.18855255842208862 4590430 0 -1
-2.6708474159240723 3.1117146015167236 0.06285085529088974 4590430 0 -1
-3.1693990230560303 2.593581438064575 0.2199779748916626 4657508 0 -1
-3.452455520629883 2.273266077041626 0.031674835830926895 4456788 0 -1
-2.635512351989746 3.008268117904663 1.04526948928833 4456788 0 -1
-3.3352816104888916 2.395484685897827 -0.47512251138687134 4456788 0 -1
-2.4015562534332275 3.3525290489196777 -0.28507351875305176 4523353 0 -1
-3.3017332553863525 3.0406394004821777 -0.17209161818027496 4456788 0 -1
-3.3222243785858154 2.8536124229431152 0.9981313943862915 4456788 0 -1
-3.3299827575683594 2.792437791824341 1.1358046531677246 4523353 0 -1
-3.199000358581543 3.0131964683532715 0.929294764995575 4523353 0 -1
-3.294450283050537 2.8973090648651123 0.9637130498886108 4590430 0 -1
-3.340195894241333 2.869049072265625 1.040031909942627 4456788 0 -1
-3.36094331741333 2.8184006214141846 1.1093673706054688 4523353 0 -1
-3.2052385807037354 3.0190722942352295 1.040031909942627 4523353 0 -1
-3.3064565658569336 2.9078681468963623 1.040031909942627 4590430 0 -1
-3.3472352027893066 4.061559677124023 -0.3232329487800598 4456788 0 -1
-3.2109084129333496 4.13853645324707 -0.6060617566108704 4456788 0 -1
-4.388524055480957 2.535719394683838 -1.4545482397079468 4456788 0 -1
-2.96895432472229 4.062882900238037 -1.5757606029510498 4657508 0 -1
-3.494560718536377 3.988816738128662 0.162614107131958 4456788 0 -1
-3.454636812210083 4.024880886077881 0.1219605803489685 4456788 0 -1
-3.409980535507202 4.054640293121338 -0.2845746874809265 4456788 0 -1
-3.2765579223632812 4.139313697814941 -0.5284958481788635 4456788 0 -1
-4.592634677886963 2.653655767440796 0.1219605803489685 4456788 0 -1
-3.325652837753296 4.117671489715576 -0.3658817410469055 4523353 0 -1
-3.4767494201660156 4.0506439208984375 0 4456788 0 -1
-3.4594576358795166 4.0304975509643555 -0.5317381620407104 4456788 0 -1
-3.4358465671539307 4.0853962898254395 0 4456788 0 -1
-3.4257452487945557 4.073385238647461 -0.40902936458587646 4456788 0 -1
-3.432213544845581 4.081076145172119 -0.24541760981082916 4456788 0 -1
-3.34417986869812 4.140611171722412 -0.40902936458587646 4456788 0 -1
-4.62148904800415 2.670328140258789 0.08180586993694305 4456788 0 -1
-3.558450937271118 3.978851318359375 -0.04090293496847153 4523353 0 -1
-3.388559103012085 4.1117024421691895 -0.3272234797477722 4523353 0 -1
-3.4257452487945557 4.073385238647461 -0.40902936458587646 4590430 0 -1
-3.4741969108581543 4.047669887542725 0.20451468229293823 4664956 0 -1
-3.436849355697632 4.0865888595581055 -0.5761328339576721 4456788 0 -1
-3.4485671520233154 4.100521564483643 -0.37037110328674316 4456788 0 -1
-3.4518208503723145 4.104390621185303 -0.28806641697883606 4456788 0 -1
-3.3550195693969727 4.154032230377197 -0.5761328339576721 4456788 0 -1
-4.650078296661377 2.68684720993042 0.04115234315395355 4456788 0 -1
-3.338538885116577 4.133626461029053 -0.7818945050239563 4523353 0 -1
-3.401174783706665 4.127010345458984 -0.4938281178474426 4590430 0 -1
-3.44663405418396 4.0982232093811035 -0.4115234315395355 4657508 0 -1
-3.8917646408081055 3.7481892108917236 0 4456788 0 -1
-3.7244069576263428 3.9110255241394043 -0.1656070053577423 4456788 0 -1
-3.3341903686523438 4.21212100982666 -0.5796245336532593 4456788 0 -1
-3.891650438308716 3.7480790615081787 -0.04140175133943558 4456788 0 -1
-3.585954427719116 3.6079325675964355 -1.8216770887374878 4456788 0 -1
-3.362497568130493 4.163290977478027 -0.7452315092086792 4456788 0 -1
-4.678260803222656 2.7031311988830566 0.04140175133943558 4456788 0 -1
-3.8011388778686523 3.6609067916870117 1.1592490673065186 4456788 0 -1
-3.8499107360839844 3.790261745452881 -0.08280350267887115 4523353 0 -1
-3.4347310066223145 4.167727470397949 0.1656070053577423 4523353 0 -1
-3.76047420501709 3.865732192993164 0.3312140107154846 4590430 0 -1
-3.3660178184509277 4.167649745941162 -0.7038297653198242 4590430 0 -1
-3.725172996520996 3.911829948425293 -0.12420525401830673 4657508 0 -1
-3.3341903686523438 4.21212100982666 -0.5796245336532593 4724328 0 -1
-3.921602964401245 3.69382905960083 -0.41401752829551697 4725613 0 -1
-3.7136423587799072 3.817589282989502 0.9108385443687439 4725613 0 -1
-3.4546995162963867 4.107813358306885 -0.6210262775421143 4725613 0 -1
-3.4546995162963867 4.107813358306885 -0.6210262775421143 4725613 0 -1
-4.081334114074707 3.5893354415893555 -0.0833023190498352 4456788 0 -1
-3.9141745567321777 3.7697722911834717 -0.12495347857475281 4456788 0 -1
-3.8314566612243652 3.8549394607543945 -0.0833023190498352 4456788 0 -1
-4.7053375244140625 2.718776226043701 0.12495347857475281 4456788 0 -1
-3.898622989654541 3.7547945976257324 -0.49981391429901123 4456788 0 -1
-4.039094924926758 3.6356093883514404 -0.12495347857475281 4523353 0 -1
-3.9494190216064453 3.720029354095459 -0.3332092761993408 4590430 0 -1
-3.790144205093384 3.8962326049804688 -0.0416511595249176 4590430 0 -1
-3.74585223197937 3.9335453510284424 -0.208255797624588 4657508 0 -1
-3.586179733276367 3.7658722400665283 1.5827441215515137 4724328 0 -1
-3.3611016273498535 3.9159064292907715 1.7076975107192993 4724328 0 -1
-4.100344657897949 3.6060540676116943 -0.2933039665222168 4456788 0 -1
-3.8962953090667725 3.835927724838257 -0.08380113542079926 4456788 0 -1
-4.019501209259033 3.701647996902466 -0.20950284600257874 4456788 0 -1
-4.644268035888672 2.8717987537384033 -0.2933039665222168 4456788 0 -1
-4.188088417053223 3.5120232105255127 -0.1676022708415985 4523353 0 -1
-4.016664028167725 3.699035167694092 -0.2933039665222168 4523353 0 -1
-4.146207332611084 3.5613696575164795 -0.1676022708415985 4590430 0 -1
-3.9786837100982666 3.7475945949554443 -0.1676022708415985 4590430 0 -1
-3.5589334964752197 4.146393775939941 0.20950284600257874 4590430 0 -1
-3.6068692207336426 4.11700963973999 0.5479496717453003 4456788 0 -1
-3.5229885578155518 4.18901252746582 0.5479496717453003 4456788 0 -1
-4.676449298858643 2.891698122024536 -0.1685999035835266 4456788 0 -1
-3.5229885578155518 4.18901252746582 0.5479496717453003 4523353 0 -1
-3.490119218826294 4.234935760498047 0.37934979796409607 4590430 0 -1
-3.6068692207336426 4.11700963973999 0.5479496717453003 4657508 0 -1
-3.628211498260498 4.1413702964782715 0.5511919856071472 4456788 0 -1
-3.5464603900909424 4.216921806335449 0.5087926387786865 4456788 0 -1
-4.705088138580322 2.909406900405884 -0.12719815969467163 4456788 0 -1
-4.351596355438232 3.3859663009643555 -0.46639323234558105 4456788 0 -1
-3.607497453689575 4.117726802825928 0.8055883049964905 4456788 0 -1
-3.5767605304718018 4.167163372039795 0.6783901453018188 4523353 0 -1
-4.6926374435424805 2.8069114685058594 0.847987711429596 4590430 0 -1
-4.1851983070373535 3.5948610305786133 -0.423993855714798 4590430 0 -1
-3.7096152305603027 4.062644958496094 0.5935913920402527 4590430 0 -1
-3.5042407512664795 4.252070903778076 0.5087926387786865 4590430 0 -1
-3.6573171615600586 4.08939790725708 0.7207895517349243 4657508 0 -1
-3.6287178993225098 4.141948699951172 0.8103270530700684 4456788 0 -1
-3.741421937942505 4.012650489807129 0.9382734298706055 4456788 0 -1
-3.5823259353637695 4.173647403717041 0.8529758453369141 4456788 0 -1
-3.55893874168396 4.679781913757324 -0.7262765169143677 4456788 0 -1
-3.5858850479125977 4.715214729309082 0.04539228230714798 4456788 0 -1
-3.5255990028381348 4.7294111251831055 -0.5447073578834534 4456788 0 -1
-3.52986216545105 4.6415486335754395 -1.0440224409103394 4456788 0 -1
-3.5368542671203613 4.744509220123291 0.2723536789417267 4456788 0 -1
-3.448192596435547 4.813614368438721 -0.18156912922859192 4456788 0 -1
-3.7211835384368896 4.6073994636535645 0.13617683947086334 4523353 0 -1
-3.4269509315490723 4.783961296081543 -0.6808842420578003 4523353 0 -1
-3.5067598819732666 4.704139709472656 -0.8170610666275024 4590430 0 -1
-3.5028750896453857 4.698927879333496 -0.8624533414840698 4657508 0 -1
-3.496335983276367 4.597463607788086 1.3163762092590332 4725613 0 -1
-3.6486544609069824 4.702747344970703 -0.22820845246315002 4456788 0 -1
-3.630265235900879 4.6790452003479 -0.6389836668968201 4456788 0 -1
-3.6513352394104004 4.706202507019043 0 4456788 0 -1
-3.592862844467163 4.724390029907227 -0.5020585656166077 4456788 0 -1
-3.594184398651123 4.632540702819824 -1.0497589111328125 4456788 0 -1
-3.6055877208709717 4.741122722625732 -0.045641690492630005 4456788 0 -1
-3.4318108558654785 4.790745258331299 -0.8671920895576477 4456788 0 -1
-3.5449702739715576 4.755396842956543 -0.5477002859115601 4456788 0 -1
-3.7426185607910156 4.633939743041992 0 4523353 0 -1
-3.439213514328003 4.801079750061035 -0.7759087085723877 4523353 0 -1
-3.5631020069122314 4.685256481170654 -0.9128338098526001 4590430 0 -1
-3.5712332725524902 4.695949077606201 -0.8215504288673401 4657508 0 -1
-3.6383421421051025 4.689455509185791 0.5020585656166077 4724328 0 -1
-3.6496198177337646 4.703991413116455 -0.18256676197052002 4725613 0 -1
-3.6509063243865967 4.7056498527526855 -0.09128338098526001 4600703 0 -1
-3.6582236289978027 4.715081214904785 -0.5048021078109741 4456788 0 -1
-3.640007495880127 4.691601753234863 -0.7801486849784851 4456788 0 -1
-3.6660029888153076 4.725107669830322 -0.3212376832962036 4456788 0 -1
-3.6147382259368896 4.75315523147583 -0.4589109718799591 4456788 0 -1
-3.6236934661865234 4.764930725097656 -0.18356439471244812 4456788 0 -1
-3.5778238773345947 4.799468040466309 -0.18356439471244812 4456788 0 -1
-3.716742515563965 4.695403575897217 -0.09178219735622406 4456788 0 -1
-3.5778238773345947 4.799468040466309 -0.18356439471244812 4456788 0 -1
-3.6557352542877197 4.711873531341553 0.550693154335022 4590430 0 -1
-3.6100385189056396 4.746975421905518 0.550693154335022 4657508 0 -1
-3.6660029888153076 4.725107669830322 0.3212376832962036 4724328 0 -1
-3.6252903938293457 4.767030239105225 0.04589109867811203 4725613 0 -1
-3.6685924530029297 4.728445053100586 0.22945548593997955 4726897 0 -1
-3.5937788486480713 4.820870876312256 -0.3229835331439972 4456788 0 -1
-3.7055373191833496 4.681248188018799 0.7843886017799377 4456788 0 -1
-3.7055373191833496 4.681248188018799 0.7843886017799377 4456788 0 -1
-3.564563751220703 4.781680107116699 -0.8305290937423706 4456788 0 -1
-3.5861527919769287 4.810640811920166 0.5075455904006958 4456788 0 -1
-3.588378667831421 4.813626766204834 -0.46140506863594055 4456788 0 -1
-3.666778087615967 4.726106643676758 -0.692107617855072 4456788 0 -1
-3.4768004417419434 4.853550434112549 -0.7843886017799377 4456788 0 -1
-3.598536968231201 4.827253341674805 -0.09228101372718811 4456788 0 -1
-3.7091872692108154 4.685859203338623 -0.7382481098175049 4523353 0 -1
-3.669940233230591 4.73018217086792 0.6459670662879944 4590430 0 -1
-3.7807438373565674 4.6811442375183105 0.23070253431797028 4657508 0 -1
-3.564563751220703 4.781680107116699 0.8305290937423706 4657508 0 -1
-3.7780752182006836 4.677840232849121 0.3229835331439972 4724328 0 -1
-3.595154047012329 4.8227152824401855 0.27684304118156433 4724328 0 -1
-3.6412456035614014 4.788010597229004 0.27684304118156433 4725613 0 -1
-3.6822590827941895 4.651840686798096 -1.206137776374817 4456788 0 -1
-3.5635194778442383 4.876519203186035 -0.4175092279911041 4456788 0 -1
-3.5798611640930176 4.802201271057129 -0.8814083933830261 4456788 0 -1
-3.7390973567962646 4.629579544067383 -1.1133579015731812 4456788 0 -1
-3.529829502105713 4.830415725708008 -0.9277982711791992 4456788 0 -1
-3.5975332260131836 4.825907230377197 -0.6494588255882263 4456788 0 -1
-3.679572582244873 4.742597579956055 -0.7886285185813904 4456788 0 -1
-3.495594024658203 4.879786014556885 -0.7886285185813904 4456788 0 -1
-3.583831548690796 4.8075270652771 -0.8350184559822083 4456788 0 -1
-3.7216713428497314 4.701630592346191 -0.8350184559822083 4523353 0 -1
-3.5022685527801514 4.889103412628174 -0.6958487033843994 4523353 0 -1
-3.6257569789886475 4.767643928527832 -0.8814083933830261 4590430 0 -1
-3.587583303451538 4.812560081481934 -0.7886285185813904 4657508 0 -1
-3.7335264682769775 4.622682094573975 -1.159747838973999 4724328 0 -1
-3.5653059482574463 4.878963470458984 -0.37111932039260864 4724328 0 -1
4.116427421569824 4.7959113121032715 -0.5836150646209717 3887499 6 -1
4.180609703063965 4.771897315979004 0.19453835487365723 13164576 6 -1
4.142923831939697 4.826781272888184 -0.4888399541378021 4017546 6 -1
4.13447380065918 4.816936492919922 -0.6354919672012329 3887499 6 -1
4.186213970184326 4.778294563293457 -0.5866079330444336 2782862 6 -1
4.142923831939697 4.826781272888184 -0.4888399541378021 2718350 6 -1
4.14732551574707 4.831909656524658 -0.39107197523117065 2070922 6 -1
4.149158477783203 4.834044933319092 -0.3421879708766937 2006409 6 -1
4.251783847808838 4.754095554351807 -0.1466519832611084 8180304 6 -1
4.200937271118164 4.795100212097168 0.24441997706890106 13164576 6 -1
4.210436820983887 4.805943012237549 -0.5404674410820007 4017546 6 -1
4.1555681228637695 4.841512680053711 -0.6387342214584351 3887499 6 -1
4.2154130935668945 4.811623573303223 -0.442200630903244 2977934 6 -1
4.21304988861084 4.808926105499268 -0.49133405089378357 2782862 6 -1
4.1719231605529785 4.860567569732666 -0.29480043053627014 2070922 6 -1
4.17437744140625 4.863426685333252 -0.19653362035751343 2006409 6 -1
4.21304988861084 4.808926105499268 -0.49133405089378357 2994813 6 -1
4.121264934539795 4.900393486022949 -0.3439338207244873 4505456 6 -1
4.117380142211914 4.8957743644714355 -0.442200630903244 6933851 6 -1
4.243803977966309 4.844029426574707 -0.2469140589237213 2070155 6 -1
4.148034572601318 4.932223796844482 0.04938281327486038 2070922 6 -1
4.146207332611084 4.930051326751709 0.19753125309944153 2006409 6 -1
4.271512985229492 4.776155471801758 -0.6913593411445618 2994813 6 -1
4.191496849060059 4.883371829986572 -0.3456796705722809 4505456 6 -1
4.194457054138184 4.886821269989014 -0.2469140589237213 6933851 6 -1
4.1955671310424805 4.888113975524902 -0.19753125309944153 8705099 6 -1
4.24679708480835 4.847446441650391 -0.04938281327486038 10016830 6 -1
4.2810163497924805 4.7867817878723145 -0.5432109236717224 11918891 6 -1
4.208694934844971 4.903409481048584 -0.44668999314308167 4505456 6 -1
4.2108049392700195 4.905867576599121 -0.39705777168273926 6933851 6 -1
4.189933776855469 4.982044219970703 0.04988162964582443 8180304 6 -1
4.588974952697754 4.617100715637207 -0.04988162964582443 8180304 6 -1
4.23545503616333 4.934586524963379 -0.2992897629737854 8705099 6 -1
4.433074474334717 4.754443168640137 -0.34917140007019043 8705099 6 -1
4.438292026519775 4.76003885269165 -0.1496448814868927 13164576 6 -1
4.510601043701172 4.7366132736206055 -0.15039311349391937 13164576 6 -1
4.8856120109558105 4.397563457489014 0.15114133059978485 4456788 0 -1
4.835954666137695 4.453537940979004 -0.10076089203357697 4456788 0 -1
-3.9203193187713623 5.258908271789551 0.45342400670051575 4657508 0 -1
-3.9725704193115234 5.223681926727295 0.40304356813430786 4724328 0 -1
-2.3240296840667725 6.020226955413818 -1.259511113166809 5949540 0 -1
4.374855995178223 4.891707420349121 0.40304356813430786 13164576 6 -1
-2.379603147506714 6.164186000823975 0 4456788 4 -1
-3.9375181198120117 5.281979560852051 0.5062985420227051 4456788 0 -1
-3.943443775177002 5.289928436279297 0.35440897941589355 4657508 0 -1
-2.442204475402832 6.17466926574707 0 4456788 4 -1
-2.2762346267700195 5.896417617797852 -2.035170555114746 4456788 0 -1
-4.064481735229492 5.238706588745117 0.35615482926368713 4456788 0 -1
-3.7009692192077637 5.484569072723389 -0.5596718788146973 4456788 0 -1
4.570521831512451 4.79953670501709 -0.40703409910202026 10016830 6 -1
4.570521831512451 4.79953670501709 -0.40703409910202026 10016830 6 -1
-2.3518497943878174 6.244230270385742 0.05112867057323456 4456788 4 -1
-2.5052311420440674 6.184288501739502 0.05112867057323456 4456788 4 -1
-2.5046427249908447 6.182836055755615 -0.15338601171970367 4456788 4 -1
-2.5050106048583984 6.183743953704834 -0.10225734114646912 4456788 4 -1
-2.5052311420440674 6.184288501739502 -0.05112867057323456 4456788 4 -1
-3.88018536567688 5.416667938232422 -0.3579006791114807 4456788 0 -1
-3.7780752182006836 5.488376617431641 -0.3579006791114807 4456788 0 -1
-4.446104526519775 4.971373558044434 0.20451468229293823 4456788 0 -1
-3.7807438373565674 5.492253303527832 -0.2556433379650116 4523353 0 -1
-3.7807438373565674 5.492253303527832 -0.2556433379650116 4590430 0 -1
-3.83284854888916 5.458174705505371 -0.20451468229293823 4657508 0 -1
4.643959045410156 4.773946285247803 -0.40902936458587646 10016830 0 -1
-2.363391637802124 6.274874210357666 0 4456788 4 -1
-2.1831607818603516 6.256004333496094 -1.0275615453720093 4456788 0 -1
-2.363391637802124 6.274874210357666 0 4456788 4 -1
-2.362766981124878 6.273216247558594 0.15413422882556915 4456788 4 -1
-2.414698839187622 6.255098342895508 0.05137807875871658 4456788 4 -1
-2.465496063232422 6.23355770111084 -0.15413422882556915 4456788 4 -1
-2.567697048187256 6.190667629241943 -0.20551231503486633 4456788 4 -1
-2.465857982635498 6.234472751617432 -0.10275615751743317 4456788 4 -1
-2.516343116760254 6.211718559265137 -0.20551231503486633 4456788 4 -1
-2.465496063232422 6.23355770111084 -0.15413422882556915 4456788 4 -1
-2.465857982635498 6.234472751617432 -0.10275615751743317 4456788 4 -1
-2.5175256729125977 6.2146382331848145 0 4456788 4 -1
-3.7979576587677 5.51725959777832 -0.3082684576511383 4456788 0 -1
-3.901867151260376 5.446935653686523 -0.2568903863430023 4456788 0 -1
-4.465166091918945 4.992687225341797 0.3082684576511383 4456788 0 -1
-3.8009731769561768 5.521640300750732 -0.15413422882556915 4456788 0 -1
-3.8991129398345947 5.443090915679932 -0.3596465289592743 4523353 0 -1
-3.7478461265563965 5.554036617279053 -0.2568903863430023 4523353 0 -1
-3.7991864681243896 5.519044876098633 -0.2568903863430023 4590430 0 -1
-3.8515453338623047 5.484799861907959 -0.20551231503486633 4657508 0 -1
-2.4985344409942627 6.167757034301758 0.8220492601394653 4341894 4 -1
-2.3701300621032715 5.8507843017578125 2.2606353759765625 2994813 0 -1
4.766785621643066 4.692931175231934 -0.46240270137786865 2994813 0 -1
-2.5806920528411865 6.221998691558838 0.15488246083259583 4456788 4 -1
-2.3229639530181885 6.32379674911499 -0.10325497388839722 4456788 4 -1
-2.4264206886291504 6.285462856292725 -0.05162748694419861 4456788 4 -1
-2.476954936981201 6.262529373168945 0.20650994777679443 4456788 4 -1
-2.4262068271636963 6.284909248352051 0.10325497388839722 4456788 4 -1
-2.373748540878296 6.302372455596924 0.20650994777679443 4456788 4 -1
-2.5794789791107178 6.21907377243042 -0.25813743472099304 4456788 4 -1
-2.3731207847595215 6.300705432891846 -0.25813743472099304 4456788 4 -1
-2.5278894901275635 6.240221977233887 -0.25813743472099304 4456788 4 -1
-2.5786447525024414 6.217062473297119 -0.30976492166519165 4456788 4 -1
-2.3723530769348145 6.2986674308776855 -0.30976492166519165 4456788 4 -1
-2.517164945602417 6.213747501373291 -0.6711573004722595 4456788 4 -1
-2.5223095417022705 6.226447105407715 -0.5162748694419861 4456788 4 -1
-3.9218454360961914 5.474824905395508 -0.20650994777679443 4456788 0 -1
-3.9218454360961914 5.474824905395508 -0.20650994777679443 4456788 0 -1
-3.817629098892212 5.545836448669434 -0.25813743472099304 4590430 0 -1
-2.4998645782470703 6.171041011810303 -1.0325497388839722 4341894 0 -1
-2.5055696964263916 6.185123920440674 -0.929294764995575 4212104 0 -1
-2.3327462673187256 6.350427150726318 0.2593844532966614 4456788 4 -1
-2.3343915939331055 6.35490608215332 -0.051876895129680634 4456788 4 -1
-2.645022392272949 6.230292320251465 0.1556306779384613 4456788 0 -1
-2.33109974861145 6.345944404602051 -0.36313825845718384 4456788 4 -1
-2.376227855682373 6.308955192565918 0.6225227117538452 4456788 4 -1
-2.4364240169525146 6.311376094818115 0.2593844532966614 4456788 4 -1
-2.4375696182250977 6.3143439292907715 0.1556306779384613 4456788 4 -1
-2.4894328117370605 6.294077396392822 -0.1556306779384613 4456788 4 -1
-2.4874579906463623 6.289083957672119 -0.3112613558769226 4456788 4 -1
-2.587669610977173 6.238821029663086 -0.4668920338153839 4456788 4 -1
-2.3857064247131348 6.334121227264404 -0.1556306779384613 4456788 4 -1
-2.591940402984619 6.249117851257324 -0.2593844532966614 4456788 4 -1
-2.382901906967163 6.326674938201904 -0.36313825845718384 4456788 4 -1
-2.529325008392334 6.243765354156494 -0.6743996143341064 4456788 4 -1
-2.4795420169830322 6.269070625305176 -0.6225227117538452 4456788 4 -1
-2.3975284099578857 6.365508556365967 0.10425260663032532 4456788 4 -1
-2.3456835746765137 6.385645866394043 0 4456788 4 -1
-2.449648380279541 6.345633029937744 0.10425260663032532 4456788 4 -1
-2.3454082012176514 6.384896278381348 0.10425260663032532 4456788 4 -1
-2.392101287841797 6.351099967956543 0.46913671493530273 4456788 4 -1
-2.4427335262298584 6.3277201652526855 0.5212630033493042 4456788 4 -1
-2.500886917114258 6.323037147521973 0.20850521326065063 4456788 4 -1
-2.2918734550476074 6.399851322174072 0.2606315016746521 4456788 4 -1
-2.551487922668457 6.298475742340088 -0.31275781989097595 4456788 4 -1
-2.3450636863708496 6.38395881652832 -0.15637890994548798 4456788 4 -1
-2.54148530960083 6.2737836837768555 -0.6776419281959534 4456788 4 -1
-2.441218137741089 6.323795318603516 -0.5733892917633057 4456788 4 -1
-2.4092118740081787 6.396528720855713 0.052375711500644684 4456788 4 -1
-2.356837749481201 6.416010856628418 -0.052375711500644684 4456788 4 -1
-2.512852907180786 6.353290557861328 0.20950284600257874 4456788 4 -1
-2.4075138568878174 6.392020225524902 0.2618785500526428 4456788 4 -1
-2.454421281814575 6.357996463775635 0.5237571001052856 4456788 4 -1
-2.3535141944885254 6.406963348388672 0.366629958152771 4456788 4 -1
-2.4528987407684326 6.354052543640137 0.5761328339576721 4456788 4 -1
-2.354414701461792 6.409414768218994 0.3142542541027069 4456788 4 -1
-2.197453737258911 6.464910507202148 0.3142542541027069 4456788 4 -1
-2.562715530395508 6.326191425323486 -0.366629958152771 4456788 4 -1
-2.3044636249542236 6.4350080490112305 -0.052375711500644684 4456788 4 -1
-2.0944747924804688 6.504699230194092 0.15712712705135345 4456788 4 -1
-2.4092118740081787 6.396528720855713 -0.052375711500644684 4456788 4 -1
-2.4092118740081787 6.396528720855713 -0.052375711500644684 4456788 4 -1
-2.42047119140625 6.426422119140625 0.10525023937225342 4456788 4 -1
-2.575904130935669 6.358748435974121 0.31575071811676025 4456788 4 -1
-2.366391658782959 6.442019462585449 0.26312559843063354 4456788 4 -1
-2.4181957244873047 6.42038106918335 0.31575071811676025 4456788 4 -1
-2.466108798980713 6.388272762298584 0.5262511968612671 4456788 4 -1
-2.4172706604003906 6.4179253578186035 0.36837583780288696 4456788 4 -1
-2.257492780685425 6.469007968902588 0.473626047372818 4456788 4 -1
-2.2604873180389404 6.477589130401611 0.31575071811676025 4456788 4 -1
-2.418978214263916 6.422458171844482 0.26312559843063354 4456788 4 -1
-2.418978214263916 6.422458171844482 0.26312559843063354 4456788 4 -1
-2.262282133102417 6.48273229598999 0.15787535905838013 4456788 4 -1
-2.682620048522949 6.31885290145874 -0.21050047874450684 4456788 0 -1
-2.4201157093048096 6.425478935241699 -0.15787535905838013 4456788 4 -1
-2.483278274536133 6.432748794555664 0.2643726170063019 4456788 4 -1
-2.324019193649292 6.489615440368652 0.3172471523284912 4456788 4 -1
-2.3182005882263184 6.473367214202881 0.5816197991371155 4456788 4 -1
-2.4287269115448 6.4483418464660645 0.37012168765068054 4456788 4 -1
-2.3231301307678223 6.487133026123047 0.37012168765068054 4456788 4 -1
-2.3209404945373535 6.481018543243408 0.4758707284927368 4456788 4 -1
-2.322103977203369 6.484267711639404 0.4229962229728699 4456788 4 -1
-2.376837730407715 6.470457077026367 0.3172471523284912 4456788 4 -1
-2.3776068687438965 6.472550392150879 0.2643726170063019 4456788 4 -1
-2.376837730407715 6.470457077026367 0.3172471523284912 4456788 4 -1
-2.1655633449554443 6.544196605682373 0.3172471523284912 4456788 4 -1
-2.21968674659729 6.530319690704346 0.21149811148643494 4456788 4 -1
-2.270331859588623 6.505798816680908 0.37012168765068054 4456788 4 -1
-2.3264107704162598 6.496294021606445 0.052874527871608734 4456788 4 -1
-2.1147327423095703 6.567613124847412 0.10574905574321747 4456788 4 -1
-2.21968674659729 6.530319690704346 0.21149811148643494 4456788 4 -1
-2.6409308910369873 6.367232799530029 -0.3172471523284912 4456788 4 -1
-5.330284118652344 4.361876010894775 0.4229962229728699 4590430 0 -1
-3.057706356048584 6.163414478302002 -0.5287452340126038 4017546 0 -1
-3.0066728591918945 6.192760467529297 -0.4758707284927368 3887499 0 -1
-3.0049874782562256 6.189289093017578 -0.5287452340126038 3757452 0 -1
-2.9539241790771484 6.218094348907471 -0.4758707284927368 2070155 0 -1
-2.905963897705078 6.253182888031006 -0.2643726170063019 13164576 0 -1
-2.494184732437134 6.461001396179199 0.31874361634254456 4456788 4 -1
-2.494184732437134 6.461001396179199 0.31874361634254456 4456788 4 -1
-2.44111704826355 6.481237888336182 0.31874361634254456 4456788 4 -1
-2.477989673614502 6.41904878616333 0.8499829173088074 4456788 4 -1
-2.4862475395202637 6.440440654754639 0.6374872326850891 4456788 4 -1
-2.3275508880615234 6.499477386474609 0.6374872326850891 4456788 4 -1
-2.4350051879882812 6.465010643005371 0.5843632817268372 4456788 4 -1
-2.229567050933838 6.559387683868408 0.2656196653842926 4456788 4 -1
-2.331888437271118 6.511589050292969 0.47811540961265564 4456788 4 -1
-2.333057403564453 6.514853477478027 0.4249914586544037 4456788 4 -1
-2.225893497467041 6.548579692840576 0.47811540961265564 4456788 4 -1
-2.4419069290161133 6.483334541320801 0.2656196653842926 4456788 4 -1
-2.2288460731506348 6.5572662353515625 0.31874361634254456 4456788 4 -1
-2.2279934883117676 6.554758071899414 -0.3718675374984741 4456788 4 -1
-2.5411055088043213 6.126555919647217 -2.018709421157837 4456788 0 -1
-3.01728892326355 6.214626312255859 -0.5843632817268372 2782862 0 -1
-2.967857837677002 6.247425079345703 -0.47811540961265564 2006409 0 -1
-2.505894660949707 6.491334438323975 0.3202400505542755 4456788 4 -1
-2.555821180343628 6.461928367614746 0.48036009073257446 4456788 4 -1
-2.5049359798431396 6.488851547241211 0.3736133873462677 4456788 4 -1
-2.484572649002075 6.43610143661499 0.9607201814651489 4456788 4 -1
-2.4996204376220703 6.475081920623779 0.5871067643165588 4456788 4 -1
-2.3916256427764893 6.510714054107666 0.640480101108551 4456788 4 -1
-2.2895898818969727 6.5609846115112305 0.48036009073257446 4456788 4 -1
-2.3428361415863037 6.5421600341796875 0.48036009073257446 4456788 4 -1
-2.1805200576782227 6.589395046234131 0.5871067643165588 4456788 4 -1
-2.3459439277648926 6.550837993621826 0.3202400505542755 4456788 4 -1
-2.1774232387542725 6.580036640167236 0.6938534379005432 4456788 4 -1
-2.5449421405792236 6.434422492980957 0.8006001114845276 4456788 4 -1
-2.519085168838501 6.525504112243652 0.21449099481105804 4456788 4 -1
-2.51285982131958 6.509377479553223 0.5362275242805481 4456788 4 -1
-2.51285982131958 6.509377479553223 0.5362275242805481 4456788 4 -1
-2.5568344593048096 6.464489936828613 0.8043412566184998 4456788 4 -1
-2.4502997398376465 6.505618095397949 0.8043412566184998 4456788 4 -1
-2.3537840843200684 6.572731018066406 0.4826047420501709 4456788 4 -1
-2.3002889156341553 6.591643333435059 0.4826047420501709 4456788 4 -1
-2.3510053157806396 6.564971446990967 0.5898502469062805 4456788 4 -1
-2.352464437484741 6.569046497344971 0.5362275242805481 4456788 4 -1
-2.1892192363739014 6.615683078765869 0.6434730291366577 4456788 4 -1
-2.561823606491089 6.3239898681640625 -1.555059790611267 4456788 0 -1
-2.574909210205078 6.510188579559326 0.6464658975601196 4456788 4 -1
-2.510418176651001 6.503052711486816 0.915826678276062 4456788 4 -1
-2.257244110107422 6.64081335067749 0.4848494231700897 4456788 4 -1
-2.259373664855957 6.647078514099121 0.37710511684417725 4456788 4 -1
-2.524524688720703 6.5395941734313965 0.865945041179657 4456788 4 -1
-2.309671401977539 6.618529796600342 0.865945041179657 4456788 4 -1
-2.3897933959960938 6.673283576965332 0.3262258470058441 4456788 4 -1
-4.560141563415527 5.6461591720581055 0.11123602837324142 4456788 0 -1
-6.278439521789551 3.755462408065796 -0.33670100569725037 4456788 0 -1
-4.880874156951904 5.457507610321045 -0.16835050284862518 4456788 0 -1
-4.152645587921143 6.032512187957764 0 4456788 0 -1
-4.488819122314453 5.785634994506836 -0.11223366111516953 4456788 0 -1
-4.594956398010254 5.689265251159668 0.39281782507896423 4523353 0 -1
-4.734208106994629 5.629214286804199 0.11273247748613358 4456788 0 -1
-4.390237808227539 5.889279842376709 -0.3945636749267578 4456788 0 -1
-4.560837745666504 5.761759281158447 0.3381974399089813 4456788 0 -1
-4.509299278259277 5.812031269073486 0 4456788 0 -1
-4.678398132324219 5.676802158355713 0 4523353 0 -1
-4.697856903076172 5.700413703918457 0.16984695196151733 4456788 0 -1
-4.407715797424316 5.912725925445557 -0.4529251754283905 4456788 0 -1
-4.582500457763672 5.789125919342041 0.28307825326919556 4456788 0 -1
-4.528719902038574 5.837062835693359 0.11323129385709763 4456788 0 -1
-4.6403021812438965 5.745410442352295 -0.22646258771419525 4523353 0 -1
-4.662386894226074 5.772754669189453 0.11373011022806168 4456788 0 -1
-4.548670291900635 5.862776756286621 0.11373011022806168 4456788 0 -1
-5.1649885177612305 5.3095598220825195 -0.4549204409122467 4523353 0 -1
-4.511910438537598 5.932880401611328 -0.05711446329951286 4456788 0 -1
-5.023711681365967 5.5017991065979 -0.22845785319805145 4523353 0 -1
-4.739943981170654 5.751482009887695 -0.11422892659902573 4523353 0 -1
-4.473199844360352 6.000568866729736 -0.17209161818027496 4456788 0 -1
-6.729742050170898 3.4693117141723633 -2.1728436946868896 4456788 0 -1
-6.729742050170898 3.4693117141723633 -2.1728436946868896 4456788 0 -1
-1.428645133972168 7.319810390472412 2.5349843502044678 4456788 0 -1
-6.493777275085449 3.8842670917510986 -2.303034782409668 4456788 0 -1
-6.771851062774658 4.050597667694092 -1.540095329284668 4456788 0 -1
-1.3505969047546387 7.543628215789795 2.5359818935394287 4456788 0 -1
-4.508785247802734 6.6816935539245605 -0.4329725205898285 4456788 0 -1
-4.453431606292725 6.7326507568359375 0 4456788 0 -1
-6.277649879455566 5.010607719421387 -0.8040918707847595 4523353 0 -1
-4.511970043182373 6.686413288116455 -0.3092660903930664 4523353 0 -1
-4.511970043182373 6.686413288116455 -0.3092660903930664 4523353 0 -1
-6.917168617248535 3.9967877864837646 -1.3662577867507935 4456788 0 -1
-1.3560428619384766 7.574045658111572 2.5462076663970947 4456788 0 -1
-4.470864295959473 6.759004592895508 0.12420525401830673 4456788 0 -1
-6.900937557220459 4.127810955047607 -1.2470407485961914 4456788 0 -1
-6.567242622375488 4.586018085479736 -1.4340968132019043 4456788 0 -1
-4.5697712898254395 6.772070407867432 -0.06260144710540771 4456788 0 -1
-6.78142786026001 4.056326389312744 -2.199779748916626 4456788 0 -1
-4.624124526977539 6.717425346374512 -0.8799118995666504 4456788 0 -1
-4.523135185241699 6.8380279541015625 -0.25140342116355896 4456788 0 -1
-5.1652512550354 6.1417460441589355 -1.6969729661941528 4523353 0 -1
-4.539883136749268 6.863347053527832 -0.31550130248069763 4456788 0 -1
-5.296844482421875 6.691565036773682 -1.4595364332199097 4456788 0 -1
-4.4343695640563965 7.412402629852295 -0.5970830917358398 4456788 0 -1
-5.1404266357421875 6.895619869232178 -0.9951384663581848 4523353 0 -1
-4.455239772796631 7.447288513183594 -0.46614381670951843 4456788 0 -1
-5.2104878425598145 6.851466655731201 -1.1986554861068726 4523353 0 -1
-4.876422882080078 7.988119125366211 -1.2295821905136108 4456788 0 -1
-4.756256103515625 7.950460910797119 -1.8082090616226196 4523353 0 -1
-4.491359233856201 8.319107055664062 -0.580622136592865 4456788 0 -1
-5.251617908477783 8.099602699279785 -2.938027858734131 4523353 0 -1
-5.532025337219238 7.722606658935547 -3.4019269943237305 4590430 0 -1
-5.1719841957092285 8.303272247314453 -2.4741287231445312 4590430 0 -1
-4.419180870056152 9.10206413269043 0.3102637231349945 4456788 0 -1
-5.218954086303711 8.212074279785156 -2.7923736572265625 4523353 0 -1
-5.16723108291626 8.295641899108887 -2.6372416019439697 4590430 0 -1
-3.2519476413726807 9.318689346313477 -2.2494120597839355 4590430 0 -1
-4.9822587966918945 8.499133110046387 -2.3269779682159424 4724328 0 -1
-5.144397735595703 8.258983612060547 -2.7923736572265625 4725613 0 -1
-5.421196937561035 7.8753252029418945 -3.423874855041504 4590430 0 -1
-5.108717918395996 8.368643760681152 -2.645721673965454 4590430 0 -1
-3.2027297019958496 9.422431945800781 -2.0231988430023193 4590430 0 -1
-3.1815264225006104 9.614373207092285 -1.9765595197677612 4590430 0 -1
-5.412657260894775 8.34797477722168 -2.855224370956421 4590430 0 -1
-4.390578269958496 10.341911315917969 -0.7766569256782532 4456788 0 -1
-4.2903618812561035 10.343979835510254 -1.4712586402893066 4456788 0 -1
-4.403267860412598 10.371801376342773 -0.7789016366004944 4456788 0 -1
-3.954209804534912 9.997499465942383 -3.461785078048706 4523353 0 -1
-4.05694055557251 10.014760971069336 -3.288695812225342 4657508 0 -1
-1.9372214078903198 10.820162773132324 -2.5963387489318848 4657508 0 -1
-4.418171405792236 10.406906127929688 -0.6943522691726685 4456788 0 -1
-4.525883197784424 10.41822624206543 -0.8729285001754761 4456788 0 -1
-4.532912731170654 10.434409141540527 -1.0505070686340332 4456788 0 -1
-4.443599224090576 10.46679973602295 -1.4046666622161865 4456788 0 -1
-4.464184761047363 10.515289306640625 -1.2325750589370728 4456788 0 -1
-4.480419635772705 10.553529739379883 -1.1477762460708618 4456788 0 -1
-4.453777313232422 10.737970352172852 -0.8035930395126343 4456788 0 -1
3.7217299938201904 11.246834754943848 0.18156912922859192 4456788 5 -1
3.630423069000244 11.274811744689941 0.2723536789417267 4456788 5 -1
3.6309561729431152 11.276467323303223 0.18156912922859192 4456788 5 -1
3.630423069000244 11.274811744689941 0.2723536789417267 4456788 5 -1
3.5502207279205322 11.337350845336914 0.09103397279977798 4456788 5 -1
3.549907922744751 11.336352348327637 0.18206794559955597 4456788 5 -1
3.6403965950012207 11.305787086486816 0.27310192584991455 4456788 5 -1
3.7306392192840576 11.273757934570312 0.36413589119911194 4456788 5 -1
3.7314066886901855 11.276076316833496 0.27310192584991455 4456788 5 -1
3.4683611392974854 11.395590782165527 0.18256676197052002 4456788 5 -1
3.8328888416290283 11.276361465454102 0.27385014295578003 4456788 5 -1
3.4686665534973145 11.396595001220703 0.09128338098526001 4456788 5 -1
3.559633731842041 11.367410659790039 -0.18256676197052002 4456788 5 -1
3.6503703594207764 11.336761474609375 0.27385014295578003 4456788 5 -1
3.3726232051849365 11.407868385314941 0.6389836668968201 4456788 0 -1
3.3726232051849365 11.407868385314941 0.6389836668968201 4456788 0 -1
3.8321006298065186 11.274043083190918 0.36513352394104004 4456788 5 -1
3.4671387672424316 11.39157485961914 0.36513352394104004 4456788 5 -1
3.8328888416290283 11.276361465454102 0.27385014295578003 4456788 5 -1
3.466221809387207 11.388562202453613 0.45641690492630005 4456788 5 -1
3.477837562561035 11.426726341247559 0.18306557834148407 4456788 5 -1
3.844264268875122 11.30982780456543 0.09153278917074203 4456788 5 -1
3.477837562561035 11.426726341247559 0.18306557834148407 4456788 5 -1
3.8433611392974854 11.307170867919922 0.2745983600616455 4456788 5 -1
3.5671579837799072 11.391438484191895 -0.45766395330429077 4456788 5 -1
3.752403497695923 11.33952808380127 0.18306557834148407 4456788 5 -1
3.381838083267212 11.439038276672363 0.6407294869422913 4456788 0 -1
3.7510812282562256 11.335532188415527 0.36613115668296814 4456788 5 -1
3.8425710201263428 11.304845809936523 0.36613115668296814 4456788 5 -1
3.4745681285858154 11.415985107421875 0.549196720123291 4456788 5 -1
3.7629594802856445 11.371427536010742 0.09178219735622406 4456788 5 -1
3.66438364982605 11.380282402038574 -0.7342575788497925 4456788 5 -1
3.4840354919433594 11.447091102600098 0.550693154335022 4456788 5 -1
3.772852659225464 11.401324272155762 0.18406321108341217 4456788 5 -1
3.6802914142608643 11.429685592651367 0.27609482407569885 4456788 5 -1
3.4051692485809326 11.517955780029297 0 4456788 5 -1
4.039750099182129 11.280640602111816 -0.8282844424247742 4456788 5 -1
3.494633436203003 11.481910705566406 0.46015802025794983 4456788 5 -1
3.588811159133911 11.460586547851562 -0.18406321108341217 4456788 5 -1
3.49627685546875 11.487310409545898 -0.27609482407569885 4456788 5 -1
3.4042694568634033 11.514912605285645 -0.27609482407569885 4456788 5 -1
3.49627685546875 11.487310409545898 -0.27609482407569885 4456788 5 -1
3.4134953022003174 11.546117782592773 0.27684304118156433 4456788 5 -1
3.6908071041107178 11.462343215942383 0.18456202745437622 4456788 5 -1
3.6696107387542725 10.79599666595459 -3.875802516937256 4456788 0 -1
3.505031108856201 11.516073226928711 0.36912405490875244 4456788 5 -1
3.8729569911956787 11.394241333007812 0.46140506863594055 4456788 5 -1
3.597268581390381 11.487595558166504 0.36912405490875244 4456788 5 -1
3.598959445953369 11.49299430847168 0 4456788 5 -1
3.411890745162964 11.540690422058105 -0.46140506863594055 4456788 5 -1
3.5016305446624756 11.504900932312012 -0.6459670662879944 4456788 5 -1
3.7700579166412354 11.392878532409668 -1.0150911808013916 4456788 5 -1
3.7700579166412354 11.392878532409668 -1.0150911808013916 4456788 5 -1
3.5145039558410645 11.547197341918945 -0.37012168765068054 4456788 5 -1
3.6069910526275635 11.51864242553711 -0.37012168765068054 4456788 5 -1
3.780247449874878 11.423670768737793 -1.0178346633911133 4456788 5 -1
3.697303295135498 11.482518196105957 -0.5551825165748596 4456788 5 -1
3.6077327728271484 11.521011352539062 -0.2775912582874298 4456788 5 -1
3.793301820755005 11.463119506835938 0.18506084382534027 4456788 5 -1
3.5145039558410645 11.547197341918945 0.37012168765068054 4456788 5 -1
3.886277675628662 11.433431625366211 0 4456788 5 -1
3.5145039558410645 11.547197341918945 0.37012168765068054 4456788 5 -1
3.6795284748077393 10.825175285339355 -3.886277675628662 4456788 0 -1
3.601900100708008 11.502385139465332 0.7402433753013611 4456788 0 -1
3.8852508068084717 11.430410385131836 -0.2775912582874298 4456788 5 -1
3.874852180480957 11.39981746673584 -0.9253042340278625 4456788 5 -1
3.616713285446167 11.549690246582031 -0.37111932039260864 4456788 5 -1
3.616713285446167 11.549690246582031 -0.37111932039260864 4456788 5 -1
3.6077752113342285 11.521147727966309 -0.9277982711791992 4456788 5 -1
3.525219440460205 11.582404136657715 -0.18555966019630432 4456788 5 -1
3.525219440460205 11.582404136657715 -0.18555966019630432 4456788 5 -1
3.616713285446167 11.549690246582031 0.37111932039260864 4456788 5 -1
3.989532709121704 11.432292938232422 0 4456788 5 -1
3.5247018337249756 11.580703735351562 0.2783394753932953 4456788 5 -1
3.8967528343200684 11.464248657226562 0 4456788 5 -1
3.4246809482574463 11.583953857421875 -0.8350184559822083 4456788 5 -1
3.3234615325927734 11.58073902130127 1.206137776374817 4456788 0 -1
3.2315309047698975 11.260403633117676 -3.061734437942505 4456788 0 -1
3.787858247756958 11.446669578552246 -1.1133579015731812 4456788 5 -1
3.615229606628418 11.544952392578125 -1.0233216285705566 4456788 5 -1
3.522531509399414 11.573572158813477 -1.0233216285705566 4456788 5 -1
3.6195027828216553 11.558597564697266 -0.8372631072998047 4456788 5 -1
3.6243038177490234 11.573929786682129 -0.5581754446029663 4456788 5 -1
3.625476598739624 11.577674865722656 0.46514618396759033 4456788 5 -1
3.814086675643921 11.525931358337402 -0.09302923828363419 4456788 5 -1
3.429833173751831 11.601381301879883 1.0233216285705566 4456788 0 -1
3.3474791049957275 11.6644287109375 0.37211695313453674 4456788 5 -1
3.6075737476348877 11.203850746154785 -2.976935625076294 4456788 0 -1
3.615229606628418 11.544952392578125 -1.0233216285705566 4456788 5 -1
3.450904607772827 11.67265510559082 0.18655729293823242 4456788 5 -1
3.524134397506714 11.578839302062988 -1.305901050567627 4456788 5 -1
3.6377604007720947 11.616902351379395 -0.09327864646911621 4456788 5 -1
3.7310361862182617 11.587281227111816 -0.09327864646911621 4456788 5 -1
3.823413848876953 11.554117202758789 -0.27983593940734863 4456788 5 -1
3.727200508117676 11.575368881225586 -0.5596718788146973 4456788 5 -1
3.5379226207733154 11.624141693115234 -0.7462291717529297 4456788 5 -1
3.7311458587646484 11.587621688842773 0 4456788 5 -1
3.823413848876953 11.554117202758789 0.27983593940734863 4456788 5 -1
3.636157989501953 11.611784934997559 0.37311458587646484 4456788 5 -1
3.4536826610565186 11.029065132141113 -3.8244245052337646 4456788 0 -1
3.7293927669525146 11.58217716217041 0.37311458587646484 4456788 5 -1
3.631025791168213 11.595396041870117 -0.7462291717529297 4456788 5 -1
