VERSION .7
FIELDS x y z rgb label object
SIZE 4 4 4 4 4 4
TYPE F F F I I I
COUNT 1 1 1 1 1 1
WIDTH 683
HEIGHT 1
POINTS 683
VIEWPOINT 0 0 0 1 0 0 0
DATA ascii
-1.5822277069091797 0.6764509677886963 -0.4938281178474426 4456788 0 -1
0.04097801074385643 1.7821675539016724 0.1646093726158142 4456788 0 -1
-1.6896909475326538 0.55452960729599 0.20576171576976776 4726897 0 -1
0.8236672878265381 1.557860016822815 -0.31550130248069763 4726897 0 -1
0.9888923168182373 1.4082337617874146 -0.4938281178474426 4726897 0 -1
1.0786800384521484 1.3903096914291382 -0.3292187452316284 4726897 0 -1
-1.525181531906128 2.1291255950927734 -0.3030308783054352 4456788 0 -1
-1.996342658996582 1.674081563949585 -0.40404120087623596 4456788 0 -1
-1.4875171184539795 2.160903215408325 -0.2626267671585083 4456788 0 -1
-1.3129796981811523 2.2859647274017334 -0.04040411859750748 4456788 0 -1
-1.5006738901138306 2.1370372772216797 -0.3636370599269867 4456788 0 -1
-1.2919825315475464 2.2960314750671387 -0.10101030021905899 4456788 0 -1
-0.9283121228218079 2.464695930480957 -0.12121235579252243 4456788 0 -1
-1.4735583066940308 2.140625238418579 -0.44444531202316284 4456788 0 -1
-1.3084611892700195 2.278097629547119 -0.22222265601158142 4456788 0 -1
-1.4292421340942383 2.204329013824463 -0.22222265601158142 4456788 0 -1
-1.413819432258606 2.180542469024658 -0.44444531202316284 4456788 0 -1
-0.28229695558547974 2.616365909576416 0.1616164743900299 4456788 0 -1
-1.5045790672302246 2.100364923477173 -0.5252535343170166 4523353 0 -1
-1.2744288444519043 2.264836072921753 -0.44444531202316284 4523353 0 -1
-0.28199732303619385 2.61358904838562 0.20202060043811798 4523353 0 -1
-1.381213665008545 2.1733529567718506 -0.5656576752662659 4590430 0 -1
-0.28012579679489136 2.596243381500244 -0.3636370599269867 4590430 0 -1
-1.4235259294509888 2.1955127716064453 -0.3232329487800598 4729209 0 -1
-0.5505097508430481 2.5061545372009277 0.6060617566108704 4729209 0 -1
-0.2195976823568344 2.596095085144043 0.40404120087623596 4729209 0 -1
-2.022369146347046 1.6141866445541382 -0.6544469594955444 4456788 0 -1
-1.4613975286483765 2.2093253135681152 -0.3272234797477722 4456788 0 -1
-1.5613455772399902 2.1366324424743652 -0.3476749360561371 4456788 0 -1
-1.544010877609253 2.1554112434387207 -0.30677202343940735 4456788 0 -1
-1.5542421340942383 2.1269116401672363 -0.42948082089424133 4456788 0 -1
-1.4627472162246704 2.2113654613494873 -0.30677202343940735 4456788 0 -1
-1.3088939189910889 2.326085329055786 0 4456788 0 -1
-1.5406932830810547 2.108370780944824 -0.5521896481513977 4456788 0 -1
-2.056196451187134 1.6411864757537842 -0.4499322772026062 4729209 0 -1
-1.5250089168548584 2.171691656112671 -0.2863205373287201 4729209 0 -1
-1.3496383428573608 2.3023204803466797 -0.04090293496847153 4729209 0 -1
-1.5632370710372925 2.0970027446746826 -0.5317381620407104 3887499 0 -1
-1.5597127676010132 2.1343979835510254 -0.36812642216682434 2328718 0 -1
-1.5691592693328857 2.147325277328491 -0.2249661386013031 5424489 0 -1
-1.4212563037872314 2.281731367111206 -0.26911139488220215 4456788 0 -1
-2.0375607013702393 1.7501553297042847 -0.28981226682662964 4456788 0 -1
-1.5872149467468262 2.1720335483551025 -0.24841050803661346 4456788 0 -1
-1.3662177324295044 2.3306026458740234 0.02070087566971779 4456788 0 -1
-1.5666017532348633 2.1869475841522217 -0.24841050803661346 4456788 0 -1
-1.3452013731002808 2.342064380645752 -0.062102627009153366 4456788 0 -1
-1.566782832145691 2.144073009490967 -0.49682101607322693 4456788 0 -1
-1.5620150566101074 2.1375484466552734 -0.5382227897644043 4456788 0 -1
-1.9517478942871094 1.8383867740631104 -0.3312140107154846 4456788 0 -1
-1.8005002737045288 2.013213872909546 -0.062102627009153366 4456788 0 -1
-1.5582306385040283 2.1752617359161377 -0.3726157546043396 4456788 0 -1
-1.5769846439361572 2.158033847808838 -0.3933166265487671 4456788 0 -1
-1.5787336826324463 2.1604273319244385 -0.3726157546043396 4456788 0 -1
-1.57115638256073 2.1500580310821533 -0.45541927218437195 4456788 0 -1
-1.593780279159546 2.1810178756713867 -0.04140175133943558 4456788 0 -1
-1.564448356628418 2.140878438949585 -0.5175219178199768 4456788 0 -1
-1.5787336826324463 2.1604273319244385 -0.3726157546043396 4590430 0 -1
-2.0784401893615723 1.6589406728744507 -0.47612014412879944 4729209 0 -1
-1.5011491775512695 2.2245945930480957 -0.31051313877105713 4729209 0 -1
-1.365615963935852 2.329576253890991 -0.08280350267887115 4729209 0 -1
-1.5787336826324463 2.1604273319244385 -0.3726157546043396 2328718 0 -1
-1.6039676666259766 2.1516406536102295 -0.31051313877105713 5424489 0 -1
-1.6039676666259766 2.1516406536102295 -0.31051313877105713 5424489 0 -1
-1.3658968210220337 2.3300552368164062 0.062102627009153366 5424489 0 -1
-1.80124831199646 2.056009292602539 -0.06285085529088974 4456788 0 -1
-1.3195191621780396 2.3938543796539307 -0.06285085529088974 4456788 0 -1
-1.5603041648864746 2.1781563758850098 -0.5447073578834534 4456788 0 -1
-1.5802103281021118 2.2059450149536133 -0.335204541683197 4456788 0 -1
-1.5734137296676636 2.1964569091796875 -0.41900569200515747 4456788 0 -1
-1.8016715049743652 2.056492328643799 -0.020950283855199814 4456788 0 -1
-1.60100257396698 2.190901279449463 -0.335204541683197 4456788 0 -1
-1.5856596231460571 2.169905185699463 -0.5028068423271179 4456788 0 -1
-1.5728405714035034 2.152362823486328 -0.6075582504272461 4523353 0 -1
-1.5959844589233398 2.1840341091156006 -0.39805540442466736 4590430 0 -1
-1.519235372543335 2.251396894454956 -0.3142542541027069 4729209 0 -1
-1.5464413166046143 2.2917141914367676 -0.1059984639286995 4456788 0 -1
-1.4839783906936646 2.3350541591644287 0 4456788 0 -1
-1.6878890991210938 2.1323299407958984 -0.5087926387786865 4456788 0 -1
-1.233151912689209 2.381972551345825 -0.6783901453018188 4456788 0 -1
-1.6149842739105225 2.2100346088409424 -0.40279415249824524 4456788 0 -1
-1.7213693857192993 1.9648326635360718 -0.9115867614746094 4456788 0 -1
-1.5836983919143677 2.2108142375946045 -0.5087926387786865 4456788 0 -1
-1.8231199979782104 2.0809743404388428 0.02119969204068184 4523353 0 -1
-1.5820690393447876 2.252948045730591 -0.2755959928035736 4212104 0 -1
-1.58324134349823 2.25461745262146 -0.25439631938934326 4147337 0 -1
-1.5117900371551514 2.285508155822754 0.3815944492816925 4147337 0 -1
-1.5876880884170532 2.2609500885009766 -0.14839784801006317 4017546 0 -1
-1.5876880884170532 2.2609500885009766 -0.14839784801006317 4017546 0 -1
-1.565738320350647 2.3203110694885254 -0.021449100226163864 4456788 0 -1
-1.522707223892212 2.348480701446533 -0.04289820045232773 4456788 0 -1
-1.522707223892212 2.348480701446533 -0.04289820045232773 4456788 0 -1
-1.627945065498352 2.227771043777466 -0.4718801975250244 4456788 0 -1
-1.5432014465332031 2.3329954147338867 -0.10724549740552902 4456788 0 -1
-1.5491018295288086 2.29565691947937 0.4075329005718231 4456788 0 -1
-1.844406008720398 2.105271100997925 -0.04289820045232773 4456788 0 -1
-1.8445684909820557 2.1054563522338867 -0.021449100226163864 4523353 0 -1
-1.5441538095474243 2.33443546295166 0.04289820045232773 4341894 0 -1
-1.5656003952026367 2.3201067447662354 -0.04289820045232773 4212104 0 -1
-1.5646347999572754 2.3186755180358887 -0.10724549740552902 4147337 0 -1
-1.5635303258895874 2.3170390129089355 -0.15014369785785675 4017546 0 -1
-1.4454108476638794 2.4161195755004883 0.30377912521362305 4456788 0 -1
-1.4486267566680908 2.421495199203491 0.23868359625339508 4456788 0 -1
-1.4399058818817139 2.4069175720214844 0.3905731439590454 4456788 0 -1
-1.4290058612823486 2.388697385787964 0.520764172077179 4456788 0 -1
-1.4223473072052002 2.3775670528411865 0.5858597159385681 4456788 0 -1
-1.484440565109253 2.383169412612915 0.3688746392726898 4456788 0 -1
-1.4773825407028198 2.278576135635376 -0.8028448224067688 4456788 0 -1
-1.5839910507202148 2.347360372543335 0 4456788 0 -1
-1.577280879020691 2.337416172027588 0.2603820860385895 4456788 0 -1
-1.5832469463348389 2.346257448196411 0.08679403364658356 4456788 0 -1
-1.8443191051483154 2.148754119873047 0.02169850841164589 4456788 0 -1
-1.5383764505386353 2.372647285461426 0.15188956260681152 4456788 0 -1
-1.5622466802597046 2.361788034439087 0.02169850841164589 4728182 0 -1
-1.5622925758361816 2.3618574142456055 0 4729209 0 -1
-1.5832469463348389 2.346257448196411 -0.08679403364658356 4212104 0 -1
-1.5832469463348389 2.346257448196411 -0.08679403364658356 4147337 0 -1
-1.5832469463348389 2.346257448196411 -0.08679403364658356 4017546 0 -1
-1.583572506904602 2.3467400074005127 -0.06509552150964737 3887499 0 -1
-1.6055010557174683 2.3322973251342773 -0.04339701682329178 3562893 0 -1
-1.524393916130066 2.2144737243652344 0.8896388411521912 3257723 0 -1
-1.4620248079299927 2.4438910484313965 -0.3072708249092102 4456788 0 -1
-1.4362672567367554 2.4008352756500244 0.6145416498184204 4456788 0 -1
-1.4494661092758179 2.422898054122925 0.4828541576862335 4456788 0 -1
-1.4454312324523926 2.4161536693573 0.5267499685287476 4456788 0 -1
-1.4454312324523926 2.4161536693573 0.5267499685287476 4456788 0 -1
-1.4432777166366577 2.4125537872314453 0.5486978888511658 4456788 0 -1
-1.498271107673645 2.4053733348846436 0.41701042652130127 4456788 0 -1
-1.5465466976165771 2.3852484226226807 0.35116666555404663 4456788 0 -1
-1.5798324346542358 2.388373851776123 0.06584374606609344 4456788 0 -1
-1.601021647453308 2.372598171234131 0.10973957926034927 4456788 0 -1
-1.5756040811538696 2.381981611251831 0.21947915852069855 4456788 0 -1
-1.5764878988265991 2.383317470550537 0.19753125309944153 4456788 0 -1
-1.57950758934021 2.387882709503174 0.08779166638851166 4728182 0 -1
-1.5798324346542358 2.388373851776123 0.06584374606609344 4729209 0 -1
-1.601021647453308 2.372598171234131 0.10973957926034927 4664956 0 -1
-1.6005038022994995 2.371830940246582 -0.1316874921321869 4147337 0 -1
-1.601445198059082 2.3732259273529053 -0.08779166638851166 4017546 0 -1
-1.6020097732543945 2.3740625381469727 -0.04389583319425583 3887499 0 -1
-1.6239551305770874 2.359105348587036 0.04389583319425583 3562893 0 -1
-1.6229534149169922 2.3576502799987793 0.10973957926034927 3432845 0 -1
-1.601445198059082 2.3732259273529053 0.08779166638851166 3302798 0 -1
-1.6459004878997803 2.3438472747802734 0.04389583319425583 2718350 0 -1
-1.6229534149169922 2.3576502799987793 0.10973957926034927 3257723 0 -1
-1.4836753606796265 2.430424213409424 0.5327357649803162 4456788 0 -1
-1.4596785306930542 2.439969062805176 0.5549331307411194 4456788 0 -1
-1.4596785306930542 2.439969062805176 0.5549331307411194 4456788 0 -1
-1.4639427661895752 2.447097063064575 0.5105384588241577 4456788 0 -1
-1.5135234594345093 2.4298601150512695 0.4439464807510376 4456788 0 -1
-1.5669156312942505 2.416663646697998 0.31076255440711975 4456788 0 -1
-1.565565586090088 2.414581537246704 0.3329598605632782 4456788 0 -1
-1.569333553314209 2.4203929901123047 0.2663678824901581 4456788 0 -1
-1.5902584791183472 2.4041359424591064 0.2885652184486389 4456788 0 -1
-1.594402551651001 2.410400629043579 0.19977591931819916 4456788 0 -1
-1.597456455230713 2.41501784324646 0.08878929913043976 4456788 0 -1
-1.5965174436569214 2.41359806060791 0.13318394124507904 4728182 0 -1
-1.5959067344665527 2.412674903869629 0.15538127720355988 4729209 0 -1
-1.618691325187683 2.3987834453582764 0.13318394124507904 4664956 0 -1
-1.6180721521377563 2.3978657722473145 0.15538127720355988 4600703 0 -1
-1.6156407594680786 2.3942627906799316 -0.2219732403755188 4147337 0 -1
-1.6173573732376099 2.3968067169189453 -0.17757859826087952 4017546 0 -1
-1.6156407594680786 2.3942627906799316 -0.2219732403755188 3887499 0 -1
-1.6408652067184448 2.3836705684661865 0.13318394124507904 3562893 0 -1
-1.6408652067184448 2.3836705684661865 0.13318394124507904 3432845 0 -1
-1.6344324350357056 2.374325752258301 0.2885652184486389 3302798 0 -1
-1.6647993326187134 2.370760440826416 0 2782862 0 -1
-1.6647993326187134 2.370760440826416 0 2718350 0 -1
-1.6640172004699707 2.3696465492248535 -0.08878929913043976 2588302 0 -1
-1.6608359813690186 2.3651163578033447 -0.19977591931819916 2523534 0 -1
-1.5073480606079102 2.4199459552764893 0.6734020113945007 4456788 0 -1
-1.5024869441986084 2.4612395763397217 0.5162748694419861 4456788 0 -1
-1.4984922409057617 2.405728340148926 0.7407422065734863 4456788 0 -1
-1.5015437602996826 2.4106273651123047 0.7182954549789429 4456788 0 -1
-1.488216519355774 2.4378628730773926 0.6509552597999573 4456788 0 -1
-1.4855024814605713 2.4334170818328857 0.6734020113945007 4456788 0 -1
-1.468909740447998 2.455399751663208 0.6285085082054138 4456788 0 -1
-1.4933549165725708 2.4462802410125732 0.6060617566108704 4456788 0 -1
-1.5045340061187744 2.464592933654785 0.4938281178474426 4456788 0 -1
-1.5622042417526245 2.4581432342529297 0.3142542541027069 4456788 0 -1
-1.5831562280654907 2.441711664199829 0.33670100569725037 4456788 0 -1
-1.5857914686203003 2.4457759857177734 0.29180753231048584 4456788 0 -1
-1.5857914686203003 2.4457759857177734 0.29180753231048584 4456788 0 -1
-1.6827139854431152 2.3962717056274414 0.08978693187236786 4456788 0 -1
-1.588046908378601 2.4492545127868652 0.2469140589237213 4456788 0 -1
-1.6822689771652222 2.3956379890441895 0.11223366111516953 4456788 0 -1
-1.6822689771652222 2.3956379890441895 0.11223366111516953 4456788 0 -1
-1.7699570655822754 2.327383041381836 -0.17957386374473572 4590430 0 -1
-1.6775143146514893 2.388867139816284 -0.2469140589237213 4590430 0 -1
-1.7714167833328247 2.3293025493621826 -0.1346803903579712 4657508 0 -1
-1.624650001525879 2.407613754272461 -0.3815944492816925 4664956 0 -1
-1.6129639148712158 2.39029598236084 -0.5162748694419861 4600703 0 -1
-1.6304616928100586 2.416226387023926 -0.29180753231048584 4147337 0 -1
-1.6551474332809448 2.4044182300567627 -0.2469140589237213 4017546 0 -1
-1.6316698789596558 2.4180166721343994 -0.2693607807159424 3887499 0 -1
-1.72331702709198 2.358283281326294 -0.22446732223033905 3432845 0 -1
-1.6337940692901611 2.4211645126342773 0.22446732223033905 3432845 0 -1
-1.6433606147766113 2.387295722961426 0.42648792266845703 3302798 0 -1
-1.7271294593811035 2.3635003566741943 -0.11223366111516953 2782862 0 -1
-1.7271294593811035 2.3635003566741943 -0.11223366111516953 2782862 0 -1
-1.7265708446502686 2.3627359867095947 -0.1346803903579712 2718350 0 -1
-1.7265708446502686 2.3627359867095947 -0.1346803903579712 2718350 0 -1
-1.747552514076233 2.344252586364746 -0.17957386374473572 2588302 0 -1
-1.6586670875549316 2.409531354904175 -0.15712712705135345 2588302 0 -1
-1.7456977367401123 2.341764450073242 -0.22446732223033905 2523534 0 -1
-1.6586670875549316 2.409531354904175 -0.15712712705135345 2523534 0 -1
-1.5240963697433472 2.446834087371826 0.6808842420578003 4456788 0 -1
-1.499165654182434 2.455798864364624 0.703580379486084 4456788 0 -1
-1.499165654182434 2.455798864364624 0.703580379486084 4456788 0 -1
-1.5047521591186523 2.4649503231048584 0.6581881046295166 4456788 0 -1
-1.499165654182434 2.455798864364624 0.703580379486084 4456788 0 -1
-1.496224284172058 2.4509806632995605 0.7262765169143677 4456788 0 -1
-1.5711383819580078 2.4231762886047363 0.6581881046295166 4456788 0 -1
2.6913657188415527 1.1506415605545044 -0.4539228081703186 4456788 0 -1
-1.7786450386047363 2.246983051300049 0.7489726543426514 4456788 0 -1
-1.7475515604019165 2.391447067260742 0.02269614115357399 4456788 0 -1
-1.7614942789077759 2.362954616546631 -0.29504984617233276 4664956 0 -1
-1.7344194650650024 2.373476505279541 -0.36313825845718384 4600703 0 -1
-1.6509225368499756 2.446547746658325 -0.2496575564146042 4147337 0 -1
-1.6723995208740234 2.4294803142547607 -0.2723536789417267 4017546 0 -1
-1.7163276672363281 2.3959622383117676 -0.29504984617233276 3757452 0 -1
-1.3763928413391113 2.549419403076172 0.7572031021118164 4456788 0 -1
-1.5212879180908203 2.492037534713745 0.6654209494590759 4456788 0 -1
-1.4961825609207153 2.500988483428955 0.6883664727210999 4456788 0 -1
-1.3918458223342896 2.5780422687530518 0.6195298433303833 4456788 0 -1
-1.5126663446426392 2.477914571762085 0.7342575788497925 4456788 0 -1
-1.5855069160461426 2.4453370571136475 0.6883664727210999 4456788 0 -1
-1.6136083602905273 2.4394359588623047 0.6424753665924072 4456788 0 -1
-1.8559139966964722 2.344597816467285 0.1606188416481018 4456788 0 -1
-1.7580199241638184 2.4057724475860596 0.2982921302318573 4456788 0 -1
-1.6057640314102173 2.5266849994659424 0.06883664429187775 4456788 0 -1
-1.612366795539856 2.437558889389038 -0.7886285185813904 4456788 0 -1
-1.637283205986023 2.426335334777832 0.8908858895301819 4456788 0 -1
-1.6332343816757202 2.420335054397583 0.914330244064331 4456788 0 -1
-1.7027543783187866 2.473576307296753 0.5861091613769531 4456788 0 -1
-1.73162043094635 2.515509843826294 0.18755492568016052 4456788 0 -1
-1.7815625667572021 2.4870288372039795 -0.04688873142004013 4590430 0 -1
-1.7813009023666382 2.486663818359375 0.0703330934047699 4657508 0 -1
-1.6732202768325806 2.4306724071502686 0.9240571856498718 4456788 0 -1
-1.6732202768325806 2.4306724071502686 0.9240571856498718 4456788 0 -1
-1.9419766664505005 2.4044668674468994 -0.09477509558200836 4590430 0 -1
-1.7998807430267334 2.512600898742676 0.09477509558200836 4590430 0 -1
-1.7988227605819702 2.5111238956451416 0.14216263592243195 4657508 0 -1
-1.6908330917358398 2.456258535385132 0.9337840676307678 4456788 0 -1
-1.700205683708191 2.4211809635162354 1.0056136846542358 4456788 0 -1
-1.6950247287750244 2.4623477458953857 0.9098408818244934 4456788 0 -1
-1.6820898056030273 2.4435572624206543 0.9816704392433167 4456788 0 -1
-1.963110327720642 2.430633544921875 -0.04788636416196823 4590430 0 -1
-1.8344554901123047 2.510371446609497 0.3112613558769226 4536450 0 -1
-1.8534798622131348 2.4863486289978027 0.38309091329574585 4471684 0 -1
-2.0056960582733154 2.3848745822906494 0.5080443620681763 4456788 0 -1
-1.7859896421432495 2.594491481781006 -0.21773330867290497 4456788 0 -1
-1.6036337614059448 2.6806015968322754 0.459659218788147 4456788 0 -1
-1.8310593366622925 2.5057239532470703 -0.580622136592865 4456788 0 -1
-1.9466131925582886 2.459178924560547 0.3628888428211212 4456788 0 -1
-1.802292823791504 2.466357946395874 0.7983554601669312 4456788 0 -1
-1.706949234008789 2.58054780960083 0.6290073394775391 4456788 0 -1
-1.9837923049926758 2.4562411308288574 0 4590430 0 -1
-1.8850266933441162 2.5286669731140137 0.14515553414821625 4590430 0 -1
-1.8504841327667236 2.5323057174682617 0.3628888428211212 4536450 0 -1
-1.8727868795394897 2.5122480392456055 0.38708144426345825 4471684 0 -1
-1.8413163423538208 2.5197601318359375 -0.6599339246749878 4456788 0 -1
-2.0185959339141846 2.4493789672851562 0.31774598360061646 4456788 0 -1
-1.8902320861816406 2.5356497764587402 0.4155139625072479 4456788 0 -1
-1.7465482950210571 2.6404130458831787 0.39107197523117065 4456788 0 -1
-2.0444302558898926 2.430931329727173 0.2933039665222168 4726897 0 -1
-2.016979217529297 2.4474172592163086 0.3421879708766937 4664956 0 -1
-1.922737956047058 2.528280258178711 0.2933039665222168 4664956 0 -1
-1.9213142395019531 2.5264081954956055 0.31774598360061646 4600703 0 -1
-1.8902320861816406 2.5356497764587402 0.4155139625072479 4536450 0 -1
-1.8920940160751343 2.538147449493408 0.39107197523117065 4471684 0 -1
-2.0375607013702393 2.47239089012146 0.3456796705722809 4456788 0 -1
-1.9114010334014893 2.564046859741211 0.39506250619888306 4456788 0 -1
-2.0375607013702393 2.47239089012146 0.3456796705722809 4456788 0 -1
-1.907523274421692 2.558845043182373 0.44444531202316284 4456788 0 -1
-2.0621097087860107 2.451953172683716 0.3456796705722809 4726897 0 -1
-2.039193868637085 2.474372625350952 0.320988267660141 4664956 0 -1
-2.0375607013702393 2.47239089012146 0.3456796705722809 4600703 0 -1
-1.943679928779602 2.5558176040649414 0.2716054618358612 4600703 0 -1
-2.0094215869903564 2.487974166870117 0.39506250619888306 4536450 0 -1
-1.885039210319519 2.579592704772949 0.41975390911102295 4536450 0 -1
-1.885039210319519 2.579592704772949 0.41975390911102295 4471684 0 -1
-2.084608554840088 2.478705644607544 0.3242305815219879 4729209 0 -1
-2.084608554840088 2.478705644607544 0.3242305815219879 4664956 0 -1
-2.817486524581909 1.798803448677063 0.2568903863430023 4456788 0 -1
-2.8228063583374023 1.8021998405456543 0.15413422882556915 4523353 0 -1
-2.8502120971679688 1.8196969032287598 0.1556306779384613 4456788 0 -1
-2.8478634357452393 1.8181973695755005 0.20750758051872253 4456788 0 -1
-2.8502120971679688 1.8196969032287598 0.1556306779384613 4523353 0 -1
-1.8631219863891602 2.816648006439209 -0.23344601690769196 4523353 0 -1
-2.87524676322937 1.8356800079345703 0.20950284600257874 4456788 0 -1
-2.87524676322937 1.8356800079345703 0.20950284600257874 4456788 0 -1
-2.87524676322937 1.8356800079345703 0.20950284600257874 4523353 0 -1
-1.8538713455200195 2.8592371940612793 -0.2618785500526428 4523353 0 -1
-2.9539241790771484 1.766896367073059 0.2379353642463684 4456788 0 -1
-2.952268362045288 1.7659058570861816 0.2643726170063019 4456788 0 -1
-2.959747314453125 1.7101624011993408 -0.6671667695045471 4456788 0 -1
-2.1798272132873535 3.042999029159546 0 4456788 0 -1
3.258727550506592 1.393206238746643 -1.204641342163086 4456788 0 -1
-2.2148585319519043 3.0309360027313232 -0.40503883361816406 4456788 0 -1
-2.1965420246124268 3.0663328170776367 0.5252535343170166 4726897 0 -1
-2.896951913833618 2.429309368133545 -0.6768937110900879 4456788 0 -1
-2.908252239227295 2.4387855529785156 -0.5886031985282898 4456788 0 -1
-3.045513868331909 2.308793783187866 0.3825920820236206 4590430 0 -1
-3.0723350048065186 2.2678303718566895 0.41202226281166077 4726897 0 -1
-3.069687843322754 2.265876293182373 0.44145241379737854 4728182 0 -1
-2.976966142654419 2.197434186935425 1.0300556421279907 4147337 0 -1
-3.7011139392852783 1.1106572151184082 0.26711612939834595 4456788 0 -1
-2.8918137550354004 2.5432097911834717 0.4155139625072479 4456788 0 -1
-2.9278318881988525 2.395902156829834 0.8310279250144958 4456788 0 -1
-2.9623754024505615 2.4841718673706055 0.23743654787540436 4456788 0 -1
-2.982727527618408 2.440824270248413 0.38583439588546753 4456788 0 -1
-2.9777705669403076 2.436768054962158 0.4451935291290283 4456788 0 -1
-2.955383777618408 2.478308916091919 0.35615482926368713 4523353 0 -1
-3.576014280319214 1.4451398849487305 0.35615482926368713 4729209 0 -1
-2.792612075805664 2.6304121017456055 0.5342322587966919 4729209 0 -1
-2.997284412384033 2.4527366161346436 0.05935913696885109 4471684 0 -1
-2.9840986728668213 2.5023884773254395 0.2992897629737854 4456788 0 -1
-3.2299563884735107 2.191199541091919 -0.1496448814868927 4456788 0 -1
-2.9822475910186768 2.500836133956909 0.3292187452316284 4456788 0 -1
-2.8846983909606934 2.360605239868164 1.1672301292419434 4456788 0 -1
-3.0206074714660645 2.4718222618103027 0.1496448814868927 4456788 0 -1
-3.000023365020752 2.4549779891967773 0.4788636267185211 4456788 0 -1
-3.0053834915161133 2.459364175796509 0.41900569200515747 4456788 0 -1
-3.002794027328491 2.457245111465454 0.4489346444606781 4456788 0 -1
-3.0077922344207764 2.4613354206085205 0.38907670974731445 4523353 0 -1
-3.0053834915161133 2.459364175796509 0.41900569200515747 4590430 0 -1
-3.5082147121429443 1.6574844121932983 0.4489346444606781 4726897 0 -1
-3.5736145973205566 1.5278301239013672 0.38907670974731445 4729209 0 -1
-2.8487014770507812 2.6234323978424072 0.5087926387786865 4729209 0 -1
-3.0224716663360596 2.4733476638793945 0.05985795333981514 4471684 0 -1
-2.764948844909668 2.7221100330352783 0.4489346444606781 2264205 0 -1
-3.6187474727630615 1.4624091386795044 0.1496448814868927 2139270 0 -1
-3.419022798538208 1.8344230651855469 0.4489346444606781 2139270 0 -1
-3.0278172492980957 2.47772216796875 0.45267578959465027 4456788 0 -1
-3.0278172492980957 2.47772216796875 0.45267578959465027 4456788 0 -1
-3.0278172492980957 2.47772216796875 0.45267578959465027 4456788 0 -1
-3.030428409576416 2.479858875274658 0.42249739170074463 4523353 0 -1
-3.0328571796417236 2.481846570968628 0.392318993806839 4590430 0 -1
-3.636115312576294 1.4694279432296753 0.36214062571525574 4726897 0 -1
-2.74023175239563 2.757026433944702 0.6337460875511169 4726897 0 -1
-3.8316421508789062 0.906653881072998 0.09053515642881393 4729209 0 -1
-3.636115312576294 1.4694279432296753 0.36214062571525574 4729209 0 -1
-2.946957588195801 2.5917062759399414 0.3319622278213501 4729209 0 -1
-2.7436156272888184 2.7604310512542725 0.6035677194595337 4729209 0 -1
-3.0146474838256836 2.528005838394165 0.18107031285762787 4471684 0 -1
-2.8233273029327393 2.6593432426452637 0.8519781827926636 4456788 0 -1
-1.8906564712524414 3.2252321243286133 1.3388229608535767 4456788 0 -1
-1.7910089492797852 3.3173909187316895 1.2475395202636719 4456788 0 -1
-3.0438361167907715 2.490830659866333 0.5477002859115601 4456788 0 -1
-2.8578712940216064 2.6318771839141846 0.8215504288673401 4456788 0 -1
-3.0438361167907715 2.490830659866333 0.5477002859115601 4456788 0 -1
-2.8371078968048096 2.67232346534729 0.7606948614120483 4456788 0 -1
-3.047022581100464 2.493438243865967 0.5172724723815918 4456788 0 -1
-2.8371078968048096 2.67232346534729 0.7606948614120483 4456788 0 -1
-3.0739729404449463 2.4535412788391113 0.5477002859115601 4523353 0 -1
-3.077191114425659 2.4561097621917725 0.5172724723815918 4590430 0 -1
-3.623790740966797 1.5492818355560303 0.4868446886539459 4726897 0 -1
-2.8441450595855713 2.4429678916931152 -1.3083951473236084 4726897 0 -1
-2.8084378242492676 2.764925003051758 0.4868446886539459 4726897 0 -1
-2.639326333999634 2.890501022338867 0.6694114804267883 4726897 0 -1
-2.872931480407715 2.585939884185791 1.0430248975753784 4456788 0 -1
-2.84930682182312 2.623990058898926 1.01234769821167 4456788 0 -1
-2.95851731300354 2.6629762649536133 -0.42948082089424133 4456788 0 -1
-3.6019058227539062 1.7017494440078735 0.39880362153053284 4726897 0 -1
-2.664415121078491 2.9179773330688477 0.6442212462425232 4726897 0 -1
-2.9135639667510986 2.7443387508392334 0.09203160554170609 4600703 0 -1
-2.406534194946289 2.979660987854004 1.1657336950302124 4600703 0 -1
-2.305166482925415 3.0922632217407227 1.073702096939087 4600703 0 -1
-2.902916431427002 2.7958216667175293 0.21648626029491425 4456788 0 -1
-2.2713048458099365 3.2995047569274902 0.4948257505893707 4456788 0 -1
-3.2471985816955566 2.3969051837921143 0.03092660941183567 4456788 0 -1
-3.0107221603393555 2.6477839946746826 -0.4638991355895996 4456788 0 -1
-3.2781243324279785 2.3544328212738037 -0.03092660941183567 4456788 0 -1
-3.2778356075286865 2.3542253971099854 0.06185321882367134 4523353 0 -1
-2.472966432571411 3.187403917312622 -0.12370643764734268 4590430 0 -1
-2.329880952835083 3.317870855331421 0.3429361879825592 4456788 0 -1
-2.3015329837799072 3.343416929244995 0.2805841565132141 4456788 0 -1
3.630831718444824 1.7154158353805542 -0.6546963453292847 4456788 0 -1
-3.045003652572632 2.553461790084839 0.8729285001754761 4456788 0 -1
-3.273097515106201 2.416022300720215 -0.06235203519463539 4456788 0 -1
-3.1479456424713135 2.5760257244110107 -0.09352805465459824 4523353 0 -1
-2.3609459400177 3.295837879180908 0.3429361879825592 4523353 0 -1
-2.332634687423706 3.3217926025390625 0.2805841565132141 4590430 0 -1
-3.0224311351776123 2.5345330238342285 0.9976325631141663 4724328 0 -1
-2.192479133605957 3.2490954399108887 1.0911606550216675 4724328 0 -1
-3.533557176589966 1.9691851139068604 -0.43646425008773804 4471684 0 -1
-3.3046579360961914 2.3734898567199707 0 4471684 0 -1
-3.108436107635498 2.606654644012451 0.31176018714904785 4471684 0 -1
-2.8615877628326416 2.817251443862915 0.6546963453292847 4471684 0 -1
-2.1203603744506836 3.4040958881378174 0.6858723759651184 4471684 0 -1
-3.3046579360961914 2.3734898567199707 0 4147337 0 -1
-3.114305257797241 2.6115763187408447 0.18705610930919647 4147337 0 -1
-2.8150768280029297 2.8323302268981934 0.7794004678726196 4147337 0 -1
-2.3668720722198486 3.304110288619995 0.18705610930919647 4147337 0 -1
-1.9757776260375977 3.439929723739624 0.9041045308113098 4147337 0 -1
-2.3186447620391846 3.3682749271392822 0.3142542541027069 4456788 0 -1
-2.3469223976135254 3.3421387672424316 0.37710511684417725 4456788 0 -1
3.546996831893921 1.903085470199585 -0.7856356501579285 4456788 0 -1
-2.1720128059387207 3.2187659740448 1.3198678493499756 4456788 0 -1
3.705477714538574 1.7506828308105469 0.15712712705135345 4456788 0 -1
-2.418621063232422 3.3097758293151855 0.12570171058177948 4456788 0 -1
-2.2897419929504395 3.3932318687438965 0.25140342116355896 4456788 0 -1
-3.3263001441955566 2.389033794403076 -0.2199779748916626 4456788 0 -1
-3.1421735286712646 2.634945869445801 0.06285085529088974 4523353 0 -1
-2.3512959480285645 3.3483669757843018 0.28282883763313293 4523353 0 -1
-3.173874855041504 2.5972440242767334 0.03142542764544487 4590430 0 -1
-2.349977731704712 3.346489906311035 0.3142542541027069 4590430 0 -1
-3.1066386699676514 2.668436050415039 -0.2199779748916626 4657508 0 -1
-3.561825752258301 1.984938621520996 -0.4399559497833252 4471684 0 -1
-3.3310952186584473 2.3924777507781982 0 4471684 0 -1
-3.1517295837402344 2.6429593563079834 0.41177284717559814 4456788 0 -1
-2.4363832473754883 3.334082841873169 0.19004900753498077 4456788 0 -1
-2.3024673461914062 3.412090301513672 0.38009801506996155 4456788 0 -1
-3.3526992797851562 2.407994508743286 -0.22172383964061737 4456788 0 -1
-3.234337091445923 2.2585930824279785 -1.2353185415267944 4523353 0 -1
-3.234337091445923 2.2585930824279785 -1.2353185415267944 4523353 0 -1
-2.6212821006774902 3.18068265914917 -0.31674835085868835 4590430 0 -1
-2.4015562534332275 3.3525290489196777 0.28507351875305176 4590430 0 -1
-3.1659953594207764 2.6549222469329834 -0.12669934332370758 4657508 0 -1
-2.5863332748413086 3.202279806137085 0.38009801506996155 4657508 0 -1
-2.373868465423584 3.3805112838745117 -0.15837417542934418 4657508 0 -1
-2.290573835372925 3.2618956565856934 1.2131211757659912 4456788 0 -1
3.6435928344726562 1.954912543296814 -0.510787844657898 4456788 0 -1
-2.339816093444824 3.3990306854248047 0.5746363401412964 4456788 0 -1
-2.3579511642456055 3.42537522315979 0.255393922328949 4456788 0 -1
-3.190080404281616 2.675119400024414 -0.1596212089061737 4456788 0 -1
-2.359895944595337 3.4282002449035645 0.19154545664787292 4456788 0 -1
-3.1890485286712646 2.6742541790008545 0.19154545664787292 4456788 0 -1
-2.3316094875335693 3.387108564376831 0.670409083366394 4456788 0 -1
-3.255295515060425 2.2083895206451416 -1.3727424144744873 4523353 0 -1
-3.319243907928467 2.5163075923919678 0.09577272832393646 4590430 0 -1
-3.168341636657715 2.6568896770477295 -0.510787844657898 4590430 0 -1
-2.3948206901550293 3.410348415374756 0.5147783756256104 4456788 0 -1
-3.216514825820923 2.697286605834961 -0.09652095288038254 4456788 0 -1
-2.4762072563171387 3.388580083847046 -0.1286945939064026 4456788 0 -1
-2.346952199935913 3.478013277053833 0.16086825728416443 4456788 0 -1
-3.4065558910369873 2.2430434226989746 -0.997383177280426 4456788 0 -1
-3.1850979328155518 2.735828161239624 0.03217364847660065 4456788 0 -1
-2.479901075363159 3.3266608715057373 0.6434730291366577 4456788 0 -1
-2.3015952110290527 3.4107978343963623 0.8365148901939392 4456788 0 -1
3.657329559326172 1.8854238986968994 -0.8365148901939392 4456788 0 -1
-2.455383777618408 3.427671194076538 0.35665363073349 4456788 0 -1
2.6350488662719727 3.9836387634277344 0.6275109052658081 4456788 5 -1
2.843174457550049 3.7385966777801514 1.0704597234725952 4456788 0 -1
3.757486343383789 2.773571729660034 1.181196928024292 4456788 0 -1
2.825847625732422 3.7907302379608154 0.9228101372718811 4456788 5 -1
3.582843542098999 3.1509368419647217 0.6644232869148254 4456788 0 -1
2.4520316123962402 4.182870388031006 0.11148543655872345 4456788 5 -1
2.6322073936462402 4.059669494628906 0.33445632457733154 4456788 5 -1
2.6010215282440186 4.092731952667236 0.0743236243724823 4456788 5 -1
2.8472278118133545 3.896305561065674 0.48310357332229614 4456788 5 -1
2.660210609436035 4.0216779708862305 0.5202654004096985 4456788 5 -1
2.7063539028167725 4.010621070861816 0.33445632457733154 4456788 5 -1
2.8677382469177246 3.8469245433807373 0.7060744762420654 4456788 5 -1
2.9780359268188477 3.7621872425079346 0.7060744762420654 4456788 5 -1
2.7063539028167725 4.010621070861816 0.33445632457733154 4456788 5 -1
2.8898322582244873 3.7999489307403564 0.85472172498703 4456788 5 -1
2.301596164703369 4.263124465942383 -0.2229708731174469 4456788 5 -1
2.489549160003662 4.161479949951172 0.0743236243724823 4456788 5 -1
2.7031588554382324 4.005886077880859 0.40877994894981384 4456788 5 -1
2.224400520324707 4.296681880950928 -0.33445632457733154 4456788 5 -1
2.8739242553710938 3.855222702026367 0.6317508220672607 4456788 5 -1
2.430586814880371 4.231775760650635 -0.1496448814868927 4456788 5 -1
2.653388023376465 4.092336654663086 0.22446732223033905 4456788 5 -1
3.0384016036987305 3.762010097503662 0.6734020113945007 4456788 5 -1
2.7213008403778076 4.032771110534668 0.4115234315395355 4456788 5 -1
2.801802635192871 3.9899117946624756 0.2618785500526428 4456788 5 -1
2.7546613216400146 4.001672267913818 0.48634588718414307 4456788 5 -1
2.7152597904205322 4.023818492889404 0.5237571001052856 4456788 5 -1
2.7546613216400146 4.001672267913818 0.48634588718414307 4456788 5 -1
2.953896999359131 3.8072750568389893 0.7856356501579285 4456788 5 -1
2.961010217666626 3.8164429664611816 0.7108132243156433 4456788 5 -1
2.961010217666626 3.8164429664611816 0.7108132243156433 4456788 5 -1
2.724517345428467 4.037537574768066 0.33670100569725037 4456788 5 -1
2.6512014865875244 4.088964462280273 0.2992897629737854 4456788 5 -1
3.530512809753418 3.325453996658325 0.5611683130264282 4456788 0 -1
2.7848405838012695 4.04551362991333 -0.188303142786026 4456788 5 -1
2.7861502170562744 4.0474162101745605 0.1129818856716156 4456788 5 -1
2.7769696712493896 4.034079551696777 0.4142669141292572 4456788 5 -1
2.977261543273926 3.8373894691467285 0.753212571144104 4456788 5 -1
2.977261543273926 3.8373894691467285 0.753212571144104 4456788 5 -1
2.9735896587371826 3.8326568603515625 0.7908732295036316 4456788 5 -1
2.7816455364227295 4.040872573852539 0.3012850284576416 4456788 5 -1
2.8144962787628174 4.007987976074219 -0.4142669141292572 4456788 5 -1
2.855393886566162 3.9860777854919434 0.3389456570148468 4456788 5 -1
2.7708048820495605 4.0251240730285645 -0.5272487998008728 4456788 5 -1
2.739443063735962 4.059656143188477 0.4142669141292572 4657508 5 -1
2.880824565887451 4.021578788757324 -0.07582007348537445 4456788 5 -1
2.805342674255371 4.075296878814697 0 4456788 5 -1
2.981079339981079 3.8423104286193848 0.9098408818244934 4456788 5 -1
2.79709529876709 4.0633158683776855 0.37910038232803345 4456788 5 -1
2.9853334426879883 3.8477933406829834 0.8719308376312256 4456788 5 -1
2.989400863647461 3.8530359268188477 0.8340208530426025 4456788 5 -1
3.0099244117736816 3.879488706588745 0.6065605878829956 4456788 5 -1
2.803283214569092 4.072305202484131 -0.18955019116401672 4456788 5 -1
2.8312079906463623 4.0317864418029785 -0.4549204409122467 4456788 5 -1
2.84116530418396 4.045966148376465 -0.18955019116401672 4456788 5 -1
2.8402464389801025 4.0446577072143555 -0.22746022045612335 4456788 5 -1
2.8190274238586426 4.014441013336182 -0.6444706320762634 4456788 5 -1
2.8331351280212402 4.034531116485596 -0.41701042652130127 4456788 5 -1
2.8391599655151367 4.043110370635986 -0.26537024974823 4456788 5 -1
2.8244102001190186 4.022106170654297 -0.5686505436897278 4456788 5 -1
2.8348937034606934 4.0370354652404785 -0.37910038232803345 4456788 5 -1
2.746556043624878 4.070197582244873 0.6065605878829956 4657508 5 -1
2.847724199295044 4.055306434631348 -0.49607279896736145 4456788 5 -1
2.847724199295044 4.055306434631348 -0.49607279896736145 4456788 5 -1
2.8946640491485596 4.040898323059082 -0.305275559425354 4456788 5 -1
2.7953133583068848 3.980670690536499 -1.0684645175933838 4456788 0 -1
2.8987553119659424 4.046609878540039 -0.152637779712677 4456788 5 -1
2.821725845336914 4.099096298217773 -0.19079722464084625 4456788 5 -1
2.872400999069214 4.009819507598877 -0.6868700385093689 4456788 5 -1
2.918804883956909 3.994255542755127 0.5723916888237 4456788 5 -1
2.858614683151245 3.9905741214752197 0.8395078182220459 4456788 5 -1
3.0613749027252197 3.8674702644348145 0.6868700385093689 4456788 5 -1
3.029726505279541 3.9050116539001465 0.610551118850708 4456788 5 -1
2.8565762042999268 4.067912578582764 -0.305275559425354 4456788 5 -1
2.822472333908081 4.1001811027526855 -0.152637779712677 4456788 5 -1
2.8578386306762695 4.069709777832031 -0.26711612939834595 4456788 5 -1
2.847724199295044 4.055306434631348 -0.49607279896736145 4456788 5 -1
2.8454434871673584 4.052058696746826 -0.5342322587966919 4456788 5 -1
2.849834442138672 4.058311462402344 -0.457913339138031 4456788 5 -1
2.837573766708374 4.040851593017578 -0.6487105488777161 4456788 5 -1
2.8403687477111816 4.0448317527771 -0.610551118850708 4456788 5 -1
2.837573766708374 4.040851593017578 -0.6487105488777161 4590430 5 -1
2.8561198711395264 4.067262649536133 -0.6529505252838135 4456788 5 -1
2.853133201599121 4.063009262084961 -0.6913593411445618 4456788 5 -1
2.853133201599121 4.063009262084961 -0.6913593411445618 4456788 5 -1
2.853133201599121 4.063009262084961 -0.6913593411445618 4456788 5 -1
2.8119726181030273 4.084928035736084 -0.7297682166099548 4456788 5 -1
2.6948161125183105 4.15623140335083 0.7681770920753479 4456788 5 -1
2.8355259895324707 3.9583425521850586 -1.1906744241714478 4456788 0 -1
2.956700325012207 4.04611349105835 0.11522655934095383 4456788 5 -1
2.8234190940856934 4.101556301116943 -0.5761328339576721 4456788 5 -1
2.9887583255767822 4.0092668533325195 -0.3456796705722809 4456788 5 -1
2.846092462539673 3.973093271255493 -1.1138567924499512 4456788 0 -1
2.902228355407715 4.05145788192749 0.537723958492279 4456788 5 -1
2.8381638526916504 4.122975826263428 -0.2688619792461395 4456788 5 -1
2.8415040969848633 4.127828121185303 -0.11522655934095383 4456788 5 -1
2.8409199714660645 4.126979351043701 -0.1536354124546051 4456788 5 -1
2.870413303375244 4.087616920471191 -0.42249739170074463 4456788 5 -1
2.870413303375244 4.087616920471191 -0.42249739170074463 4456788 5 -1
2.853133201599121 4.063009262084961 -0.6913593411445618 4456788 5 -1
2.853133201599121 4.063009262084961 -0.6913593411445618 4456788 5 -1
2.8466367721557617 4.053757667541504 -0.7681770920753479 4456788 5 -1
2.8466367721557617 4.053757667541504 -0.7681770920753479 4590430 5 -1
2.871659994125366 4.089392185211182 -0.6958487033843994 4456788 5 -1
2.868478536605835 4.084861755371094 -0.7345069646835327 4456788 5 -1
2.868478536605835 4.084861755371094 -0.7345069646835327 4456788 5 -1
2.773923873901367 4.110754489898682 0.9277982711791992 4456788 5 -1
2.7359249591827393 4.136142253875732 0.9277982711791992 4456788 5 -1
2.7318484783172607 4.129979610443115 0.9664565324783325 4456788 5 -1
2.72135066986084 4.197155952453613 0.6571904420852661 4456788 5 -1
2.9293901920318604 4.0893754959106445 0.386582612991333 4456788 5 -1
2.853900909423828 4.14583683013916 0.3479243516921997 4456788 5 -1
2.817990779876709 4.176058769226074 0.2706078290939331 4456788 5 -1
2.9310333728790283 4.091669082641602 0.3479243516921997 4456788 5 -1
2.8593673706054688 4.153778076171875 -0.1546330451965332 4456788 5 -1
2.86037540435791 4.155242443084717 -0.0773165225982666 4456788 5 -1
2.8606274127960205 4.155608654022217 0.0386582612991333 4456788 5 -1
2.8586111068725586 4.152679443359375 -0.1932913064956665 4456788 5 -1
2.8939170837402344 4.121087551116943 -0.3092660903930664 4456788 5 -1
2.86037540435791 4.155242443084717 -0.0773165225982666 4456788 5 -1
2.89321231842041 4.120084285736084 -0.6614304184913635 4456788 5 -1
2.764199733734131 4.096343994140625 1.1672301292419434 4456788 0 -1
2.747959613800049 4.072277545928955 1.283953070640564 4456788 0 -1
2.830152988433838 4.194082260131836 0.427984356880188 4456788 5 -1
2.789484977722168 4.217113494873047 0.4668920338153839 4456788 5 -1
2.7946829795837402 4.224972248077393 0.35016903281211853 4456788 5 -1
2.8648476600646973 4.161739349365234 0.5057997107505798 4456788 5 -1
2.830152988433838 4.194082260131836 0.427984356880188 4456788 5 -1
2.8648476600646973 4.161739349365234 0.5057997107505798 4456788 5 -1
2.801023244857788 4.234557151794434 0.07781533896923065 4456788 5 -1
2.9012365341186523 4.1315107345581055 0.5447073578834534 4456788 5 -1
2.896062135696411 4.124142169952393 -0.6225227117538452 4456788 5 -1
2.8125977516174316 4.2520551681518555 -0.35241371393203735 4456788 5 -1
2.9442310333251953 4.110093116760254 -0.7439844608306885 4456788 5 -1
2.8097164630889893 4.163796424865723 0.9397698640823364 4456788 5 -1
2.7358407974243164 4.304871559143066 0.3132566213607788 4456788 5 -1
2.8395233154296875 4.207968235015869 0.5873561501502991 4456788 5 -1
2.853091239929199 4.228074550628662 0.3132566213607788 4456788 5 -1
2.856368064880371 4.232931137084961 0.19578538835048676 4456788 5 -1
2.844249963760376 4.214972496032715 0.5090420246124268 4456788 5 -1
2.8052875995635986 4.24100399017334 0.5090420246124268 4456788 5 -1
2.7702596187591553 4.27258825302124 0.43072786927223206 4456788 5 -1
2.850062847137451 4.2235870361328125 0.3915707767009735 4456788 5 -1
2.9923501014709473 4.094898700714111 0.6265132427215576 4456788 5 -1
2.894559860229492 4.204901695251465 0.2349424660205841 4456788 5 -1
2.8359339237213135 4.28733491897583 -0.1576259434223175 4456788 5 -1
2.6732616424560547 4.379097938537598 0.3546583652496338 4456788 5 -1
2.744734525680542 4.31886625289917 0.5122843384742737 4456788 5 -1
2.771121025085449 4.273916721343994 0.7093167304992676 4456788 5 -1
2.9662704467773438 4.140859603881836 0.7093167304992676 4456788 5 -1
2.91471004486084 4.234173774719238 0.1576259434223175 4456788 5 -1
2.9941015243530273 4.17971134185791 0.11821945756673813 4456788 5 -1
2.992694139480591 4.177746772766113 0.19703243672847748 4456788 5 -1
3.0328738689422607 4.150353908538818 0.1576259434223175 4456788 5 -1
2.7793188095092773 4.286560535430908 0.5910972952842712 4456788 5 -1
2.9484503269195557 4.1987457275390625 0.3546583652496338 4456788 5 -1
2.709372043609619 4.349714279174805 0.43347135186195374 4456788 5 -1
2.8180177211761475 4.260249137878418 0.8327738046646118 4456788 5 -1
2.966675281524658 4.141424655914307 0.9120855927467346 4456788 5 -1
2.821497678756714 4.265510082244873 0.793117880821228 4456788 5 -1
2.970717191696167 4.147067070007324 0.8724296689033508 4456788 5 -1
2.778878688812256 4.285881519317627 0.8327738046646118 4456788 5 -1
2.985044240951538 4.167067527770996 0.7138060927391052 4456788 5 -1
2.778878688812256 4.285881519317627 0.8327738046646118 4456788 5 -1
2.9570295810699463 4.210962772369385 0.5551825165748596 4456788 5 -1
3.0134940147399902 4.206782817840576 0.0793117880821228 4456788 5 -1
2.9734060764312744 4.234283924102783 -0.1189676821231842 4456788 5 -1
3.132723808288574 4.119336128234863 -0.0396558940410614 4456788 5 -1
3.0130515098571777 4.206165313720703 -0.1189676821231842 4456788 5 -1
2.972794771194458 4.2334136962890625 -0.1586235761642456 4456788 5 -1
3.0106611251831055 4.202828407287598 -0.2379353642463684 4456788 5 -1
3.0106611251831055 4.202828407287598 -0.2379353642463684 4456788 5 -1
3.032001495361328 4.232619285583496 0.11971590667963028 4456788 5 -1
3.032001495361328 4.232619285583496 -0.11971590667963028 4456788 5 -1
2.798922300338745 4.404130935668945 0.4818565249443054 4456788 5 -1
3.0874619483947754 4.22505521774292 0.28108298778533936 4456788 5 -1
3.2063357830047607 4.132643222808838 0.3212376832962036 4456788 5 -1
3.171383857727051 4.170171737670898 0.12046413123607635 4456788 5 -1
3.1718497276306152 4.170783996582031 0.0803094208240509 4456788 5 -1
3.0915496349334717 4.230648994445801 -0.0803094208240509 4456788 5 -1
2.822969436645508 4.441969394683838 0.3232329487800598 4456788 5 -1
2.8242170810699463 4.44393253326416 0.28282883763313293 4456788 5 -1
2.8215548992156982 4.439743995666504 0.3636370599269867 4456788 5 -1
2.8215548992156982 4.439743995666504 0.3636370599269867 4456788 5 -1
2.8242170810699463 4.44393253326416 0.28282883763313293 4456788 5 -1
3.149207592010498 4.224501132965088 0.20202060043811798 4456788 5 -1
3.187330722808838 4.191140651702881 0.28282883763313293 4456788 5 -1
3.191082000732422 4.196073532104492 0.12121235579252243 4456788 5 -1
3.111025810241699 4.257301330566406 0.04040411859750748 4456788 5 -1
-4.408002853393555 2.5469744205474854 -1.3737400770187378 4456788 0 -1
2.880972385406494 4.443341255187988 0.325228214263916 4456788 5 -1
2.8416504859924316 4.4713640213012695 0.2845746874809265 4456788 5 -1
2.835620403289795 4.461875915527344 0.4471887946128845 4456788 5 -1
2.8436574935913086 4.474522590637207 0.2032676339149475 4456788 5 -1
2.840395212173462 4.469388961791992 0.325228214263916 4456788 5 -1
2.840395212173462 4.469388961791992 0.325228214263916 4456788 5 -1
2.8021273612976074 4.498626708984375 0.243921160697937 4456788 5 -1
3.0765793323516846 4.294848918914795 0.487842321395874 4456788 5 -1
3.2461659908294678 4.1839799880981445 0.325228214263916 4456788 5 -1
2.8037755489349365 4.501272678375244 0.162614107131958 4456788 5 -1
2.7592411041259766 4.519941806793213 0.325228214263916 4456788 5 -1
3.170881986618042 4.253576278686523 0.0406535267829895 4456788 5 -1
-3.323788642883301 4.115363121032715 -0.406535267829895 4456788 0 -1
-4.590476036071777 2.6524085998535156 0.2032676339149475 4456788 0 -1
-3.421919107437134 3.8261895179748535 1.3415664434432983 4590430 0 -1
-3.4053306579589844 3.729403018951416 1.62614107131958 4726897 0 -1
-3.4053306579589844 3.729403018951416 1.62614107131958 4728182 0 -1
2.8971946239471436 4.468360900878906 0.36812642216682434 4456788 5 -1
2.8937742710113525 4.463085651397705 0.4499322772026062 4456788 5 -1
2.822230339050293 4.4408063888549805 0.8998645544052124 4456788 5 -1
2.703327178955078 4.253710746765137 1.7588262557983398 4456788 0 -1
2.857820987701416 4.4968085289001465 0.3272234797477722 4456788 5 -1
2.8122594356536865 4.514893054962158 0.4499322772026062 4456788 5 -1
2.9710636138916016 4.4029011726379395 0.5317381620407104 4456788 5 -1
2.81823992729187 4.524494171142578 0.2863205373287201 4456788 5 -1
2.820230484008789 4.5276899337768555 0.20451468229293823 4456788 5 -1
3.270697593688965 4.2155985832214355 0.1636117398738861 4456788 5 -1
3.230952501296997 4.248500823974609 0.08180586993694305 4456788 5 -1
-3.5568835735321045 3.9770987033843994 -0.1636117398738861 4456788 0 -1
2.947004556655884 4.367247581481934 -0.8589616417884827 4456788 5 -1
-3.558450937271118 3.978851318359375 -0.04090293496847153 4456788 0 -1
-3.388559103012085 4.1117024421691895 -0.3272234797477722 4456788 0 -1
-4.618638515472412 2.6686809062957764 0.20451468229293823 4456788 0 -1
-3.3219857215881348 4.113131046295166 -0.7362528443336487 4456788 0 -1
-3.5500833988189697 3.9694955348968506 -0.36812642216682434 4523353 0 -1
-3.5534329414367676 3.973240375518799 -0.2863205373287201 4590430 0 -1
-3.5534329414367676 3.973240375518799 -0.2863205373287201 4726897 0 -1
-3.551863193511963 3.9714853763580322 -0.3272234797477722 4212104 0 -1
-3.3868613243103027 4.109642028808594 0.36812642216682434 4147337 0 -1
2.7916972637176514 4.573108673095703 0.37037110328674316 4456788 5 -1
2.7140512466430664 4.536752700805664 0.9465038776397705 4456788 5 -1
2.87219500541687 4.519426345825195 0.4115234315395355 4456788 5 -1
3.0323727130889893 4.405101299285889 0.4938281178474426 4456788 5 -1
2.7943310737609863 4.577423095703125 0.28806641697883606 4456788 5 -1
2.7916972637176514 4.573108673095703 0.37037110328674316 4456788 5 -1
3.250175952911377 4.273778438568115 0.12345702946186066 4456788 5 -1
-3.577625274658203 4.000290870666504 -0.20576171576976776 4456788 0 -1
2.972113847732544 4.404458045959473 -0.7818945050239563 4456788 5 -1
-3.579307794570923 4.002172470092773 -0.12345702946186066 4456788 0 -1
-4.646800518035889 2.684953451156616 0.20576171576976776 4456788 0 -1
-3.5675137042999268 3.9889848232269287 -0.45267578959465027 4456788 0 -1
-3.3521289825439453 4.150453090667725 -0.6172851324081421 4456788 0 -1
